# .PCD v0.7 - Point Cloud Data file format
VERSION 0.7
FIELDS x y z
SIZE 4 4 4
TYPE F F F
COUNT 1 1 1
WIDTH 880
HEIGHT 1
VIEWPOINT 0 0 0 1 0 0 0
POINTS 880
DATA ascii
-0.34049776 -0.063870601 -0.2949543
-0.35753429 -0.063870601 -0.28517783
-0.35215694 -0.063870601 -0.27501497
-0.38037315 -0.063870601 -0.26345551
-0.34732312 -0.063870601 -0.26277366
-0.33338425 -0.063870601 -0.26699486
-0.32517251 -0.063870601 -0.26679784
-0.31599182 -0.063870601 -0.26527709
-0.29725415 -0.063870594 -0.26253965
-0.38393664 -0.063870594 -0.25178644
-0.32955235 -0.063870601 -0.25101826
-0.30500942 -0.063870601 -0.25289169
-0.28495494 -0.063870601 -0.25801706
-0.24577734 -0.063870601 -0.25411478
-0.3470214 -0.063870601 -0.24656869
-0.33430761 -0.063870601 -0.24775611
-0.30407175 -0.063870601 -0.24420218
-0.2507976 -0.063870601 -0.24079728
-0.24292766 -0.063870601 -0.24653982
-0.22576302 -0.063870601 -0.24302727
-0.36187634 -0.063870601 -0.23616524
-0.3071492 -0.063870601 -0.23614287
-0.36327624 -0.063870601 -0.22617492
-0.35532549 -0.063870601 -0.22959967
-0.3454507 -0.063870601 -0.22474819
-0.32809484 -0.063870601 -0.22164619
-0.28600314 -0.063870601 -0.22120371
-0.26299906 -0.063870601 -0.2202993
-0.25649464 -0.063870601 -0.22538416
-0.23252842 -0.063870601 -0.22013605
-0.20493996 -0.063870601 -0.22467378
-0.34360105 -0.063870601 -0.2155343
-0.29126853 -0.063870601 -0.21962288
-0.28374979 -0.063870601 -0.21621338
-0.38029709 -0.063870601 -0.20124267
-0.34499243 -0.063870601 -0.20814699
-0.22545254 -0.063870601 -0.20372094
-0.20996228 -0.063870601 -0.20457044
-0.17779225 -0.063870601 -0.20206615
-0.38766086 -0.063870601 -0.19198804
-0.3526012 -0.063870601 -0.19013301
-0.29487967 -0.063870601 -0.19439912
-0.23075244 -0.063870601 -0.19434711
-0.38823497 -0.10392968 -0.18170726
-0.21863827 -0.10331529 -0.18081743
-0.38066104 -0.097692713 -0.18202817
-0.3484585 -0.099910557 -0.1819748
-0.27030459 -0.099685244 -0.18129779
-0.26547623 -0.091546446 -0.18132657
-0.24444509 -0.099294715 -0.18107656
-0.22683775 -0.09503261 -0.18096061
-0.21952328 -0.097044833 -0.18087959
-0.33414382 -0.081929192 -0.18141195
-0.24589786 -0.084092639 -0.18122123
-0.2357029 -0.082904592 -0.18114299
-0.21432312 -0.081708454 -0.18096763
-0.30299857 -0.077742614 -0.18124828
-0.26288617 -0.072739169 -0.1810527
-0.23649672 -0.076786369 -0.18120304
-0.35701483 -0.063870601 -0.18082027
-0.34668672 -0.063870601 -0.18282257
-0.32645077 -0.06670592 -0.18237692
-0.30510068 -0.064325832 -0.18072379
-0.27072433 -0.065255016 -0.18076012
-0.26608437 -0.063870601 -0.18549632
-0.25972942 -0.068229578 -0.1808764
-0.22229329 -0.066923812 -0.18082535
-0.2053006 -0.066194206 -0.18079683
-0.18804947 -0.067961603 -0.18085881
-0.16751441 -0.063870601 -0.18354529
-0.13855383 -0.063870601 -0.18110643
-0.388235 -0.10024074 -0.17504516
-0.31579226 -0.104211 -0.17644045
-0.30026513 -0.104211 -0.17201926
-0.24415684 -0.104211 -0.17374671
-0.20576927 -0.10327312 -0.17951503
-0.388235 -0.093419135 -0.17591321
-0.19138852 -0.088892415 -0.17477785
-0.388235 -0.078254506 -0.17639212
-0.38602877 -0.066103265 -0.17404105
-0.34420592 -0.063870601 -0.17090434
-0.2721189 -0.063870601 -0.17306815
-0.23839095 -0.063870601 -0.17183912
-0.21859854 -0.063870601 -0.17331839
-0.19148347 -0.063870601 -0.17739198
-0.15789045 -0.063870601 -0.17430684
-0.11776499 -0.063870601 -0.17730241
-0.34670231 -0.104211 -0.16293471
-0.33863705 -0.104211 -0.16018292
-0.30240858 -0.104211 -0.16573617
-0.27530974 -0.104211 -0.16485342
-0.25118348 -0.104211 -0.16386499
-0.24480058 -0.104211 -0.16900991
-0.20488662 -0.10239029 -0.16305713
-0.19572772 -0.093230516 -0.16953892
-0.388235 -0.081474751 -0.16865984
-0.38787752 -0.063870601 -0.16046475
-0.37563199 -0.063870601 -0.16416198
-0.33948046 -0.063870601 -0.16157541
-0.32331866 -0.063870601 -0.16846442
-0.24303624 -0.063870601 -0.16084631
-0.21334481 -0.063870601 -0.16345412
-0.16638154 -0.063870601 -0.16948427
-0.11563951 -0.063870601 -0.16301998
-0.35360754 -0.104211 -0.15965223
-0.32507232 -0.104211 -0.15976638
-0.29137766 -0.104211 -0.15507947
-0.28461507 -0.104211 -0.15529144
-0.27532643 -0.104211 -0.15797494
-0.25509405 -0.104211 -0.15619588
-0.24726617 -0.104211 -0.15841453
-0.388235 -0.078566417 -0.15632465
-0.17390701 -0.071410999 -0.15796724
-0.30698204 -0.063870601 -0.15354061
-0.28413284 -0.063870601 -0.15014142
-0.24570426 -0.063870601 -0.15060233
-0.19388783 -0.063870601 -0.15396401
-0.18058163 -0.063870601 -0.15532614
-0.17890859 -0.063870601 -0.15988211
-0.15184078 -0.063870601 -0.15461241
-0.13616903 -0.063870601 -0.15174882
-0.12055322 -0.063870601 -0.15966155
-0.07718198 -0.063870601 -0.15163545
-0.35531676 -0.104211 -0.1440842
-0.34389251 -0.104211 -0.14716054
-0.30271944 -0.104211 -0.14585578
-0.25349069 -0.104211 -0.14426059
-0.24715208 -0.104211 -0.14152992
-0.20025654 -0.097759381 -0.14229719
-0.17618647 -0.073690332 -0.14268488
-0.17477061 -0.063870601 -0.14789364
-0.15949485 -0.063870601 -0.14994857
-0.14948541 -0.063870601 -0.14830463
-0.09222009 -0.063870601 -0.14087471
-0.084366821 -0.063870601 -0.14166687
-0.38126385 -0.104211 -0.1360473
-0.36155593 -0.104211 -0.13266569
-0.3176347 -0.104211 -0.13171735
-0.2832939 -0.104211 -0.13182467
-0.27812457 -0.104211 -0.13977127
-0.35023323 -0.063870601 -0.13449094
-0.34974971 -0.063870601 -0.13946012
-0.33916378 -0.063870601 -0.13165763
-0.3045947 -0.063870601 -0.13243215
-0.26205996 -0.063870601 -0.13558969
-0.25545698 -0.063870601 -0.13353018
-0.21726516 -0.063870601 -0.13651261
-0.20665616 -0.063870601 -0.13310163
-0.1658453 -0.063870601 -0.13702962
-0.14822194 -0.063870601 -0.13768727
-0.13610029 -0.063870601 -0.13786766
-0.12997192 -0.063870601 -0.13255833
-0.079379335 -0.063870601 -0.13047439
-0.36700538 -0.10099994 -0.121774
-0.34944782 -0.10133018 -0.121774
-0.26360255 -0.10259034 -0.121774
-0.25597847 -0.10415384 -0.12177401
-0.24021603 -0.104211 -0.127986
-0.20745641 -0.104211 -0.12944323
-0.38469154 -0.092650786 -0.12205777
-0.37431359 -0.094987713 -0.121774
-0.33121818 -0.091202453 -0.121774
-0.31273437 -0.096210927 -0.121774
-0.30019793 -0.098155573 -0.121774
-0.24043633 -0.095229357 -0.121774
-0.19897449 -0.084767833 -0.121774
-0.18901636 -0.084904984 -0.121774
-0.28130564 -0.075825654 -0.121774
-0.2733013 -0.079347342 -0.121774
-0.1965102 -0.073284686 -0.121774
-0.1867923 -0.077954054 -0.121774
-0.3582764 -0.063870601 -0.12489583
-0.33977905 -0.063870601 -0.12449758
-0.2885282 -0.063870601 -0.12370111
-0.22394255 -0.063870601 -0.12897883
-0.21177514 -0.069281586 -0.121774
-0.19856662 -0.063870601 -0.12729588
-0.18382992 -0.063870601 -0.12772897
-0.16736402 -0.064789325 -0.1256377
-0.1565031 -0.063870601 -0.12175423
-0.12375875 -0.063870601 -0.12454553
-0.11807164 -0.063870601 -0.127167
-0.080127642 -0.063870601 -0.1202619
-0.074821517 -0.063870601 -0.12489115
-0.065427236 -0.063870601 -0.12736146
-0.38116881 -0.063870601 -0.11079939
-0.37045312 -0.063870601 -0.11248381
-0.32244524 -0.063870601 -0.11949117
-0.31103149 -0.063870601 -0.11140327
-0.26282156 -0.063870601 -0.11694019
-0.24368572 -0.063870601 -0.1160794
-0.15310073 -0.063870601 -0.11272816
-0.090601772 -0.063870601 -0.11205067
-0.054794841 -0.063870601 -0.1169592
-0.031249754 -0.063870601 -0.11196704
-0.022991195 -0.063870601 -0.11040506
-0.36919698 -0.063870601 -0.10273556
-0.27972934 -0.063870601 -0.10665672
-0.26325667 -0.063870594 -0.1022827
-0.2300784 -0.063870601 -0.10476252
-0.21288811 -0.063870601 -0.10758366
-0.13768734 -0.063870601 -0.10002356
-0.12438191 -0.063870601 -0.10234212
-0.11280961 -0.063870601 -0.1096254
-0.34201747 -0.063870601 -0.099763215
-0.33502346 -0.063870601 -0.093106367
-0.30742607 -0.063870601 -0.091507822
-0.26453373 -0.063870601 -0.090828814
-0.24111775 -0.063870601 -0.091434829
-0.2211154 -0.063870601 -0.09247449
-0.21444425 -0.063870601 -0.097718194
-0.08424668 -0.063870601 -0.098609097
-0.044546701 -0.063870601 -0.093559578
-0.0027130172 -0.063870601 -0.099975243
0.0015561134 -0.063870601 -0.096626073
0.012646388 -0.063870601 -0.09226384
-0.37661672 -0.063870601 -0.082349986
-0.33009374 -0.063870601 -0.08196874
-0.26279157 -0.063870601 -0.084355056
-0.23340949 -0.063870601 -0.086569816
-0.22931203 -0.063870601 -0.086817414
-0.19692643 -0.063870601 -0.083473831
-0.18675829 -0.063870601 -0.085410461
-0.17278013 -0.063870601 -0.088455707
-0.12349045 -0.063870601 -0.088801056
-0.11492904 -0.063870601 -0.083031483
-0.10475825 -0.063870601 -0.085654087
-0.087484866 -0.063870601 -0.084222108
-0.077116698 -0.063870601 -0.084669918
-0.063534699 -0.063870601 -0.083887868
-0.03383372 -0.063870601 -0.084757179
0.030755434 -0.063870601 -0.085831389
-0.36781058 -0.063870601 -0.07793285
-0.30016851 -0.063870601 -0.07147482
-0.27293369 -0.063870601 -0.073683932
-0.22621997 -0.063870601 -0.078531332
-0.20170172 -0.063870601 -0.077735305
-0.18127565 -0.063870601 -0.079367973
-0.1561763 -0.063870601 -0.077617943
-0.068784073 -0.063870601 -0.070633873
-0.042243179 -0.063870601 -0.076745115
-0.38402295 -0.063870601 -0.06362775
-0.37269461 -0.063870601 -0.065515354
-0.32869276 -0.063870601 -0.066932246
-0.29941392 -0.063870601 -0.064668663
-0.25595286 -0.063870601 -0.062245
-0.21224922 -0.063870601 -0.068799667
-0.20834398 -0.063870601 -0.061549392
-0.19242004 -0.063870601 -0.060450315
-0.15434162 -0.063870601 -0.060882762
-0.053836759 -0.063870601 -0.066597313
0.022809189 -0.063870601 -0.062355135
-0.3313871 -0.063870601 -0.053749114
-0.32123148 -0.063870601 -0.051171996
-0.28587177 -0.063870601 -0.052520636
-0.23030169 -0.063870601 -0.05313386
-0.17067116 -0.063870601 -0.05221045
-0.13286191 -0.063870601 -0.050210141
-0.017737549 -0.063870601 -0.052723728
-0.0080182478 -0.063870601 -0.051452663
0.028415237 -0.063870601 -0.052708201
0.033982269 -0.063870601 -0.052286513
-0.35504851 -0.063870601 -0.046620961
-0.34460279 -0.063870601 -0.041344509
-0.26341653 -0.063870601 -0.048380386
-0.25285602 -0.063870601 -0.048756227
-0.22409204 -0.063870601 -0.045342073
-0.16713594 -0.063870601 -0.047827773
-0.094809458 -0.063870601 -0.041473061
-0.080459706 -0.063870601 -0.040748537
-0.056361936 -0.063462906 -0.0406873
-0.030555435 -0.062951274 -0.040175658
0.054895274 -0.063870601 -0.045917958
0.071612105 -0.063870601 -0.047277
0.23402421 -0.063870601 -0.046154249
0.24141206 -0.063870601 -0.047248572
-0.32118416 -0.060026266 -0.037250604
-0.2978642 -0.063870601 -0.039695274
-0.25152135 -0.062473714 -0.03969809
-0.19243288 -0.062269993 -0.034606464
-0.12317181 -0.063870601 -0.033075795
-0.10504554 -0.063870601 -0.034842473
-0.093224563 -0.061691731 -0.038916096
-0.070354104 -0.063870601 -0.032713912
-0.033830822 -0.063870601 -0.038604449
-0.012832299 -0.063870601 -0.037908044
0.035004154 -0.062313959 -0.039538331
0.087843046 -0.063870601 -0.030955508
0.095415123 -0.063870601 -0.032792076
0.10408992 -0.063870601 -0.030647671
0.1369382 -0.063870601 -0.037694708
0.18567792 -0.063870601 -0.030677717
0.19369672 -0.062640503 -0.030768437
0.23206818 -0.063870601 -0.033495761
0.25749031 -0.063870609 -0.038012467
-0.38512078 -0.053676274 -0.030900517
-0.35731602 -0.052887559 -0.03011179
-0.29763314 -0.059862088 -0.037086427
-0.19567233 -0.057486705 -0.034711011
-0.12532383 -0.055118918 -0.032343183
-0.1088316 -0.057243571 -0.034467869
-0.079973914 -0.055352736 -0.032577004
-0.021532714 -0.058513094 -0.03573741
0.00084846094 -0.058054745 -0.035279058
0.035520628 -0.057804246 -0.035028551
0.045358561 -0.056233332 -0.033457618
0.079805851 -0.055373192 -0.03259746
0.11590337 -0.053687677 -0.030911919
0.12499959 -0.053078584 -0.030302817
0.13705701 -0.055263381 -0.032150123
0.14603376 -0.056671586 -0.032454088
-0.37263113 -0.063870601 -0.025413908
-0.29191309 -0.063870601 -0.021073025
-0.23654342 -0.063870601 -0.021293182
-0.18617424 -0.063870601 -0.024130944
-0.15740965 -0.063870601 -0.022363603
-0.11908537 -0.063870601 -0.024446089
-0.091983184 -0.063870601 -0.025215648
-0.060828041 -0.063870601 -0.024314297
-0.04406333 -0.063870601 -0.025592847
-0.028457284 -0.063870601 -0.021278035
-0.0056122192 -0.063870601 -0.021374568
0.0046975324 -0.063870601 -0.02422894
0.015737012 -0.063870601 -0.024324376
0.045748457 -0.063870601 -0.024773413
0.080735184 -0.063870601 -0.025738431
0.092180096 -0.063870601 -0.026602468
0.12695925 -0.063870601 -0.021051407
0.14978312 -0.063870601 -0.025536671
0.15505064 -0.063870601 -0.025624288
0.21312334 -0.063870601 -0.020011228
0.22005516 -0.063870601 -0.024183942
0.25406992 -0.062257282 -0.020689085
-0.33877605 -0.051446825 -0.028671036
-0.24788637 -0.051869128 -0.029093344
-0.23573309 -0.050146289 -0.027370483
-0.012420125 -0.050654884 -0.027879084
0.1642282 -0.054502547 -0.027362932
-0.37777832 -0.045913428 -0.023137553
-0.33995843 -0.046014726 -0.023238853
-0.19649999 -0.04420606 -0.021430161
-0.11384092 -0.047887776 -0.025111932
-0.10629358 -0.04874333 -0.025967497
-0.073912427 -0.046315514 -0.023539644
-0.059598166 -0.046015549 -0.023239678
-0.033550899 -0.047982838 -0.025206996
0.029614916 -0.046985127 -0.024209267
0.076715283 -0.047288418 -0.024512561
0.12470484 -0.049279273 -0.026503451
-0.38287657 -0.063870601 -0.012973487
-0.37643307 -0.063870601 -0.018764457
-0.34655687 -0.063870601 -0.012916212
-0.30781397 -0.063870601 -0.016155742
-0.27172714 -0.063870601 -0.013805717
-0.26103657 -0.063870601 -0.018658545
-0.24071079 -0.063870601 -0.018735008
-0.22209333 -0.063870601 -0.014760897
-0.19816692 -0.063870601 -0.017867278
-0.12842652 -0.063870601 -0.017535618
-0.065228768 -0.063870601 -0.016418127
-0.047344126 -0.063870601 -0.017945884
-0.030663706 -0.063870601 -0.019580714
-0.0046185134 -0.063870601 -0.0126266
0.012052581 -0.063870601 -0.01244764
0.14981474 -0.063870609 -0.019716017
0.15891564 -0.063870601 -0.017665049
0.17967552 -0.063870601 -0.012197369
0.18337858 -0.063870601 -0.011785671
0.24320322 -0.063870601 -0.019702284
0.27443266 -0.062336706 -0.017498173
-0.388235 -0.05282674 -0.019749893
0.24991772 -0.051586386 -0.010684617
0.25785726 -0.055887934 -0.013711207
0.2844834 -0.056710817 -0.010257853
-0.33587912 -0.04001727 -0.017241307
-0.31208995 -0.042771302 -0.01999538
-0.25421408 -0.041420575 -0.018644631
-0.2499464 -0.041493453 -0.018717512
-0.16299993 -0.041902162 -0.019126223
-0.12108777 -0.042318583 -0.019542655
-0.096663892 -0.041679811 -0.018903874
-0.0033776863 -0.042609587 -0.019833662
-0.32914966 -0.034986209 -0.012210166
-0.29051408 -0.034324698 -0.011548648
-0.21492076 -0.033614408 -0.010838347
-0.19730549 -0.039020095 -0.016244115
-0.18044284 -0.038905904 -0.01612992
-0.14436451 -0.034877487 -0.012101445
-0.053178385 -0.03779703 -0.015021032
-0.021941861 -0.034537338 -0.01176129
0.014976442 -0.037897829 -0.015121832
0.1092798 -0.03506913 -0.012293088
0.14269617 -0.035924327 -0.012242452
-0.38756794 -0.062174603 -0.0058221426
-0.37344798 -0.063870601 -0.0099104801
-0.36218292 -0.063870609 -0.0061928658
-0.35227162 -0.063870601 -0.0092528798
-0.34581465 -0.063870601 -0.006982768
-0.24752715 -0.063870601 -0.0098645007
-0.1776212 -0.063870601 -0.0025772592
-0.12041667 -0.063870601 -0.0035760496
-0.1178526 -0.063870601 -0.002325153
-0.062235795 -0.063870601 -0.0029652398
-0.059430066 -0.063870601 -0.0027273544
0.1607821 -0.063870601 -0.0084710279
0.34558862 -0.063870601 -0.0026773233
0.35842109 -0.060650729 -0.0023232303
0.36584273 -0.060894735 -0.0013752908
0.26579666 -0.053344388 -0.0098924581
0.13705701 -0.047673464 -0.00080647646
0.21920002 -0.044970658 -0.0090020467
0.24265227 -0.041350555 -0.0016153958
0.26596728 -0.046737075 -0.0032575356
-0.388235 -0.038569804 -0.00097876322
-0.33012274 -0.032225825 -0.0094497409
-0.32775527 -0.030020831 -0.0072447145
-0.24829215 -0.030642655 -0.0078665465
-0.13772562 -0.032011762 -0.0092356773
0.015768066 -0.032620542 -0.0098444642
0.048477102 -0.030601174 -0.0078250673
0.082104892 -0.030172218 -0.0073961038
0.10143635 -0.031160813 -0.0083847139
0.11032861 -0.031844314 -0.0090682274
-0.33516076 -0.024022575 -0.0016803734
-0.32881719 -0.026074156 -0.0032979802
-0.17433593 -0.027015381 -0.0042392192
-0.081373468 -0.025318276 -0.0025420869
-0.056974273 -0.023556847 -0.00072933844
-0.043722756 -0.023594037 -0.0006921498
0.039952822 -0.024480438 -0.0017042363
0.042581655 -0.027572136 -0.004795982
0.050111044 -0.025103442 -0.0023272519
0.088798583 -0.027758576 -0.0049824258
0.11965273 -0.02387871 -0.0011025014
0.13704628 -0.023610018 -0.00067616621
-0.3305909 -0.015158454 -0.00075498503
-0.25931433 -0.014457708 -0.00075498503
-0.23444265 -0.019333178 -0.00075498503
-0.35184398 -0.0055919476 -0.00075498503
-0.34011027 -0.0097967535 -0.00075498503
-0.23889571 -0.0055099805 -0.00075498503
-0.20391303 -0.0036074286 -0.00075498503
-0.36729884 0.0059372112 -0.00075498503
-0.31398875 0.0099662831 -0.00075498503
-0.24670908 0.0029091369 -0.00075498503
-0.37914166 0.01578467 -0.00075498503
-0.31611931 0.012249616 -0.00075498503
-0.30836558 0.013852099 -0.00075498503
-0.2943387 0.014495066 -0.00075498503
-0.2808359 0.016078789 -0.00075498503
-0.2794708 0.011629248 -0.00075498503
-0.26344126 0.016912706 -0.00075498503
-0.23388897 0.017579483 -0.00075498503
-0.37410223 0.026901888 -0.00075498503
-0.35341841 0.023777839 -0.00075498503
-0.33711037 0.02554629 -0.00075498503
-0.32475913 0.024231413 -0.00075498503
-0.31851178 0.026941303 -0.00075498503
-0.29603818 0.027902888 -0.00075498503
-0.26372662 0.023938756 -0.00075498503
-0.38351044 0.036446027 -0.00075498503
-0.3756786 0.039106306 -0.00075498503
-0.30275452 0.036173973 -0.00075498503
-0.27902579 0.03466345 -0.00075498503
-0.34533828 0.040482275 -0.00075498503
-0.30653334 0.049625862 -0.00075498503
-0.29704273 0.043899264 -0.00075498503
-0.38371682 0.052299213 -0.00075498503
-0.37939924 0.056517355 -0.00075498503
-0.35163143 0.065898575 -0.00075498503
-0.35485512 0.081561282 -0.00075498503
-0.3738513 -0.063870601 0.0027440237
-0.12857443 -0.063870601 0.0093732793
-0.1169801 -0.063870601 0.0090720607
-0.073513962 -0.063870601 0.0038270438
-0.027096504 -0.063870601 0.0043298048
-0.013836886 -0.063870601 0.0054482943
0.017245125 -0.063870601 0.0025682673
0.035114933 -0.063870601 0.0024600085
0.048824571 -0.063870601 0.0056006517
0.10662064 -0.063870601 0.0022325309
0.13606067 -0.063870601 0.0063338988
0.1401577 -0.063870601 0.0074501825
0.16652411 -0.063870601 0.0041063097
0.1955688 -0.063870601 0.0047874274
0.23309213 -0.063870601 0.0096221343
0.26614195 -0.063870601 0.0064249705
0.33576187 -0.061075058 0.0048765093
0.13705701 -0.058610603 0.0028072298
0.28342664 -0.056971535 0.0091779595
0.31427017 -0.053383317 0.0006363485
0.24275424 -0.049832571 0.0085710967
-0.38823503 -0.038642284 0.0086767012
-0.3495822 -0.032450005 0.0081638182
-0.32020104 -0.030347889 0.0060617011
-0.28998151 -0.032680664 0.0083944732
-0.25860742 -0.030303469 0.0060172812
-0.19634479 -0.032215491 0.0079293018
-0.037859533 -0.030726962 0.0064407741
0.0062402114 -0.030857489 0.0065712994
0.040029183 -0.032296993 0.0080108028
0.13713177 -0.033177435 0.0088789472
-0.31735829 -0.026303286 0.002017101
-0.23897539 -0.027009334 0.0027231479
-0.18540403 -0.028303249 0.0040170625
-0.17273226 -0.02875676 0.0044705714
-0.11412761 -0.025398426 0.0011122377
-0.078571416 -0.026184965 0.0018987776
0.0064972416 -0.025310028 0.0010238416
0.045433074 -0.029407248 0.0051210606
0.059108242 -0.027534809 0.0032486194
-0.34287167 -0.063870601 0.019184688
-0.30996677 -0.063870601 0.019954175
-0.26590121 -0.063870601 0.019799042
-0.19427741 -0.063870601 0.011328852
-0.183158 -0.063870601 0.01424839
-0.14856929 -0.063870601 0.01402024
-0.13433878 -0.063870601 0.015622596
-0.10444868 -0.063870601 0.011654627
-0.078293368 -0.063870601 0.019491311
-0.06557899 -0.063870601 0.01706955
-0.042608343 -0.063870601 0.01878391
0.041611843 -0.063870601 0.018213021
0.083419658 -0.063870601 0.011618319
0.094533354 -0.063870601 0.011694366
0.10888109 -0.063870601 0.012266695
0.1171959 -0.063870601 0.014429263
0.19699247 -0.063870601 0.017795475
0.25595146 -0.060021691 0.016640756
0.27330905 -0.063044354 0.013311905
0.29809678 -0.061180118 0.011030472
-0.38823503 -0.058016896 0.013618271
0.23877239 -0.054659933 0.014037992
-0.28077346 -0.043750688 0.019464497
-0.085008368 -0.042813748 0.018527554
-0.010633618 -0.043085136 0.018798942
0.078675255 -0.043916792 0.019630594
0.11558781 -0.040871911 0.016585721
0.13705701 -0.045269594 0.010082512
0.1850418 -0.043687053 0.011694033
0.19340318 -0.046808265 0.013472453
-0.34639809 -0.039481483 0.015195293
-0.23143701 -0.039610453 0.015324258
-0.16460146 -0.034758616 0.010472427
0.015640572 -0.038142443 0.013856251
0.026524786 -0.039963786 0.01567759
0.084294803 -0.037055153 0.012768959
0.1323157 -0.036786616 0.012500424
-0.388235 -0.063157678 0.02836738
-0.3432726 -0.063870601 0.022080611
-0.32225847 -0.063870601 0.020479491
-0.31992698 -0.063870601 0.02023668
-0.30163291 -0.063870601 0.026471728
-0.266727 -0.063870601 0.024224807
-0.24393333 -0.063870601 0.026685813
-0.1797886 -0.063870601 0.029890146
-0.15271494 -0.063870601 0.020279327
-0.13931791 -0.063870601 0.020766484
-0.11332835 -0.063870601 0.029893467
-0.10341978 -0.063870601 0.026521694
-0.076875329 -0.063870601 0.025568541
-0.057631422 -0.063870601 0.022249166
-0.020598464 -0.063870594 0.029834189
0.0078388229 -0.063870601 0.028939489
0.034258723 -0.063870601 0.026643779
0.054706808 -0.063870601 0.028906524
0.082173817 -0.063870601 0.025123637
0.10463893 -0.063870601 0.023353109
0.12566374 -0.063870601 0.027364261
0.18521032 -0.062911734 0.025716869
0.19683506 -0.063870601 0.02164579
0.25034386 -0.063870601 0.020792443
0.27793223 -0.063870601 0.021948362
0.28016591 -0.063870601 0.021703919
-0.35469723 -0.050504919 0.026218724
-0.17060408 -0.051250234 0.026964035
-0.13269639 -0.050832573 0.026546378
-0.10041749 -0.050154425 0.025868228
-0.019333424 -0.05160936 0.027323162
0.046038702 -0.052336689 0.02805049
0.078891553 -0.053509649 0.029223451
0.082232207 -0.052521002 0.0282348
0.10134102 -0.050589189 0.026302991
0.19275483 -0.056842268 0.023610834
-0.28625113 -0.045709517 0.021423321
-0.2724359 -0.047931463 0.023645267
-0.24904734 -0.044910915 0.020624723
-0.13611382 -0.049179621 0.024893424
-0.11351637 -0.046941109 0.022654915
-0.083638616 -0.047072969 0.022786774
-0.04445361 -0.047235265 0.022949072
-0.0081135947 -0.049801268 0.025515074
0.045053117 -0.049460035 0.025173837
0.10235842 -0.047646578 0.023360381
0.12956738 -0.045776006 0.021489812
-0.34198698 -0.063870601 0.038969941
-0.31557277 -0.063870601 0.032962825
-0.30598122 -0.063870601 0.030908629
-0.29110608 -0.062079035 0.037792832
-0.23039281 -0.063870601 0.034434177
-0.2279318 -0.060001355 0.035715152
-0.19904995 -0.061411705 0.037125502
-0.17471157 -0.063870601 0.039264686
-0.15205722 -0.063870601 0.035020556
-0.12339127 -0.063870601 0.031749412
-0.10506433 -0.063870601 0.037371144
-0.089183487 -0.063870601 0.037408218
-0.071720392 -0.063870601 0.034834992
-0.040320851 -0.063870601 0.031917714
-0.03277792 -0.063870601 0.035404615
-0.010980226 -0.060290921 0.036004722
0.030495435 -0.063870601 0.039928865
0.044133827 -0.063870601 0.037674464
0.085237324 -0.062603295 0.038317095
0.11571372 -0.063870601 0.034432568
0.12400348 -0.062602848 0.038316645
0.15905575 -0.063870601 0.034621283
0.23880962 -0.063870601 0.03421424
0.2603755 -0.063870601 0.032045264
-0.35685566 -0.057450607 0.033164404
-0.30863881 -0.058587495 0.034301296
-0.23562598 -0.058368236 0.034082033
-0.18346059 -0.057166904 0.032880701
-0.10377683 -0.057064302 0.032778099
-0.034121253 -0.056331296 0.032045096
-0.014459148 -0.05738401 0.033097811
-0.0059255734 -0.054819494 0.030533293
0.0099557936 -0.059681728 0.035395525
0.028859967 -0.057595838 0.033309635
0.05349537 -0.056567013 0.032280814
0.073566988 -0.056453418 0.032167215
0.092324957 -0.057637997 0.033351801
0.13377455 -0.056137588 0.031851385
0.16036925 -0.059344649 0.031314407
-0.31961021 -0.063870601 0.046925668
-0.30643728 -0.063870601 0.043554422
-0.25188121 -0.063870601 0.046865694
-0.2243104 -0.063870601 0.047227215
-0.21821275 -0.063870601 0.045805678
-0.17514087 -0.063870601 0.041272469
-0.056813933 -0.063870601 0.040566921
0.073097378 -0.063870601 0.048893839
-0.32166412 -0.063870609 0.054427747
-0.26274124 -0.063870601 0.050914168
-0.212989 -0.063870601 0.053045712
-0.13568097 -0.063870601 0.05250293
-0.075615965 -0.063870601 0.05345317
-0.026248492 -0.063870601 0.054094017
-0.014742272 -0.063870601 0.055104651
0.024510883 -0.063870601 0.052212097
0.036383484 -0.063870601 0.051850051
-0.36516502 -0.063870601 0.064258911
-0.34592074 -0.063870601 0.068538755
-0.29506445 -0.063870601 0.06721662
-0.23270664 -0.063870601 0.060771696
-0.02302596 -0.063870601 0.060556293
0.012153156 -0.063870601 0.069411792
-0.33760491 -0.063870601 0.074933104
-0.2966089 -0.063870601 0.075664975
-0.28009409 -0.063870601 0.07383246
-0.23318696 -0.063870601 0.076880023
-0.22192304 -0.063870601 0.075930238
-0.20193882 -0.063870601 0.071635745
-0.16417943 -0.063870601 0.075601093
-0.1526681 -0.063870601 0.071714804
-0.12167122 -0.063870594 0.072332352
-0.10186662 -0.063870601 0.071665257
-0.079792134 -0.063870601 0.071254037
-0.046680808 -0.063870601 0.074336737
-0.012876809 -0.063870601 0.073829226
0.0097080916 -0.063870601 0.0744901
-0.28463462 -0.063870601 0.081587687
-0.25883532 -0.063870601 0.084742635
-0.21569762 -0.063870601 0.088010937
-0.18056135 -0.063870601 0.083242536
-0.16440421 -0.063870601 0.086514853
-0.11489636 -0.063870601 0.086016275
-0.080937117 -0.063870601 0.084372997
-0.05506077 -0.063870601 0.085025519
-0.31036925 -0.063870601 0.091265634
-0.24781378 -0.063870601 0.099623002
-0.20714378 -0.063870594 0.09449023
-0.17358261 -0.063870601 0.090246797
-0.15908027 -0.063870601 0.097769685
-0.12963957 -0.063870601 0.090751097
-0.084561132 -0.063870601 0.095744729
-0.062231369 -0.063870601 0.091634952
-0.038008086 -0.063870601 0.096545652
-0.0028892681 -0.063870601 0.094706595
-0.36287859 -0.063870601 0.1060288
-0.33240718 -0.063870601 0.10449101
-0.31484103 -0.063870601 0.10489812
-0.30981016 -0.063870601 0.10226713
-0.29627484 -0.063870601 0.10359803
-0.28687209 -0.063870601 0.10706478
-0.27524424 -0.063870601 0.10092627
-0.19077921 -0.063870601 0.10243085
-0.16614644 -0.063870601 0.10307947
-0.13061242 -0.063870601 0.10789002
-0.11502847 -0.063870601 0.10496064
-0.052815937 -0.063870601 0.10682719
-0.33322415 -0.063870601 0.11547456
-0.32825053 -0.063870601 0.11466303
-0.29649073 -0.063870601 0.11523531
-0.2756542 -0.063870601 0.11530346
-0.20608544 -0.063870601 0.11429062
-0.19247465 -0.063870601 0.11302359
-0.174696 -0.063870601 0.11174102
-0.1141332 -0.063870594 0.11299637
-0.050800197 -0.063870601 0.11194491
-0.041920159 -0.063870601 0.11356302
-0.036426567 -0.063870601 0.11168513
-0.38513255 -0.104211 0.12766951
-0.35567841 -0.104211 0.1227214
-0.30372807 -0.104211 0.12449281
-0.29175985 -0.10305415 0.12026301
-0.27940816 -0.104211 0.12183502
-0.26353526 -0.104211 0.12851857
-0.23876551 -0.10043384 0.120263
-0.38120055 -0.090948068 0.120263
-0.3564277 -0.09082295 0.120263
-0.34753162 -0.091223188 0.120263
-0.23420739 -0.09619382 0.12026301
-0.34960127 -0.088308431 0.120263
-0.18646944 -0.083972335 0.12544543
-0.38426685 -0.078010835 0.120263
-0.36659592 -0.0715051 0.120263
-0.32585242 -0.079074204 0.120263
-0.27250662 -0.075437278 0.120263
-0.26777825 -0.07782875 0.120263
-0.25487456 -0.077006698 0.120263
-0.19170249 -0.07931003 0.120263
-0.35773405 -0.063870601 0.12322385
-0.33566979 -0.063870601 0.12360706
-0.32232705 -0.063870601 0.12726724
-0.30412525 -0.068545192 0.120263
-0.28462937 -0.063870601 0.12474765
-0.27904087 -0.069092289 0.120263
-0.22836442 -0.067072161 0.12026301
-0.18811716 -0.066514857 0.120263
-0.1671544 -0.064657092 0.12186398
-0.14344104 -0.063870601 0.12409841
-0.087891459 -0.063870601 0.12338401
-0.078239799 -0.063870601 0.12608875
-0.054234404 -0.063870601 0.12968481
-0.3792865 -0.104211 0.13921997
-0.25707364 -0.104211 0.13906585
-0.24852373 -0.104211 0.13858411
-0.2177625 -0.104211 0.13864997
-0.388235 -0.07077837 0.13188305
-0.34474373 -0.063870601 0.1382895
-0.32719794 -0.063870594 0.13120061
-0.3199715 -0.063870601 0.13406256
-0.21027026 -0.063870601 0.13378502
-0.092094861 -0.063870601 0.13657233
-0.051769704 -0.063870601 0.13102789
-0.37992948 -0.104211 0.14863595
-0.33637702 -0.104211 0.14505704
-0.31956485 -0.104211 0.14255108
-0.30065691 -0.104211 0.14517793
-0.27631941 -0.104211 0.14140566
-0.22139141 -0.104211 0.14199446
-0.388235 -0.090828709 0.14122562
-0.38806567 -0.063870601 0.14290193
-0.32417759 -0.063870601 0.14536901
-0.24939735 -0.063870601 0.14344189
-0.22388312 -0.063870601 0.14935172
-0.17213131 -0.063870601 0.14546812
-0.15627654 -0.063870601 0.1492359
-0.14991313 -0.063870601 0.14984952
-0.13852024 -0.063870601 0.14864059
-0.11493257 -0.063870601 0.14428309
-0.096793428 -0.063870601 0.14907576
-0.32451725 -0.104211 0.15498076
-0.28782761 -0.104211 0.1568583
-0.25224739 -0.104211 0.15573324
-0.21876445 -0.104211 0.15298048
-0.388235 -0.094215468 0.15253901
-0.20154379 -0.099046975 0.15424374
-0.19812171 -0.09562473 0.15224271
-0.388235 -0.086548686 0.1553411
-0.35705975 -0.063870601 0.15412423
-0.32620054 -0.063870601 0.15951568
-0.24148133 -0.063870601 0.15011294
-0.21901909 -0.063870601 0.15300399
-0.20044428 -0.063870601 0.15753427
-0.16171107 -0.063870601 0.15023991
-0.14526211 -0.063870601 0.15210994
-0.11003523 -0.063870601 0.15274338
-0.10357463 -0.063870601 0.15598094
-0.38823497 -0.10267045 0.16906723
-0.35160887 -0.104211 0.16876373
-0.29755783 -0.104211 0.16615403
-0.28426093 -0.104211 0.16502365
-0.25066715 -0.104211 0.16479979
-0.20427826 -0.10178188 0.16072001
-0.17733017 -0.074833512 0.16354713
-0.388235 -0.067221381 0.16581959
-0.36415228 -0.063870601 0.16597897
-0.32004949 -0.063870601 0.16935061
-0.31880799 -0.063870601 0.168268
-0.29346421 -0.063870601 0.16949227
-0.27532399 -0.063870601 0.1680411
-0.26204672 -0.063870601 0.16010222
-0.18348844 -0.063870601 0.16064756
-0.36897647 -0.104211 0.17778528
-0.34000835 -0.104211 0.17079039
-0.28998891 -0.104211 0.17285043
-0.38823503 -0.091165304 0.17313385
-0.19052826 -0.088031188 0.17286542
-0.18516456 -0.082667738 0.17956831
-0.388235 -0.065856591 0.17383549
-0.35499001 -0.063870601 0.17329086
-0.34241167 -0.063870601 0.1778612
-0.26690894 -0.063870601 0.17374545
-0.22970003 -0.063870601 0.17743108
-0.19148037 -0.063870601 0.17277449
-0.16198151 -0.063870601 0.17469183
-0.34200278 -0.10302389 0.180773
-0.33108461 -0.092719927 0.180773
-0.20518942 -0.093683571 0.18077299
-0.19869673 -0.095575608 0.18077302
-0.37054086 -0.081714019 0.180773
-0.35684896 -0.08944419 0.180773
-0.34965903 -0.085617743 0.180773
-0.3371585 -0.085372001 0.180773
-0.30096945 -0.081778161 0.180773
-0.27730688 -0.082486719 0.180773
-0.38600746 -0.074778326 0.180773
-0.37881887 -0.071355633 0.180773
-0.2743066 -0.073776081 0.180773
-0.25431553 -0.072369769 0.180773
-0.23609397 -0.07752718 0.180773
-0.21909492 -0.079362325 0.180773
-0.37069586 -0.063870601 0.18870951
-0.33454952 -0.065390408 0.18566345
-0.31730384 -0.063870601 0.18318503
-0.30772024 -0.063870601 0.18901916
-0.26310986 -0.063870601 0.18297814
-0.23912303 -0.063870601 0.18434241
-0.22137691 -0.068364479 0.180773
-0.19711477 -0.066254631 0.18476513
-0.17216446 -0.063870601 0.18563934
-0.16623951 -0.063870601 0.18482015
-0.15194611 -0.063870601 0.1895912
-0.14428866 -0.063870601 0.18763962
-0.35163137 -0.063870601 0.19913775
-0.31875351 -0.063870601 0.19663115
-0.27383631 -0.063870609 0.19534385
-0.26810634 -0.063870601 0.19591215
-0.24103534 -0.063870601 0.19916235
-0.20831056 -0.063870601 0.19958989
-0.16924971 -0.063870601 0.19526041
-0.32681188 -0.063870601 0.20256849
-0.28127465 -0.063870601 0.20691726
-0.27571595 -0.063870601 0.20588896
-0.24408384 -0.063870601 0.20331338
-0.18008947 -0.063870601 0.20575304
-0.37075192 -0.063870601 0.21762115
-0.34981489 -0.063870601 0.21224003
-0.29201314 -0.063870601 0.21983987
-0.26852977 -0.063870601 0.21717557
-0.24557464 -0.063870601 0.2192854
-0.20721942 -0.063870601 0.21639283
-0.36552501 -0.063870601 0.22554412
-0.2919066 -0.063870601 0.22437006
-0.27720809 -0.063870601 0.2253612
-0.36198139 -0.063870601 0.23287943
-0.34237647 -0.063870601 0.23579517
-0.32401109 -0.063870601 0.23662615
-0.37031436 -0.063870601 0.24861884
-0.3475059 -0.063870601 0.24840546
-0.344019 -0.063870601 0.25162277
-0.32698473 -0.063870601 0.25254053
-0.30272925 -0.063870601 0.25287277
-0.2759684 -0.063870601 0.25918135
-0.26102033 -0.063870601 0.25925231
-0.36283997 -0.063870601 0.27432263
-0.31906024 -0.063870601 0.28192672
-0.36595044 -0.063870601 0.29229343
