# .PCD v0.7 - Point Cloud Data file format
VERSION 0.7
FIELDS x y z
SIZE 4 4 4
TYPE F F F
COUNT 1 1 1
WIDTH 848
HEIGHT 1
VIEWPOINT 0 0 0 1 0 0 0
POINTS 848
DATA ascii
-0.10003412 -0.028106313 -0.28248236
-0.099223748 -0.027366934 -0.28891113
-0.081802495 -0.029089062 -0.28520358
-0.073390558 -0.028624145 -0.28752506
-0.074489623 -0.030505631 -0.27213639
-0.077698462 -0.02776847 -0.2735306
-0.090377793 -0.030178124 -0.26620036
-0.074052215 -0.028446199 -0.26474926
-0.088857509 -0.030594435 -0.25171047
-0.069880836 -0.033128962 -0.24265525
-0.065863408 -0.029997732 -0.24459736
-0.082838699 -0.03316462 -0.23293599
-0.074392259 -0.031680524 -0.22883564
-0.033304017 -0.032918278 -0.21263665
-0.075752407 -0.035919771 -0.2025248
-0.063781604 -0.039934285 -0.2058969
-0.045969099 -0.0366963 -0.20306759
-0.050036419 -0.03811191 -0.1912175
-0.042712435 -0.033656761 -0.1956158
-0.036863659 -0.033130467 -0.19999671
-0.042661704 -0.038823955 -0.18602782
-0.037964087 -0.0366427 -0.18659055
-0.018975129 -0.034649994 -0.1827163
-0.0671276 -0.038631629 -0.17182848
-0.058840044 -0.039134562 -0.1710636
-0.041156553 -0.035483059 -0.17532863
-0.012576252 -0.03551814 -0.16725759
-0.061286248 -0.049077637 -0.15003476
-0.058642078 -0.040387593 -0.15449414
-0.043151528 -0.04729557 -0.15187171
-0.022598315 -0.041842707 -0.15857293
-0.047747906 -0.037282467 -0.15697281
-0.035947833 -0.037570391 -0.15089396
-0.040183306 -0.050122861 -0.14843713
-0.027416855 -0.042785883 -0.14461347
-0.053483196 -0.039623827 -0.14227629
0.00043533556 -0.037746809 -0.14910755
-0.05942782 -0.041350055 -0.13316078
-0.031782866 -0.04331962 -0.13569774
-0.024758033 -0.043835089 -0.13302477
-0.0096501941 -0.044659197 -0.13027762
-0.0088083707 -0.03805485 -0.13484958
0.086585812 -0.0736982 -0.12158979
0.10265382 -0.072895817 -0.1205181
0.094462082 -0.064604126 -0.12113629
-0.053111464 -0.043479979 -0.12002887
-0.033727452 -0.044213485 -0.12298813
-0.022991139 -0.044340611 -0.12765163
-0.017257893 -0.045011546 -0.12227875
0.014915645 -0.044081852 -0.12624118
-0.015416835 -0.039153002 -0.12532385
0.007560519 -0.038355358 -0.12882197
0.055697918 -0.083144218 -0.11467144
0.066117235 -0.082770728 -0.11660741
0.094323084 -0.083847746 -0.11496411
0.045895576 -0.073110014 -0.11760552
0.053345244 -0.077080861 -0.11668356
0.061367825 -0.076872155 -0.11281937
0.033880685 -0.069080502 -0.11339972
0.053184204 -0.060496718 -0.11158317
0.064799219 -0.052609704 -0.11313157
-0.043918412 -0.044384077 -0.11665118
-0.034537621 -0.042668447 -0.11700334
0.014077963 -0.046969365 -0.11056468
-0.017063437 -0.039940305 -0.11748216
-0.35671878 -0.010301546 -0.11844465
-0.3650201 -0.0091827922 -0.11391714
0.038129956 -0.083468281 -0.10129062
0.055043213 -0.084366351 -0.10321568
0.061428115 -0.081317626 -0.10590367
0.076566786 -0.082651734 -0.1026912
0.094236046 -0.084874362 -0.10859711
0.042553708 -0.079264447 -0.10217812
0.0190126 -0.065246776 -0.10234103
0.0531842 -0.063461944 -0.10846916
0.087992296 -0.063231856 -0.10298954
0.028050052 -0.055849597 -0.10404831
0.032435361 -0.058321416 -0.10849081
0.04116869 -0.054031029 -0.10254461
0.069311835 -0.056160517 -0.10873783
0.08542297 -0.055384979 -0.10382004
0.10522473 -0.052001916 -0.10552132
-0.053855222 -0.044567678 -0.10698932
-0.014174718 -0.044208579 -0.10004591
0.0037380648 -0.046226252 -0.10223521
0.013064213 -0.047810555 -0.10230888
0.02221816 -0.040448874 -0.10658754
0.032951195 -0.048563588 -0.10706072
0.051937003 -0.044202592 -0.10193698
-0.34120122 -0.013497914 -0.1063865
0.05793412 -0.08576607 -0.094329007
0.079681918 -0.080217123 -0.094766587
0.088905215 -0.087432727 -0.096541941
0.025282679 -0.074483499 -0.095761612
0.041751947 -0.078327253 -0.098888531
0.010265766 -0.06314484 -0.099196821
0.021516381 -0.061516169 -0.097191185
0.070304468 -0.060574464 -0.091770507
-0.082654059 -0.050777011 -0.096580938
0.035486121 -0.056531496 -0.091897964
0.059116542 -0.051581845 -0.09490139
0.063604638 -0.05508028 -0.099770501
0.087687783 -0.050816268 -0.097198106
0.095418751 -0.056542806 -0.097294211
0.1027856 -0.057046816 -0.096129179
-0.058708243 -0.045400288 -0.092333063
-0.044537291 -0.047405433 -0.099143647
-0.034068927 -0.042257659 -0.094913043
-0.017137017 -0.0447978 -0.097490087
-0.0055093337 -0.048445463 -0.098270483
0.0061216154 -0.0431986 -0.096182011
0.056156151 -0.044184018 -0.099051856
-0.35287711 -0.012753833 -0.094655737
0.062409572 -0.083084941 -0.089734249
0.086845361 -0.081853181 -0.088384718
0.045368578 -0.074101746 -0.086476699
0.075982749 -0.071530551 -0.083845735
0.064595252 -0.069064818 -0.089354157
0.093353011 -0.068692058 -0.084016383
0.10383489 -0.069896825 -0.085167348
-0.054123774 -0.04625833 -0.086166941
-0.047985472 -0.044828631 -0.080873899
-0.028881155 -0.047574431 -0.088095792
-0.34953186 -0.01311443 -0.084066093
-0.3179892 -0.016377959 -0.08312659
-0.015100794 -0.10074633 -0.070542641
-0.01664111 -0.050174225 -0.071474306
-0.00375007 -0.050418518 -0.070892856
0.0033285806 -0.050339937 -0.074038044
0.016707104 -0.050824787 -0.073970035
0.027684672 -0.050794307 -0.076113865
-0.055184826 -0.047244076 -0.072882995
-0.032242388 -0.049496137 -0.070127815
-0.0078384634 -0.043117862 -0.073267154
0.043362707 -0.043616422 -0.071792148
-0.33610785 -0.014269075 -0.079611078
-0.32708317 -0.015819192 -0.071590014
-0.012718763 -0.10329436 -0.064770825
-0.0080466429 -0.10678746 -0.067042738
-0.031301335 -0.098125562 -0.06974782
-0.022650052 -0.092103288 -0.061427508
-0.0021054638 -0.097651988 -0.068430156
-0.020195741 -0.080869734 -0.06732893
-0.015830064 -0.087447844 -0.06284979
-0.016341956 -0.070846289 -0.066665821
-0.022654392 -0.066174462 -0.065176174
-0.010898789 -0.065699182 -0.063930795
-0.0072219726 -0.063026175 -0.06424427
-0.054797523 -0.051277421 -0.067988098
-0.026748609 -0.050078712 -0.069783695
-0.019520599 -0.059416909 -0.065804012
-0.0068937005 -0.053900663 -0.065014593
0.0031142414 -0.051454157 -0.062342845
0.012675055 -0.051170327 -0.069143526
-0.045648031 -0.047569096 -0.063356884
-0.035394855 -0.049642846 -0.062898099
0.045986518 -0.043387353 -0.063156813
-0.31216091 -0.021471296 -0.06703949
-0.35093549 -0.016274232 -0.062707432
-0.34236157 -0.018454697 -0.062549278
-0.027441192 -0.10055344 -0.055979185
-0.016341973 -0.10071868 -0.0563761
-0.022611871 -0.094565228 -0.053361326
-0.0031076455 -0.097395524 -0.05665426
-0.018207908 -0.072689556 -0.053780384
-0.018972941 -0.063349314 -0.059446037
-0.030609326 -0.051365964 -0.051108338
-0.017909097 -0.050888956 -0.058927923
0.024128992 -0.052557189 -0.058657393
-0.056643866 -0.048164345 -0.052201036
-0.017982559 -0.044832181 -0.055768423
0.0029762881 -0.043869946 -0.058438867
0.041001339 -0.042851627 -0.058411438
0.051604182 -0.04469315 -0.056738921
-0.30376491 -0.024065735 -0.053402241
-0.35288453 -0.017118732 -0.057980802
-0.33235705 -0.01731525 -0.055072349
0.024187226 -0.053710692 -0.047258332
-0.034605153 -0.045864016 -0.049513176
-0.014299066 -0.045358222 -0.04753565
0.0028544399 -0.044636901 -0.048817035
0.016158655 -0.044254091 -0.04719194
0.023624863 -0.04399161 -0.046883784
0.039888822 -0.043842264 -0.044605747
0.041068099 -0.043951374 -0.042775422
-0.33684754 -0.020364705 -0.046250183
-0.024178287 -0.054196253 -0.033148341
0.021887749 -0.054626405 -0.036795571
0.048351534 -0.055511661 -0.034114931
0.069288015 -0.053652093 -0.030739713
-0.1748475 -0.040946737 -0.030145768
-0.048086546 -0.048746943 -0.030246591
-0.020615231 -0.048262306 -0.035535429
-0.019659869 -0.048185829 -0.036325555
-0.0095813461 -0.040974498 -0.030001089
0.033906739 -0.040878713 -0.030027209
0.2318287 -0.04432065 -0.030213777
0.290757 -0.042594712 -0.030377433
-0.12767388 -0.035595652 -0.03061308
-0.087557204 -0.037937116 -0.030786207
-0.069000609 -0.036936268 -0.030713446
-0.040031902 -0.032414135 -0.030339994
0.0087892935 -0.039861042 -0.030304737
0.11981529 -0.038383991 -0.030722534
0.16055337 -0.039933369 -0.030660095
0.24391258 -0.033758782 -0.030482467
0.26216307 -0.039321341 -0.030704312
0.27848032 -0.032838918 -0.03041558
0.28395113 -0.032980628 -0.030425902
0.29486966 -0.038620818 -0.030342203
-0.32964551 -0.023264378 -0.035761029
-0.080812506 -0.073670372 -0.023723148
-0.040935673 -0.07515645 -0.022110052
0.035671968 -0.070644565 -0.028314613
0.040685218 -0.072922915 -0.026747849
-0.17568146 -0.062749475 -0.020291112
-0.16512476 -0.060779355 -0.02260953
-0.1566899 -0.060574912 -0.023108831
-0.12146294 -0.061222285 -0.023057545
-0.046469964 -0.060002103 -0.029297963
-0.012345999 -0.067721084 -0.027739203
-0.0057751564 -0.065357089 -0.029284298
0.0027966239 -0.065022171 -0.029285155
0.0205555 -0.067418441 -0.029279087
0.15145546 -0.063130543 -0.020745842
0.18212026 -0.063698895 -0.020145938
0.22156034 -0.063258372 -0.020610912
0.24145401 -0.061082721 -0.02259185
-0.24106263 -0.052508909 -0.021813609
-0.22409187 -0.052103851 -0.024115289
-0.18464732 -0.050696343 -0.027651399
-0.15077318 -0.058742866 -0.02460973
-0.13963246 -0.058734085 -0.024759583
-0.10528599 -0.057699289 -0.026921865
-0.084571555 -0.057606421 -0.029150069
-0.072968982 -0.057131365 -0.029301217
-0.017220994 -0.056880932 -0.029044373
-0.0095879678 -0.053120531 -0.028652208
0.0058487961 -0.052375592 -0.029317435
0.023356311 -0.059662491 -0.029298797
0.11854235 -0.058667019 -0.027823254
0.15386033 -0.056937076 -0.025513392
0.1747427 -0.052571759 -0.027783737
0.22304285 -0.05160803 -0.028149117
0.23068374 -0.053170487 -0.02755674
0.24946375 -0.058810748 -0.024358965
0.25052476 -0.052817181 -0.02769069
0.28597981 -0.05430096 -0.027003396
0.32430738 -0.058988415 -0.022489624
-0.28386205 -0.043628946 -0.021609973
-0.27441168 -0.046609186 -0.021575613
-0.26387283 -0.043878175 -0.023640485
-0.25278232 -0.044045698 -0.024426622
-0.24418133 -0.047099601 -0.024085442
-0.23714149 -0.043247357 -0.025939493
-0.17745082 -0.04453161 -0.029615678
-0.12415718 -0.049585849 -0.028925907
-0.061365426 -0.041624878 -0.02982372
-0.049137086 -0.047881275 -0.029328832
-0.02636385 -0.043352555 -0.029352566
0.0025922507 -0.044600606 -0.029337151
0.051227625 -0.04272661 -0.029523268
0.064634807 -0.047653664 -0.02932941
0.080601595 -0.048170242 -0.0293281
0.09032622 -0.043506712 -0.029365445
0.16704328 -0.049546145 -0.028930839
0.19782141 -0.046622269 -0.029713307
0.21648696 -0.046067584 -0.029833935
0.22044657 -0.049864709 -0.028810062
0.29550904 -0.046886809 -0.029309254
-0.2375052 -0.03405983 -0.026593851
-0.22552241 -0.033060521 -0.027520793
-0.19295402 -0.03325079 -0.029567055
-0.0057896143 -0.030800987 -0.029991442
0.017506259 -0.030538261 -0.029934675
-0.33297759 -0.021722697 -0.020865116
-0.32978216 -0.023743872 -0.024298603
-0.31484675 -0.027134618 -0.020376945
-0.30525649 -0.027671274 -0.020649193
-0.27774575 -0.023959571 -0.022697721
-0.26957771 -0.026323166 -0.02404853
-0.20136967 -0.025676128 -0.027566673
0.0051552942 -0.024420459 -0.028112715
0.087012038 -0.026856942 -0.02903646
0.10893904 -0.025515473 -0.028527867
0.15224576 -0.028698975 -0.029537298
0.18818335 -0.028836478 -0.029567011
0.19676508 -0.024626657 -0.02819089
0.24730507 -0.022952709 -0.027556248
0.25552022 -0.029930796 -0.029803419
0.28634366 -0.024402941 -0.028106071
0.29543635 -0.028852371 -0.029057331
0.31929183 -0.023892056 -0.024300016
-0.18320811 -0.01637934 -0.022977157
-0.14848483 -0.019658396 -0.025750576
-0.086240917 -0.014557054 -0.022235973
0.051292721 -0.017909532 -0.024822801
0.12346623 -0.018679697 -0.025264259
0.22183278 -0.0132646 -0.021059992
0.23585126 -0.019168984 -0.025535021
0.26795891 -0.015566694 -0.023015121
0.2947633 -0.017742246 -0.023940654
-0.097526357 -0.071618289 -0.015625499
-0.066782333 -0.076396018 -0.017870517
-0.038584653 -0.076651588 -0.015588799
-0.023667693 -0.076760858 -0.014366493
0.0061046272 -0.076820441 -0.013833601
0.012496811 -0.076244481 -0.017646048
0.071652271 -0.076806679 -0.012721766
0.082774594 -0.076804347 -0.012642184
0.10697298 -0.075304344 -0.010952795
0.12051977 -0.07398843 -0.010632138
-0.23018795 -0.060166828 -0.016894668
-0.12010924 -0.066138923 -0.018373316
-0.10777363 -0.069417641 -0.01289548
-0.0364451 -0.065284669 -0.017453706
0.12401178 -0.068093359 -0.019778697
0.14207441 -0.066199072 -0.017290244
0.1564976 -0.069543287 -0.011567902
0.19706431 -0.06670773 -0.016390964
0.21999437 -0.067192294 -0.01580043
0.22102578 -0.064736113 -0.019051138
0.31586191 -0.065441929 -0.017101767
0.32965016 -0.06620644 -0.015175082
0.33561853 -0.060736418 -0.01945672
-0.27235579 -0.05292391 -0.016588937
-0.25856093 -0.056923989 -0.014962574
0.34784064 -0.059427481 -0.017866829
0.35746247 -0.057889517 -0.016065443
-0.29266399 -0.049121946 -0.015968056
-0.3452071 -0.035517611 -0.012280601
-0.31552801 -0.039563417 -0.017982524
0.35408506 -0.0356519 -0.010937696
-0.33093339 -0.022478202 -0.015172798
-0.31889978 -0.022067146 -0.019189997
-0.31719536 -0.0150798 -0.010416433
-0.26328751 -0.010149537 -0.010478631
-0.22589177 -0.010313055 -0.014426855
-0.19931102 -0.010360236 -0.016627068
-0.17748445 -0.011495956 -0.018567367
-0.15719728 -0.011994731 -0.019572821
-0.09071409 -0.010048131 -0.017480712
0.098233193 -0.011429701 -0.01910495
0.19503163 -0.012077347 -0.019794811
-0.16448461 -0.0075817429 -0.013318494
-0.15318213 -0.0092968848 -0.016198114
-0.10888205 -0.0075462516 -0.013734401
-0.081796981 -0.0077618239 -0.014090854
-0.014340455 -0.0086745359 -0.015444285
0.011564123 -0.0096251136 -0.016853888
0.025001112 -0.0092751049 -0.016334867
0.081379585 -0.0062764892 -0.01097637
0.12557974 -0.007050267 -0.012657182
0.15026781 -0.0073930928 -0.013401823
0.16458234 -0.0073567396 -0.013322879
0.23936108 -0.0090747783 -0.016037546
0.25019705 -0.0067731063 -0.012055249
0.30218989 -0.0080147423 -0.010661592
-0.18133602 -0.070893668 -0.0046544084
-0.17547344 -0.070255749 -0.008060446
-0.16637866 -0.071968913 -0.00030719221
-0.11950412 -0.07276351 -0.0023467971
-0.092436582 -0.073099323 -0.0090827495
-0.029859262 -0.076827884 -0.0037069898
-0.012865879 -0.073595829 -0.0052667502
-0.0065997038 -0.075704157 -0.0070973253
0.0014214413 -0.075711332 -0.0081305038
0.084114723 -0.076804072 -0.00086912297
0.1019857 -0.076026648 -0.0023306469
0.14613941 -0.072147578 -0.00051607168
0.16496386 -0.071307056 -0.0064925924
0.17327735 -0.07028456 -0.0099579766
0.19264886 -0.071567461 -0.0054918653
0.20271665 -0.071856238 -0.0038784223
0.24669254 -0.071369395 -0.0062530143
-0.26260322 -0.060726315 -0.0041973945
-0.25356919 -0.062882543 -0.0015106513
-0.18910052 -0.069859967 -0.0072112959
-0.02460083 -0.062912345 -0.0052667502
-0.0010237551 -0.060727865 -0.0052667502
0.0024901801 -0.062871814 -0.0068429364
0.29697818 -0.061679598 -0.0092007583
0.35510504 -0.068009511 -0.0047849752
-0.2740525 -0.058473479 -0.0038797681
0.30009267 -0.0580796 -0.0062305019
0.37310126 -0.043936156 -0.0044960412
-0.36499938 -0.020439532 -0.0022551415
-0.33303788 -0.016870644 -0.0096830623
-0.30302885 -0.012008986 -0.0068656742
-0.28897601 -0.0099382037 -0.0024547961
-0.26610771 -0.003368526 -0.003498686
-0.2561079 -0.0014088387 -0.003063187
-0.1967679 -0.0057448526 -0.007538443
-0.17785236 -0.0046413033 -0.0039988072
-0.16750664 -0.0048945104 -0.0059042848
-0.079379395 -0.0042382656 -0.0039074305
-0.067057356 -0.0052028145 -0.0080983546
-0.055386372 -0.0039950674 -0.0011012289
-0.023573976 -0.0040449928 -0.001677307
0.025456073 -0.0056484612 -0.0096126273
0.060492143 -0.004114273 -0.0024767169
0.11837765 -0.0050831432 -0.0076384451
0.1659167 -0.0057815062 -0.0099016409
0.18358013 -0.0044654566 -0.0052651623
0.21825388 -0.0040817219 -0.0021011129
0.23587611 -0.0051768934 -0.0079991091
0.28219068 -0.00400022 -0.0011606837
-0.27865812 0.00015371456 -0.0035055832
-0.28788555 0.010741502 -0.0031253919
-0.33092177 0.026841655 -0.0019181685
-0.32666737 0.021034749 -0.0020365755
-0.30670354 0.023033315 -0.0026705945
-0.2964105 0.022042789 -0.0028074947
-0.32220018 0.034987368 -0.0021750624
-0.3077282 0.031725984 -0.0026378315
-0.27500686 0.033045001 -0.0019716388
-0.34153399 0.047429983 -0.0015601495
-0.32552075 0.046729155 -0.002112532
-0.28403312 0.046364792 -0.0016553883
-0.31541887 0.050179586 -0.0022136073
-0.2983776 0.05638155 -0.0016677987
-0.34146315 0.060284115 -0.0016199497
-0.31807166 0.066391021 -0.001696307
-0.36425808 0.07232774 -8.4856831e-05
-0.33552724 0.07593739 -0.0017528376
-0.32046685 0.076369107 -0.0014488114
-0.33072379 0.086683802 -0.0013135708
-0.3580915 0.10053755 -0.0012215631
-0.34869862 0.107104 -0.00056052767
-0.20211345 -0.070115827 0.0035190724
-0.1844216 -0.071191296 0.00039347092
-0.13709269 -0.072540812 0.0021356584
-0.052172646 -0.076832548 0.0010715772
-0.029186491 -0.075701743 0.0068474431
-0.016825411 -0.076815061 0.0059268279
-0.0056969975 -0.072899766 0.0052372096
0.040489506 -0.076813176 0.0014591874
0.067769103 -0.076807499 0.0095221922
0.17104778 -0.071067616 0.007814711
0.19309182 -0.072068632 0.0018504144
0.22555712 -0.071874149 0.0040800222
0.25550744 -0.071337923 0.0067759324
0.2864458 -0.071151197 0.007493508
-0.24172017 -0.064865522 0.0040987413
0.31055942 -0.060261678 0.0092968503
0.36688343 -0.06586045 0.0005947887
-0.27947184 -0.057470255 0.0042469045
0.29106471 -0.059876382 0.0097199911
0.31143588 -0.0580796 0.0033020861
-0.36133891 -0.022559017 0.0072150277
-0.35601082 -0.018408598 0.0047647213
-0.34916085 -0.0169186 0.0051271045
-0.33486599 -0.0046165176 0.00050636474
-0.32767817 -0.0067734374 0.0012892542
-0.25515181 -0.0050252206 0.004285777
-0.22782369 -0.0069595492 0.0077161454
-0.2150133 -0.0054069161 0.0033548176
-0.20773996 -0.0056377109 0.006511196
-0.16794348 -0.0051278947 0.0071349773
-0.15575263 -0.0047263801 0.0059905262
-0.097818196 -0.0041619474 0.0034394132
-0.082030728 -0.0042661717 0.004634066
-0.064128719 -0.0041582705 0.003397271
-0.05550161 -0.0049411077 0.0074945157
-0.046079177 -0.005120839 0.0081852321
0.043654095 -0.004834359 0.0070840744
0.079046249 -0.0043661073 0.0052846507
0.1030864 -0.0041602086 0.0034194812
0.11322656 -0.0044559939 0.0045480644
0.15342335 -0.0042649913 0.00462054
0.22061512 -0.0040714256 0.0024018276
0.24028172 -0.0039625349 0.0011536832
0.25373104 -0.0045725997 0.0057443096
0.29159966 -0.004547934 0.0042744474
-0.3314555 0.0042399298 0.0013292202
-0.31808323 3.5921141e-05 0.0026913136
-0.29248866 0.0023834519 0.0035944013
-0.29031828 0.018543292 0.0031735315
-0.26587856 0.018156411 0.0026953921
-0.34002134 0.021325916 0.0010654362
-0.29856384 0.020111842 0.0033429116
-0.27317464 0.027492389 0.0025118683
-0.3373619 0.03639375 0.0019991719
-0.27631176 0.033935189 0.0023714323
-0.30302685 0.043231606 0.0025432541
-0.36430609 0.06860359 8.3414016e-05
-0.35020044 0.066044964 0.0017826437
-0.33210364 0.069860116 0.00234584
-0.31115466 0.069705315 0.0019029223
-0.34495509 0.07121107 0.0019425361
-0.31291226 0.073945463 0.0018163903
-0.35246506 0.082174145 0.0017408589
-0.34414196 0.084443107 0.002036989
-0.36008787 0.107104 0.0012746106
-0.12286821 -0.070044346 0.01243508
-0.084891528 -0.075002946 0.01401589
-0.068377294 -0.076380566 0.018285628
-0.0364451 -0.076277815 0.014722092
-0.0064735413 -0.076819405 0.014003647
0.028475223 -0.076636538 0.015910275
0.10094333 -0.075512916 0.01522989
0.11782195 -0.073166132 0.01694951
0.12846151 -0.071421012 0.011326823
0.15664636 -0.070029825 0.010913099
0.29262668 -0.07410761 0.011167241
0.31593919 -0.074976832 0.016109932
-0.20764434 -0.06653896 0.013137815
-0.17676613 -0.065062873 0.01818849
-0.14203411 -0.068245575 0.015220302
-0.10969257 -0.067403302 0.017383188
-0.0364451 -0.063115001 0.017511133
0.15956536 -0.067784682 0.015313482
0.17442244 -0.066837482 0.016658101
0.18398602 -0.068541102 0.014146127
0.30338964 -0.067027956 0.015979417
0.311708 -0.065471075 0.012120562
0.32536057 -0.06295795 0.012817706
0.33959091 -0.067531332 0.011669447
-0.29791069 -0.050117433 0.013790675
-0.28097525 -0.055176314 0.010829132
-0.26184592 -0.056978501 0.014356307
-0.014566267 -0.054580402 0.013962339
0.35675594 -0.054827403 0.017939949
-0.29572481 -0.044500321 0.019662235
-0.33706859 -0.03379887 0.015809642
-0.35458386 -0.02411769 0.010627151
-0.32998323 -0.021826195 0.01981907
-0.2627939 -0.010558407 0.011844588
-0.074072942 -0.010350092 0.018330341
-0.02302932 -0.010976383 0.019023821
0.022447215 -0.010804097 0.01884027
0.047779761 -0.010401003 0.018389273
0.25011441 -0.011319987 0.019390095
0.30078858 -0.013365529 0.019563526
0.31225371 -0.010446668 0.012953695
-0.20602699 -0.0066483482 0.010120535
-0.063399829 -0.0080645988 0.01494145
-0.035433911 -0.0089717489 0.016286651
-0.0085345218 -0.0090681259 0.016429605
0.057245322 -0.0057893186 0.010320335
0.079288743 -0.0074930084 0.014020331
0.093818419 -0.0088235801 0.016066805
0.13392417 -0.0096997265 0.017365959
0.18397771 -0.008619573 0.015764328
0.24663016 -0.0075054094 0.014047327
0.27376604 -0.007232436 0.013454515
-0.062231604 -0.075320527 0.021989407
-0.057656344 -0.075131707 0.022629861
-0.049450934 -0.075310528 0.022031713
-0.039361116 -0.073461518 0.026413068
0.024047658 -0.070815295 0.02864103
0.071622618 -0.072559886 0.027629664
0.081415869 -0.073595062 0.026215637
-0.10153122 -0.066670783 0.024974156
-0.028785918 -0.065816283 0.0272584
-0.016681973 -0.065860495 0.028302498
-0.0022874097 -0.06539201 0.028470526
0.069849133 -0.063779213 0.029689876
0.11420357 -0.061298747 0.028568912
0.22214964 -0.063061081 0.021202279
0.25282621 -0.061644696 0.022556253
0.31490988 -0.063120328 0.020143587
-0.2067932 -0.054216523 0.02544952
-0.14123246 -0.058514494 0.025284464
-0.13771266 -0.051408231 0.028800983
-0.032716013 -0.056719825 0.028485637
-0.029030053 -0.054580402 0.026340835
-0.016667519 -0.057306558 0.028629314
-0.0054629352 -0.058946088 0.029702213
0.18549532 -0.052071452 0.028375268
0.21554124 -0.052143797 0.028347805
0.24731609 -0.051415183 0.028623952
0.28264701 -0.057265192 0.025765151
0.29430437 -0.058895111 0.024495615
0.3252776 -0.054026999 0.025164543
-0.25436163 -0.044747941 0.024435155
-0.17973408 -0.047401696 0.029324034
-0.066242509 -0.046098281 0.029734856
-0.05214788 -0.044016659 0.029740132
-0.047321651 -0.046497002 0.029733844
-0.0063104369 -0.045433529 0.029736541
0.056714971 -0.044785947 0.029738182
0.085723914 -0.047406591 0.029731534
0.17448767 -0.047688697 0.029883394
0.26682374 -0.04997943 0.029168153
0.31245252 -0.041182939 0.029458378
-0.29373959 -0.038810316 0.022031307
-0.3232353 -0.02558738 0.024075774
-0.31313118 -0.026445255 0.028367823
-0.30538723 -0.026273319 0.021106489
-0.29232615 -0.02359391 0.022153262
-0.26948953 -0.023266215 0.023465395
-0.23355252 -0.024324268 0.02523848
-0.13834539 -0.023476053 0.02813022
-0.088599056 -0.020945389 0.026919492
-0.03861453 -0.027040899 0.029507751
0.0191071 -0.026786987 0.029411508
0.036082011 -0.025489077 0.028919563
0.052076571 -0.026749378 0.029397255
0.089191407 -0.0241965 0.028429527
0.10933557 -0.025564251 0.028948009
0.12364201 -0.025470732 0.028912473
0.14961289 -0.027191915 0.02956499
0.18352368 -0.027638601 0.029709697
0.22981703 -0.024342081 0.028484818
0.24569967 -0.026183855 0.029182903
0.26226848 -0.028038729 0.02979617
0.28594303 -0.028587127 0.029914629
0.3314113 -0.029717486 0.023887575
-0.24261217 -0.018838611 0.021890229
-0.206476 -0.014908105 0.021602396
-0.17588434 -0.013386829 0.021006435
-0.16876087 -0.016472701 0.023775095
-0.14945818 -0.018715378 0.025628855
-0.13834716 -0.016623527 0.024178542
-0.10475484 -0.016115064 0.023839656
-0.042054106 -0.018751381 0.025705539
-0.025567256 -0.016323855 0.02400076
-0.012743363 -0.017429609 0.024853978
-0.0035849682 -0.015179684 0.023117924
0.081054822 -0.012940198 0.02111575
0.11858128 -0.015583428 0.023429435
0.17959438 -0.012622557 0.020777395
0.23996797 -0.013324745 0.021525506
0.27041969 -0.016802346 0.024370097
0.31488395 -0.017847577 0.021394474
0.012096222 -0.054661639 0.03239958
0.061353259 -0.05371394 0.039593693
0.14294134 -0.045796845 0.030294577
0.15424892 -0.042447299 0.030880027
0.16989987 -0.043357473 0.030814275
0.24451217 -0.04477277 0.030517178
0.2918883 -0.0428757 0.030686915
-0.15419975 -0.037991364 0.031183163
-0.14660242 -0.037407856 0.031142412
-0.047615472 -0.033071067 0.03083406
-0.0041528731 -0.037206128 0.030958006
0.010039766 -0.031393133 0.030520987
0.029902101 -0.030061932 0.030233348
0.15986812 -0.03479268 0.030959163
0.16120365 -0.030316539 0.030288363
0.21711043 -0.033442087 0.030861065
0.23230785 -0.03935913 0.03110311
-0.33838868 -0.020100135 0.033742968
-0.32773519 -0.023742106 0.034323655
-0.29499984 -0.022318371 0.033899415
-0.13756415 -0.029353654 0.030065674
-0.10591052 -0.029869456 0.030191746
-0.016200854 -0.076936871 0.047136981
-0.034458183 -0.051265322 0.045554534
0.011010296 -0.05376317 0.041452035
-0.056583334 -0.048995119 0.041441381
-0.046569206 -0.04771195 0.041319046
-0.030193796 -0.046383239 0.041271262
-0.014388299 -0.046385705 0.045524791
-0.0020282678 -0.045329269 0.042596694
0.013972414 -0.044154286 0.049513165
-0.33458173 -0.021455977 0.046304014
-0.29651532 -0.026243372 0.042333744
-0.34959 -0.018950529 0.04527507
-0.014511787 -0.10138884 0.051377878
-0.0088895299 -0.098846823 0.055529125
-0.021084115 -0.089899294 0.058739901
-0.0026086145 -0.051154908 0.051583469
0.0043012789 -0.051992662 0.057209324
-0.053278327 -0.048939668 0.053689402
-0.011713542 -0.044743419 0.054500595
0.055497818 -0.046251573 0.053414188
-0.35006988 -0.0184072 0.050162472
-0.3431527 -0.017775144 0.05569201
-0.33962983 -0.017523646 0.051745728
-0.0255154 -0.1034279 0.064841017
-0.016586212 -0.10039783 0.069484882
-0.027503485 -0.092706546 0.061330833
-0.017811585 -0.0941111 0.063806787
-0.008787849 -0.084103972 0.069206387
-0.019922797 -0.074127063 0.06796179
-0.019106315 -0.064454727 0.063344695
-0.030157961 -0.053658292 0.067883126
-0.023975421 -0.059563845 0.065264374
-0.015240818 -0.056473717 0.06535244
0.030382499 -0.052153356 0.063569769
0.050290167 -0.050547503 0.061155081
-0.016913701 -0.044139173 0.064345188
0.033917278 -0.042790081 0.061059609
-0.31764165 -0.020827385 0.068302661
-0.35108733 -0.016304754 0.062936865
-0.013542019 -0.098395109 0.07089822
-0.0051230052 -0.050318621 0.07195317
-0.057394598 -0.046854481 0.075557157
-0.047388211 -0.047951132 0.071676195
0.0066158562 -0.042303659 0.076447167
0.044072077 -0.044139743 0.072047547
-0.31027323 -0.017725952 0.070304714
0.071210049 -0.082635812 0.089071676
0.049245309 -0.074755512 0.086093038
0.054867268 -0.07288035 0.084795989
0.063162915 -0.0772781 0.085474148
0.079910234 -0.073473692 0.084158294
0.10418835 -0.07848572 0.087849148
0.035078533 -0.065730229 0.08765991
0.049118806 -0.069013603 0.08935912
0.068634883 -0.06926918 0.083682716
0.074083738 -0.066896424 0.089414366
-0.039435349 -0.047500525 0.083015315
-0.024570001 -0.045028955 0.087703347
-0.0027549765 -0.049050275 0.08512938
0.015313756 -0.04153759 0.083125919
0.021475123 -0.049496777 0.087521195
0.041156214 -0.045791604 0.081336841
-0.34180233 -0.013307824 0.085895814
0.051606316 -0.081477538 0.090027183
0.076578788 -0.088263199 0.099440716
0.094316483 -0.085460104 0.096816599
0.10047147 -0.082902953 0.099189669
0.033442032 -0.075304173 0.090498574
0.0082556363 -0.068103716 0.097707041
0.029705187 -0.067979038 0.093575805
0.0531842 -0.064220764 0.092292808
-0.051666137 -0.053068977 0.093166806
-0.035425097 -0.057829686 0.094618708
-0.02452983 -0.054030478 0.093412854
-0.010875525 -0.050131708 0.093669146
0.0060793469 -0.05215463 0.099421248
0.032524262 -0.058810137 0.092591628
0.046890043 -0.055735566 0.095905349
0.058393534 -0.051311202 0.095629618
-0.065190196 -0.049903844 0.099729046
-0.032424819 -0.042093553 0.096369863
-0.022588659 -0.041969944 0.094305709
-0.0078670736 -0.048054501 0.093551435
0.009015087 -0.046636488 0.099424005
0.013039172 -0.048676711 0.09397503
0.027488844 -0.048459537 0.094572194
0.040818956 -0.044890337 0.098534063
0.057385623 -0.044189308 0.099210531
0.082492739 -0.049654294 0.098130882
-0.33789378 -0.013933407 0.095542446
-0.32512793 -0.01421069 0.092161119
0.049927574 -0.080970123 0.10090298
0.055123493 -0.083275296 0.10831016
0.067839094 -0.088287592 0.10008424
0.072139144 -0.082170933 0.10062924
0.089713112 -0.088490039 0.10352836
0.099690765 -0.087588042 0.10104269
0.0085285427 -0.07114996 0.10693336
0.01533227 -0.072109446 0.10493284
0.041849647 -0.07897523 0.10497609
0.087992303 -0.071312405 0.10060406
0.0084339837 -0.067172095 0.10875044
0.015095002 -0.062108021 0.10799609
0.02661315 -0.052741837 0.1042112
0.036795679 -0.055239718 0.10420129
0.067543685 -0.051899187 0.10420147
-0.0515306 -0.044269286 0.10235798
-0.044671677 -0.044912025 0.10981412
-0.038810108 -0.041798122 0.10474706
-0.017422862 -0.041046709 0.10380277
-0.0011224804 -0.048100993 0.1019797
0.0067147547 -0.040310279 0.10240219
0.062537141 -0.049755737 0.10460144
0.077200249 -0.046522632 0.10680977
-0.34356433 -0.013134615 0.10778221
-0.33922753 -0.014117254 0.10353309
0.067650028 -0.084529974 0.11460572
0.087992303 -0.080035128 0.11083758
0.034081794 -0.078525662 0.11102471
0.045100883 -0.077576593 0.11403626
0.05481163 -0.075997896 0.11337247
0.060131047 -0.076675594 0.1133251
0.080529928 -0.078542642 0.11980554
0.033577126 -0.065563105 0.1159064
0.02927237 -0.057757456 0.11329025
0.03663604 -0.057681724 0.11317924
0.040529031 -0.057175767 0.11585771
0.0531842 -0.058446858 0.11380537
0.073487371 -0.053079624 0.11393109
0.087570205 -0.051634971 0.11071016
0.099093251 -0.058403149 0.11780271
0.10483153 -0.058387224 0.11316352
-0.35021612 -0.010081965 0.11968061
-0.35926867 -0.0090504177 0.11961322
0.066266127 -0.074535578 0.12138622
0.071962059 -0.07758072 0.12026422
0.045048729 -0.064909421 0.12014472
0.052965648 -0.06981542 0.12125569
0.069347754 -0.062681608 0.12115504
0.081142865 -0.069669217 0.12211478
0.097883485 -0.06600628 0.12122445
-0.024688318 -0.044598538 0.12350351
-0.013272753 -0.044906162 0.12549081
-0.047114313 -0.042404622 0.13615023
0.0027735007 -0.044207521 0.13712639
0.0087741017 -0.038744893 0.13210246
-0.083558239 -0.043615494 0.14848195
-0.078800097 -0.044816572 0.14798139
-0.063841715 -0.040470697 0.14477861
-0.059773315 -0.0482651 0.14724109
-0.049065802 -0.041481551 0.14701483
-0.027706824 -0.042884491 0.14333062
-0.063211069 -0.03990867 0.14896919
-0.057408541 -0.040348671 0.15592982
-0.032050174 -0.048236407 0.15087149
-0.024748651 -0.041971751 0.15594076
-0.019542852 -0.042022776 0.15735234
-0.0022824905 -0.041917711 0.15433097
-0.059703059 -0.039178815 0.15189122
-0.040945515 -0.037480049 0.15321521
-0.036051586 -0.040478382 0.16870914
-0.016514167 -0.041580945 0.16256183
-0.0099869352 -0.040988959 0.16632755
-0.0068265405 -0.037517626 0.1670084
-0.022446498 -0.040500943 0.17317599
-0.064469822 -0.037994623 0.1748523
-0.054281004 -0.035469495 0.17894918
-0.065129146 -0.035324074 0.18928912
-0.055612341 -0.03464761 0.18889832
-0.04390882 -0.038574517 0.18848443
-0.027783029 -0.037174195 0.18010998
-0.015205309 -0.036895379 0.18475834
-0.041503947 -0.033377253 0.19812997
-0.036872268 -0.033581346 0.1945639
-0.029901626 -0.033811737 0.19040135
-0.070574276 -0.042316426 0.20248853
-0.072875805 -0.036540404 0.20447563
-0.056186192 -0.034873389 0.20584682
-0.03101632 -0.033035446 0.2001932
-0.02745406 -0.035789177 0.20713307
-0.068514921 -0.035155512 0.21696264
-0.032820147 -0.036527898 0.21002012
-0.076059237 -0.033374548 0.22733773
-0.066524379 -0.034861777 0.2223556
-0.040539216 -0.031538844 0.22128168
-0.082542486 -0.033051006 0.23414204
-0.069484144 -0.030317221 0.2426801
-0.053860512 -0.031986885 0.24435908
-0.056508321 -0.029703248 0.24880299
-0.090670839 -0.031292468 0.25070924
-0.076406553 -0.031784259 0.2557272
-0.075342409 -0.029479455 0.254217
-0.064480521 -0.029114226 0.25419167
-0.09220463 -0.028887581 0.2699995
-0.061306465 -0.028583003 0.26050049
-0.07593032 -0.029906742 0.27807143
-0.093629651 -0.027537988 0.28926209
-0.085011162 -0.027000505 0.28490981
-0.073431544 -0.028681086 0.28150401
-0.087886378 -0.027437983 0.3021692
