# .PCD v0.7 - Point Cloud Data file format
VERSION 0.7
FIELDS x y z
SIZE 4 4 4
TYPE F F F
COUNT 1 1 1
WIDTH 834
HEIGHT 1
VIEWPOINT 0 0 0 1 0 0 0
POINTS 834
DATA ascii
-0.16257173 -0.070558503 -0.37623155
-0.17282006 -0.060327206 -0.37226826
-0.17150263 -0.06983228 -0.34230796
-0.1637667 -0.069580406 -0.33044115
-0.16322683 -0.052873943 -0.33438206
-0.1527736 -0.05392579 -0.33297154
-0.15809605 -0.069555752 -0.32923386
-0.16461872 -0.05044065 -0.32460219
-0.17462993 -0.06930691 -0.31773537
-0.15605685 -0.069316179 -0.31799635
-0.14516591 -0.069298699 -0.31707644
-0.171326 -0.069069594 -0.30659211
-0.14866288 -0.068766199 -0.2921738
-0.16633323 -0.044493951 -0.29973575
-0.14770959 -0.043767378 -0.28591934
-0.15773401 -0.068311386 -0.2709606
-0.15239564 -0.041444339 -0.27850392
-0.15571447 -0.039450485 -0.27173692
-0.16319074 -0.068147212 -0.2633239
-0.16427775 -0.03740105 -0.26772973
-0.13155998 -0.068021744 -0.25715345
-0.16632621 -0.033812143 -0.25330269
-0.1531491 -0.036493972 -0.25741813
-0.12558776 -0.067663312 -0.24031401
-0.12062672 -0.038068492 -0.24564922
-0.14677258 -0.067503601 -0.23303226
-0.13904145 -0.067632101 -0.23897752
-0.12116567 -0.067545369 -0.2347496
-0.13438946 -0.067306697 -0.2236968
-0.14847645 -0.030370114 -0.22812627
-0.1395556 -0.031729218 -0.22892825
-0.12332813 -0.032895852 -0.22471207
-0.17135403 -0.067177333 -0.21798335
-0.16820864 -0.06719631 -0.21884249
-0.13219987 -0.067051463 -0.21172406
-0.1410172 -0.028998721 -0.21789649
-0.12037408 -0.066826105 -0.20106162
-0.10973427 -0.029705891 -0.20306696
-0.12940377 -0.066599675 -0.19054222
-0.11203131 -0.06663502 -0.19203559
-0.16281974 -0.021256628 -0.19672272
-0.14644131 -0.021224663 -0.18721035
-0.16393068 -0.018172555 -0.18395343
-0.15247381 -0.066328868 -0.17807651
-0.14134189 -0.066264451 -0.17495616
-0.11578526 -0.066337511 -0.17813924
-0.13039561 -0.020528546 -0.17500167
-0.1195263 -0.022093084 -0.17558149
-0.14530662 -0.019350225 -0.17841363
-0.13938881 -0.019449508 -0.17545839
-0.095708452 -0.065986097 -0.16149649
-0.11332972 -0.02022971 -0.16393593
-0.098080359 -0.022556074 -0.16532034
-0.15450519 -0.065793514 -0.15302636
-0.11775105 -0.065845653 -0.15512531
-0.10064456 -0.065921843 -0.15853333
-0.098338753 -0.06590727 -0.15782958
-0.14494677 -0.013034322 -0.15075529
-0.12188336 -0.01782071 -0.15836033
-0.11210646 -0.017571915 -0.1516836
-0.16749066 -0.065518551 -0.14027147
-0.12360127 -0.065626204 -0.14490375
-0.11515434 -0.065726057 -0.14950079
-0.14220811 -0.011163148 -0.14105479
-0.12707609 -0.015069839 -0.14937535
-0.14357454 -0.065469034 -0.13772969
-0.10575987 -0.065474033 -0.13761154
-0.096238673 -0.016446633 -0.13771133
-0.17011026 -0.0056211641 -0.1329347
-0.1411486 -0.0097858571 -0.13446195
-0.16106418 -0.065247104 -0.12750049
-0.12610886 -0.065178543 -0.12396433
-0.11951895 -0.065123081 -0.1213059
-0.11668795 -0.01134218 -0.12722771
-0.10344891 -0.011498879 -0.12033208
-0.083653294 -0.016206341 -0.12946425
-0.09590394 -0.010927977 -0.11353263
-0.1188584 -0.0091163469 -0.11879516
-0.10546564 -0.0098691965 -0.11440275
-0.15611216 -0.064734526 -0.10345218
-0.11829868 -0.064865142 -0.10921614
-0.083609976 -0.064683542 -0.10038921
-0.085221574 -0.011474052 -0.10979262
-0.13650541 -0.0035494287 -0.10469767
-0.12920147 -0.003714513 -0.10123518
-0.11074668 -0.0069303578 -0.10465129
-0.12678467 -0.0030870952 -0.097124919
-0.1630843 0.0033231545 -0.090036787
-0.12334402 -0.064427048 -0.088748507
-0.08376608 -0.064297304 -0.08230409
-0.096589699 -0.0041012778 -0.084252477
-0.079067297 -0.0059133684 -0.082100719
-0.16390568 0.0056637344 -0.080333419
-0.15187249 0.0040018838 -0.080670111
-0.13528115 0.00067497045 -0.085635461
-0.12874269 -0.064075992 -0.072360136
-0.11576889 -0.064199381 -0.078016654
-0.10633609 -0.064199239 -0.077922262
-0.088078395 -0.064178437 -0.076778293
-0.10705855 -0.00055801641 -0.074842848
-0.08371605 -0.0037335698 -0.07528659
-0.16572568 0.0061396691 -0.079306319
-0.13439333 -0.063915089 -0.06487792
-0.093432978 -0.064019859 -0.069402248
-0.086459085 -0.063840434 -0.060935635
-0.13072681 0.0053386879 -0.062757902
-0.15619689 -0.063653037 -0.052809902
-0.10327642 -0.063704476 -0.054725312
-0.094969548 -0.063779809 -0.058175765
-0.066620208 -0.063723281 -0.05526438
-0.14569731 -0.033364311 -0.050662503
-0.10450641 -0.034040779 -0.050499544
-0.05755559 -0.03328339 -0.05051481
-0.15443587 -0.024185162 -0.051286332
-0.12576401 -0.029455412 -0.051141374
-0.14476961 -0.016503351 -0.050292168
-0.081479661 -0.00020766818 -0.058681183
-0.12634212 0.0060835625 -0.057010889
-0.09673655 0.0017422457 -0.058937326
-0.13985322 -0.063459925 -0.043614712
-0.12442486 -0.063460924 -0.043517817
-0.1122943 -0.063451573 -0.042966828
-0.093120202 -0.06348487 -0.044347361
-0.073118128 -0.06344156 -0.042132866
-0.064261705 -0.063601129 -0.049522527
-0.090885848 -0.054975227 -0.04257182
-0.05760175 -0.0536617 -0.042106688
-0.16272378 -0.049568422 -0.045816958
-0.146697 -0.041458428 -0.049148235
-0.092786223 -0.047911651 -0.046381012
-0.069567099 -0.04216367 -0.048721362
-0.16893676 -0.038900372 -0.041287534
-0.1202225 -0.036996596 -0.041062646
-0.11865585 -0.034282252 -0.041417174
-0.056580581 -0.031834085 -0.042497147
-0.045178644 -0.039586354 -0.040327385
-0.014200778 -0.03254839 -0.042476662
0.080398746 -0.037318453 -0.041470628
0.11039948 -0.035840493 -0.042082809
-0.1091866 -0.023972413 -0.042134207
-0.011559928 -0.02002313 -0.042993538
0.067470498 -0.021152884 -0.043270521
0.086977899 -0.023247909 -0.04354639
0.094294123 -0.023479044 -0.043576825
0.11157609 -0.028784445 -0.043106154
0.1426613 -0.021095149 -0.04295782
-0.14743289 -0.016899496 -0.041273154
-0.13327986 -0.014435757 -0.040720083
-0.12102424 -0.013542123 -0.040326864
-0.075111605 -0.012512836 -0.049374633
-0.056713246 -0.012812848 -0.049643241
-0.046713673 -0.018848006 -0.042778678
0.00017372239 -0.016755413 -0.042583454
0.10420994 -0.013607617 -0.042276986
0.12198699 -0.011326131 -0.041452315
-0.15474083 -0.003526845 -0.045981485
-0.12714657 -0.0017221192 -0.045181952
-0.087725073 -0.0098589649 -0.048478138
-0.078343697 -0.0059805871 -0.04685396
-0.11374275 0.00038242209 -0.04407981
-0.09957017 0.0033528635 -0.041772928
-0.084647931 0.0019534167 -0.042817809
-0.14718305 0.011155247 -0.046893854
-0.15996295 -0.065067396 -0.033997439
-0.130916 -0.06540405 -0.033512034
-0.11032851 -0.06331262 -0.036441438
-0.099299885 -0.063314542 -0.036428966
-0.083022878 -0.06533666 -0.033522911
-0.05364649 -0.061635617 -0.034098238
-0.13118184 -0.050100517 -0.035038397
-0.12121308 -0.05282094 -0.032934073
-0.067915112 -0.05835744 -0.03993769
-0.054339435 -0.05224954 -0.032785773
-0.046718296 -0.050956532 -0.033794813
-0.020419126 -0.052675866 -0.032534059
-0.012833063 -0.055429172 -0.030068012
0.066863969 -0.054112948 -0.031617347
0.086197302 -0.05392506 -0.031761523
0.11498427 -0.054900613 -0.030981481
0.13951652 -0.054445378 -0.031362262
-0.15185669 -0.043678164 -0.038498078
-0.11771704 -0.047911666 -0.036684822
-0.047146078 -0.045560919 -0.037496015
-0.034443751 -0.045502651 -0.034205977
-0.015941076 -0.045794457 -0.036391884
-0.0053977496 -0.044081524 -0.034300659
0.028202351 -0.045808949 -0.037887838
0.078836128 -0.04300268 -0.039116181
0.141298 -0.044242304 -0.035959963
-0.056591913 -0.038185228 -0.031212982
0.14833891 -0.034171183 -0.03383949
0.17729363 -0.034175344 -0.033837765
0.15705144 -0.028747097 -0.039585557
0.16288921 -0.019566517 -0.038229667
-0.16894028 -0.0024988751 -0.035857856
-0.15817192 -0.0052126744 -0.036826868
-0.043821007 -2.1407541e-06 -0.035555914
-0.0082317842 -0.0047128964 -0.038314994
0.045223501 -0.0027359119 -0.037603375
0.074355669 -0.0062668072 -0.039356709
0.083678648 -0.0021702629 -0.037444796
0.091542773 -0.0019473643 -0.037273757
0.12130009 -0.00077528803 -0.036374379
0.13652952 -0.0045821741 -0.038658924
0.15929382 -0.003192401 -0.033196218
0.16793734 -0.0080200937 -0.033685304
0.1735117 -0.0086602578 -0.031413279
-0.098868072 0.0066073933 -0.039010584
-0.050804514 0.0030171222 -0.03520155
-0.027920738 0.0049136644 -0.031817295
0.11852792 0.0028363657 -0.033603027
0.13250142 0.0062713237 -0.030903883
-0.16461538 0.012513708 -0.030427532
-0.14695634 0.012285678 -0.034125645
-0.1155756 0.010867713 -0.035910018
-0.086322874 0.014786515 -0.0307438
-0.12211157 -0.072908297 -0.022280499
-0.11008938 -0.072470881 -0.023319369
-0.15626463 -0.069300905 -0.028474309
0.097151056 -0.061706696 -0.022099914
0.13648246 -0.061010003 -0.02301963
-0.16163707 -0.059762001 -0.026132796
-0.15442422 -0.058044262 -0.028359793
-0.12849839 -0.057320446 -0.029261494
-0.057468738 -0.05829414 -0.021464866
-0.00016046409 -0.055614248 -0.029864253
0.0035802613 -0.057550844 -0.027351504
0.019214351 -0.058978148 -0.025537603
0.047988243 -0.058739658 -0.025933405
0.071968757 -0.055664245 -0.029986305
0.13117799 -0.057220556 -0.027958095
0.15483359 -0.054381076 -0.026725248
0.16353643 -0.052345585 -0.026206005
0.17514117 -0.051374167 -0.023242397
-0.057027616 -0.047458824 -0.02576074
0.14426032 -0.043390337 -0.029440334
0.15094247 -0.045211621 -0.028042806
0.19435251 -0.04195188 -0.022117455
-0.053129695 -0.03920142 -0.024725325
-0.04223974 -0.039550323 -0.025404597
-0.030120792 -0.03882486 -0.023967236
-0.028487023 -0.038379427 -0.023118336
0.19286449 -0.030327339 -0.028466953
0.18799429 -0.029520633 -0.023132056
0.1951261 -0.028271655 -0.027775424
0.20382833 -0.027153328 -0.024220688
-0.10378338 -0.011356207 -0.022800714
-0.056703031 -0.014555484 -0.029684231
0.18497851 -0.012266871 -0.020351963
0.20345986 -0.010768019 -0.020368859
-0.1037772 -0.0091686547 -0.02598488
-0.056695752 -0.0097813234 -0.022445139
0.17025413 -0.0034683705 -0.028036021
0.18825752 -0.0053129466 -0.024265086
0.19797494 -0.0088384682 -0.021804234
-0.14447238 0.0096977092 -0.022711925
-0.11211757 0.0075511504 -0.025443811
-0.10377602 0.0022635912 -0.025529915
-0.055674218 0.0085184649 -0.027651461
-0.022945153 0.0069215307 -0.029828241
-0.0015273765 0.0069394456 -0.029861623
0.013195466 0.0091548413 -0.027013287
0.14127317 0.0053356588 -0.026222397
-0.16847332 0.017643983 -0.02716146
-0.13519759 0.019016273 -0.025070444
-0.11295136 0.017548045 -0.02719887
-0.089429423 0.017125657 -0.027701713
-0.029867437 0.012210737 -0.022917224
0.03229792 0.011996647 -0.02336029
0.05344956 0.012970769 -0.022146681
0.085183218 0.012385754 -0.022935005
0.1271167 0.012907447 -0.02225516
-0.12416164 -0.074277535 -0.018977784
-0.060984135 -0.075877406 -0.015025175
-0.05661872 -0.073295556 -0.019517923
-0.049633369 -0.070392102 -0.010237099
-0.11932043 -0.065207452 -0.017354246
-0.10738489 -0.068074748 -0.010404523
-0.050054986 -0.068145633 -0.017942844
-0.030231558 -0.062404454 -0.01997235
-0.025186183 -0.064629309 -0.014625455
0.0046381867 -0.063481674 -0.017537121
0.03066889 -0.062756144 -0.019411964
0.054953143 -0.063756101 -0.017113095
0.063095115 -0.063249096 -0.018375618
0.074201718 -0.063044116 -0.018870972
0.08251828 -0.063425459 -0.017950386
0.09969458 -0.065363973 -0.013270697
0.13860984 -0.063089028 -0.018762782
0.14324921 -0.06257385 -0.018875213
-0.10380779 -0.055814162 -0.013214856
0.145423 -0.053823747 -0.01882514
-0.10380615 -0.047364008 -0.013335899
-0.056626473 -0.044107668 -0.012716825
0.17893837 -0.044889331 -0.011203079
0.18742144 -0.048940554 -0.019009314
0.19640046 -0.045186531 -0.017680645
-0.056619905 -0.038218938 -0.015766092
0.18607798 -0.038473926 -0.012335042
0.21419562 -0.023081593 -0.019598711
0.21761 -0.014040912 -0.014631538
-0.10378998 -0.0098076584 -0.019040082
-0.056697983 -0.0033820849 -0.018431926
0.19034846 -0.0055433009 -0.01392854
0.14322695 0.0071938448 -0.014377471
0.15819417 0.0061530699 -0.01422637
0.16173345 0.0061530699 -0.014433035
0.17731361 0.008328151 -0.011851339
-0.15846203 0.015453535 -0.010114418
-0.14750409 0.01410951 -0.013606527
-0.050725423 0.014448211 -0.018150879
-0.030431189 0.017021244 -0.012027629
0.0049949717 0.015353212 -0.016208559
0.028210733 0.015216518 -0.016639406
0.10471798 0.016902775 -0.01187955
0.1215838 0.015887823 -0.014775764
0.13421367 0.019586431 -0.012617288
0.14459443 0.01617424 -0.015299547
0.15682237 0.013672033 -0.010303669
-0.16356462 0.02283839 -0.016081972
-0.14149803 0.02232103 -0.01728238
-0.12950882 0.024491692 -0.010311838
-0.096735559 0.022192759 -0.017493449
-0.054734856 0.022333231 -0.01413819
0.14296281 0.021000225 -0.010746461
-0.16901511 -0.076701552 -0.0012005633
-0.14329395 -0.077392608 -0.0085880328
-0.12100814 -0.078154966 -0.0027841991
-0.1175773 -0.077905551 -0.004676546
-0.096086107 -0.077863358 -0.0049847411
-0.085739173 -0.078194052 -0.0024673827
-0.056644432 -0.071831293 -0.0052622729
-0.049572036 -0.071103595 -0.0043224273
-0.16420706 -0.068940081 -0.0038647656
-0.13510647 -0.068540707 -0.0068813581
-0.11073455 -0.068607822 -0.0063573457
-0.048052762 -0.069206379 -0.0075970422
-0.012572337 -0.066410609 -0.0075751669
0.016923079 -0.066508286 -0.0072481106
0.022707211 -0.067189232 -0.0021565985
0.050519854 -0.067441471 -0.00063121418
0.078432895 -0.066541798 -0.007643952
0.10634333 -0.066363037 -0.0090021677
0.141298 -0.069851741 -0.0054515121
0.16261493 -0.061535966 -0.0094314031
-0.10382362 -0.041460309 -0.0031360697
0.18607798 -0.045518734 -0.0073724422
-0.10381015 -0.031991944 -0.0094940662
-0.056646958 -0.036954839 -0.00071984716
-0.039779205 -0.03167285 -0.0099086007
0.186078 -0.033918455 -0.0085565671
0.22634123 -0.035721071 -0.0024576145
-0.10381324 -0.022592384 -0.0070061162
-0.056636021 -0.023592176 -0.0055548567
-0.044442676 -0.028854443 -0.0043488611
0.095036902 -0.027403429 -0.0014139619
0.12270373 -0.025683934 -0.0015854613
0.198713 -0.028541604 -4.7791498e-05
0.20151114 -0.026482411 -0.0016733133
0.1949054 -0.013887588 -0.0054366617
0.20110083 -0.016603686 -0.0091502648
0.22790352 -0.013091812 -0.003399756
0.23331939 -0.01580203 -0.0059251473
0.1798372 -0.0011179592 -0.00036417562
0.19496158 -0.0013532666 -0.0025451717
-0.10380878 0.0059710993 -0.0070354324
-0.056702197 0.005014047 -0.0065570539
0.15743947 0.0077425647 -0.0062716207
0.18108967 0.0083643924 -0.0081134662
-0.1628879 0.015992485 -0.0060330718
-0.15437025 0.015848903 -0.007097546
-0.14822429 0.016371615 -0.0031066772
-0.13824086 0.016267648 -0.0038658236
-0.05538715 0.017681634 -0.0074278694
-0.00043205731 0.017595727 -0.0087834606
0.010876948 0.017622013 -0.0087286234
0.093590543 0.019907329 -0.00093344972
0.11655073 0.017811079 -0.0079619056
0.1645115 0.013564575 -0.00036424992
-0.11140926 0.025204152 -0.0048445323
-0.087084554 0.025029507 -0.0060975486
-0.054460544 0.021094944 -0.0069898437
0.11523744 0.022055127 -0.0056940881
0.12518832 0.023446605 -0.0055908365
0.14410642 0.021167938 -0.0061388914
-0.16901809 -0.075957395 0.00052919914
-0.11655233 -0.078118235 0.0045530805
-0.097160771 -0.077529475 0.0090842042
-0.087038651 -0.078602441 0.00096540351
-0.068833381 -0.078422852 0.0023854021
-0.056656979 -0.073245168 0.0015059749
-0.16563952 -0.06933865 0.0021514504
-0.15243126 -0.068483666 0.0086860228
-0.1096715 -0.068643361 0.0076035527
-0.057199676 -0.065495998 0.0031325032
-0.047515094 -0.066431843 0.0057915491
-0.031248275 -0.066531464 0.0052649896
-0.019193802 -0.066983961 0.0019981887
-0.0048229843 -0.066317417 0.0072648474
0.0065956251 -0.066707812 0.0044607082
0.013074955 -0.066758238 0.0041693561
0.032216057 -0.066153735 0.0090322355
0.076531067 -0.066624738 0.0058925441
0.097222462 -0.067338377 0.00047113473
0.12875703 -0.067354165 0.00035117497
0.141298 -0.061214905 0.0021594279
0.15916735 -0.063297167 0.00079186575
0.15489495 -0.058532149 0.0041198279
0.16847815 -0.058314055 0.0057766088
0.17558289 -0.058520004 0.0020530901
-0.056656707 -0.047444634 0.003677682
-0.048039116 -0.042049624 0.0097156186
0.057184845 -0.042589195 0.009997231
0.18755971 -0.046219151 0.0068710241
0.2066239 -0.046519212 0.0041378974
-0.057115138 -0.032470617 0.0036865063
0.0082174009 -0.039525907 0.0082460046
0.013705716 -0.036238719 0.0063577117
0.046192475 -0.033633485 0.0048546167
0.062124662 -0.030472634 0.0030282082
0.22514947 -0.035361312 0.0038999633
0.23498201 -0.033361614 0.00080631609
-0.028162636 -0.029035404 0.0021929811
-0.016780948 -0.026387069 0.00049311906
0.037042826 -0.028569825 0.001920857
0.09514682 -0.026156966 0.002930748
0.11043757 -0.027267843 0.002737155
0.17815372 -0.028588692 0.0011261556
0.1947308 -0.024105638 0.0012495968
0.20705611 -0.026840294 0.002889374
-0.10384178 -0.015451036 0.0093913022
0.19588268 -0.0016096428 0.0033716767
-0.056677632 0.0092595667 0.0020121331
0.14356355 0.0093674725 0.0077346666
-0.16054481 0.016380027 0.0044133356
-0.1401958 0.015804715 0.0087959021
-0.12829253 0.016150519 0.0061755255
-0.10382476 0.013669683 0.0024979671
0.0129005 0.017638359 0.0061323196
0.059511937 0.017514899 0.0074121738
0.060704768 0.018020989 0.0042332341
0.084560126 0.018596768 0.00087228219
0.10359869 0.018604081 0.0075622723
0.12071803 0.018361345 0.0026607849
0.14508055 0.01714706 0.0081460932
0.15967879 0.013331576 0.008650383
0.16194411 0.015489718 0.0027038096
-0.16900694 0.023168582 0.0033556982
-0.14196755 0.025800347 0.00069867884
-0.13186572 0.025304575 0.005581019
-0.096348085 0.025713373 0.0025086678
-0.083268344 0.025899641 0.00080282363
-0.056644917 0.025083732 0.0038236873
0.11114518 0.022556216 0.00058709941
-0.17465952 0.039487902 0.00071068679
-0.10545121 0.033643052 0.00080603256
-0.093125373 0.035503052 0.00083807611
-0.073290132 0.030080762 0.0008458792
-0.19779085 0.043919958 0.00072009413
-0.15552759 0.055617116 0.00082941598
-0.19940184 0.060402121 0.00078393181
-0.22459516 0.071198955 0.0008257493
-0.16559628 -0.074554585 0.019681513
-0.15211394 -0.076676488 0.014360648
-0.14761746 -0.074905522 0.018873913
-0.13337305 -0.07738509 0.010070712
-0.12420437 -0.076386735 0.015349559
-0.11749005 -0.077071078 0.012503741
-0.073344782 -0.07716316 0.011938625
-0.056685109 -0.071628131 0.017070571
-0.14813386 -0.068175621 0.011038993
-0.043945208 -0.062531292 0.018468425
-0.02649264 -0.062247254 0.019238826
-0.014161877 -0.064821713 0.013083113
0.028606597 -0.063884273 0.015553807
0.031623833 -0.063397162 0.016744398
0.048295159 -0.065324172 0.012173031
0.061888844 -0.064130783 0.015119985
0.073375687 -0.065426283 0.011998814
0.097446509 -0.063980751 0.015488576
0.10581949 -0.065182731 0.012586812
0.11117974 -0.066016123 0.010516172
0.12860067 -0.065917999 0.010811759
-0.057610117 -0.056574896 0.019565796
-0.035217218 -0.053925484 0.016554482
-0.007667752 -0.052258778 0.015586661
0.034558415 -0.058800764 0.019344041
0.040273756 -0.054107487 0.016677421
0.054306433 -0.054532602 0.01687932
0.16720957 -0.055459671 0.0173878
0.18928912 -0.051824357 0.011376614
-0.10386015 -0.043687709 0.016753538
-0.057790928 -0.049756691 0.014678158
-0.030567616 -0.045212597 0.011533223
-0.015810704 -0.043533612 0.010561786
0.024888163 -0.047708273 0.012981666
0.039547872 -0.047201138 0.012717469
0.050827585 -0.047505014 0.012831314
0.19353618 -0.041366991 0.015048945
0.20034681 -0.046830855 0.011244481
0.18672559 -0.037641659 0.016730122
0.20701611 -0.038202308 0.01705794
0.21829313 -0.031607963 0.014907243
-0.056676742 -0.027325029 0.01654459
0.19016029 -0.02540181 0.010926171
0.21014622 -0.02176493 0.010725814
0.18023996 -0.011513708 0.018652521
0.21636738 -0.01797206 0.01630386
0.22607723 -0.016366711 0.010279018
0.1821534 -0.0039787609 0.010513958
0.19749728 -0.0080598462 0.016001951
-0.056707513 0.0055758059 0.013725959
0.141298 0.0054309834 0.017812369
0.15502396 0.0066858786 0.014694724
0.16624141 0.0083988272 0.017505918
0.18179783 0.0064010909 0.011749623
-0.15832512 0.013902487 0.015469897
-0.14626662 0.013147401 0.017309606
-0.11046471 0.013824811 0.015707767
-0.10624841 0.014598759 0.01386244
-0.05336855 0.014815291 0.015226992
-0.046256948 0.015763761 0.015139031
0.037262961 0.016965164 0.010645298
0.065396599 0.014066331 0.018446514
0.088777088 0.015497372 0.014992153
0.095166162 0.015740354 0.014405619
0.11972377 0.015240166 0.015613019
0.14849456 0.014883452 0.012302275
0.16917735 0.010407892 0.011115383
-0.12616125 0.022278478 0.018807871
-0.099232666 0.024324749 0.013042687
-0.088775143 0.023943566 0.014841431
-0.13392007 -0.071581073 0.026731588
-0.11137325 -0.072033666 0.025887102
-0.099569157 -0.071395516 0.027206816
-0.084652193 -0.072119758 0.025738191
-0.073636763 -0.071603641 0.026628163
-0.052923597 -0.070117041 0.020707905
-0.16907036 -0.068561599 0.029859433
-0.14632519 -0.060595207 0.026405836
-0.10387255 -0.062598921 0.021687591
-0.054769095 -0.061494779 0.021180928
-0.026061757 -0.060888205 0.020563606
-0.017799318 -0.061693899 0.020616844
-0.0041329851 -0.061114963 0.021614354
0.086540975 -0.061251182 0.021583918
0.10762413 -0.061705034 0.020982537
0.118804 -0.060219318 0.02292864
-0.10538082 -0.058791243 0.02883992
-0.053567193 -0.056282997 0.026112709
-0.048173912 -0.058257021 0.028285598
-0.026546091 -0.057712473 0.026045466
-0.0091641918 -0.058769263 0.024759907
0.018793337 -0.05995547 0.023135882
0.027589522 -0.059651218 0.023530718
0.097945333 -0.059165254 0.024302304
0.11672389 -0.055044338 0.029672686
0.12731019 -0.058881126 0.024672572
0.15836738 -0.054629873 0.023991579
-0.058164272 -0.049092382 0.029851306
0.17156667 -0.048241716 0.026535822
0.18230647 -0.048515238 0.021985862
-0.056696132 -0.039090108 0.026175413
0.19459556 -0.038283847 0.02366752
-0.056690134 -0.024164293 0.023640921
0.18066274 -0.022956455 0.022509119
0.20266369 -0.024142768 0.02365835
-0.10386693 -0.019795008 0.022707328
-0.056709751 -0.0057125962 0.029040709
0.17730913 -0.0060884254 0.028925043
0.18225971 -0.0092408573 0.028816883
-0.12828319 0.0084280996 0.025782682
-0.10660285 0.0047236755 0.026653167
-0.056709621 0.00089465315 0.023146115
0.054325625 0.0082732793 0.026337555
0.089944586 0.0064032362 0.029610461
0.10549933 0.0095837042 0.025465388
0.11594703 0.0097797485 0.025209885
0.12548086 0.0070475535 0.028770726
0.13654895 0.0085668843 0.026790598
0.14339042 0.0068348069 0.028285347
0.16330025 0.0012649805 0.022747051
0.1777409 0.0030606659 0.020406896
-0.16876137 0.01813408 0.027849985
-0.15272909 0.014527961 0.024708029
-0.12177405 0.01795296 0.028161559
-0.10752852 0.014533927 0.024890941
-0.099382699 0.01804371 0.02807929
-0.08399497 0.019851532 0.024727311
-0.054009646 0.013652359 0.027586827
-0.036576852 0.012616377 0.020230677
-0.015029268 0.011008298 0.02277144
-0.0099966824 0.012418479 0.020789087
0.0024152538 0.010318962 0.023670236
0.071224786 0.011007907 0.023609236
0.15345182 0.010126223 0.020328607
-0.079002544 0.020700613 0.022684582
-0.15379006 -0.06697689 0.032855384
-0.14485726 -0.063341513 0.039152637
-0.11677437 -0.063887462 0.036956545
-0.10245948 -0.065561742 0.035062633
-0.08789172 -0.065893054 0.034401342
-0.045710482 -0.051676761 0.032110989
0.0050588325 -0.052098095 0.03190615
0.10007013 -0.051762938 0.032299086
0.12587737 -0.053745013 0.030778177
-0.15754525 -0.047968458 0.038061615
-0.024416959 -0.04365357 0.037551194
0.00031438842 -0.045095213 0.037003163
0.023426911 -0.047206748 0.035640772
0.054335047 -0.049107037 0.034316298
0.13314313 -0.047556538 0.035526793
0.14211826 -0.042832915 0.037868008
-0.10389514 -0.032804567 0.036925539
-0.041197479 -0.038101599 0.039817527
-0.011520216 -0.039208505 0.039417885
0.141298 -0.023259597 0.03438982
0.17264751 -0.022621291 0.03401605
0.16210143 -0.014113596 0.032550652
-0.16604957 -0.0046298304 0.038736545
-0.10387959 -0.0033663372 0.030997597
-0.055067211 -0.0078023821 0.035478696
-0.04938513 -0.0024175008 0.038660049
-0.028722398 -0.0091621242 0.038879357
0.0048812935 -0.0013730377 0.034912769
0.045870006 -0.0060003167 0.037761874
0.085989885 -0.0024756049 0.036204156
0.094083928 -0.001906022 0.035977721
0.10684235 -0.0089505855 0.039346844
0.11508419 -0.0071309297 0.038593136
0.13639487 -0.0029474886 0.036860324
0.14643088 -0.0073280036 0.037442073
0.16473182 -0.0040760739 0.031231983
-0.13384694 0.00087211886 0.033829771
-0.11498158 0.0057038832 0.033967044
-0.10730195 0.0055079106 0.035474181
-0.088250346 0.008346742 0.03951367
-0.053701989 0.0064652041 0.037957843
-0.025444064 0.0010416653 0.033093646
-0.0029563028 0.0023828477 0.032168072
0.010542734 0.0024855861 0.032122582
0.096807577 0.0056115887 0.030351998
0.10252938 0.001877078 0.033217624
-0.15569308 0.014419007 0.038631823
-0.14645237 0.016435241 0.030099781
-0.12909961 0.012211081 0.035632685
-0.11614162 0.016381493 0.030218555
-0.079549871 0.012259956 0.035648823
-0.15239811 -0.063488424 0.044751521
-0.10749304 -0.063600272 0.048798375
-0.076557666 -0.063445762 0.042812455
-0.064294778 -0.063402817 0.041133095
-0.13525352 -0.051886227 0.04508093
-0.073398151 -0.0519155 0.044373125
-0.066452585 -0.055216465 0.042480528
-0.10584392 -0.046759993 0.047287639
-0.16909699 -0.033884145 0.04746899
-0.14150715 -0.032273341 0.043123543
-0.13232739 -0.030695308 0.043348111
-0.11771465 -0.037045375 0.04253887
-0.045566052 -0.037562702 0.040032089
0.041798737 -0.036748677 0.040542617
0.062912218 -0.036782403 0.040570531
0.10133573 -0.037171923 0.040409822
-0.16876198 -0.022805521 0.043392085
-0.13197716 -0.02818073 0.043679807
-0.12999481 -0.028555583 0.043634091
-0.05411176 -0.022918832 0.041962102
-0.021158351 -0.025644712 0.042243347
-0.0135798 -0.024270654 0.04217751
0.016112391 -0.028759401 0.041901663
0.030240517 -0.024908543 0.04232372
0.045950525 -0.020157741 0.041853607
0.075930767 -0.021465752 0.042189918
0.088831753 -0.026710354 0.042257376
0.11568318 -0.029917721 0.04183517
-0.16052198 -0.012932704 0.041480765
-0.055452388 -0.016886627 0.043472808
-0.027957924 -0.018799134 0.041577194
0.013727989 -0.014907235 0.040993161
0.024049172 -0.013878653 0.040790178
0.042473737 -0.017656282 0.041584827
0.065738872 -0.014630981 0.041290298
0.076293819 -0.015336446 0.041383065
0.081529021 -0.019985344 0.041995093
0.095225908 -0.017501021 0.041667961
0.10030989 -0.018162077 0.041754976
0.11538376 -0.011690402 0.040481694
-0.15476991 -0.0022292275 0.046796728
-0.13853911 -0.0084676743 0.049409159
-0.11217685 -0.0016172834 0.046617873
-0.1000961 -7.8634446e-05 0.045958608
-0.084311724 -0.0015979458 0.046658676
-0.062783107 -0.0048545361 0.049397126
-0.12068875 0.0041187997 0.046178043
-0.1190219 0.0070755505 0.049568847
-0.10378547 0.0054290853 0.045681775
-0.097190343 0.0056725466 0.043489069
-0.15382473 0.013432976 0.041784126
-0.14682196 0.012265733 0.042875718
-0.13411357 -0.063819721 0.057226837
-0.10915248 -0.063799486 0.056353901
-0.094114982 -0.063707247 0.052794941
-0.12659773 -0.041613985 0.050219066
-0.06358394 -0.041318834 0.050509863
-0.1645401 -0.037435066 0.051477529
-0.15351084 -0.034663022 0.051862799
-0.1691003 -0.024175093 0.05011316
-0.134507 -0.026971059 0.052667458
-0.10584002 -0.020683473 0.052301403
-0.074137405 -0.02122722 0.052429877
-0.14491874 -0.010030543 0.050045379
-0.13651501 -0.014230292 0.051396668
-0.11838748 -0.011298755 0.05061705
-0.10639948 -0.017345054 0.051860824
-0.092809051 0.0016723156 0.058040164
-0.082380831 0.0011972386 0.054308645
-0.16519597 -0.063912071 0.060858242
-0.15312715 -0.063996911 0.064021342
-0.13148597 -0.064005546 0.064256623
-0.073827066 -0.063977808 0.062960222
-0.084870674 -0.00065975497 0.063556336
-0.075960688 -0.0024862892 0.066393092
-0.15569767 0.0081123468 0.065381505
-0.10316498 0.0009267148 0.066908851
-0.099404156 0.00046082772 0.066812374
-0.1675625 0.01086954 0.060225956
-0.16593133 -0.064222947 0.072640575
-0.14296848 -0.064403974 0.079402328
-0.10363759 -0.064328991 0.076393604
-0.086937703 -0.0033548928 0.076125696
-0.067992643 -0.0063734041 0.078488007
-0.16991529 0.0071243765 0.077406041
-0.10616934 0.00029146299 0.071258545
-0.14520968 -0.064631112 0.088018231
-0.095779762 -0.064521499 0.08365453
-0.11271001 -0.002372141 0.086159304
-0.091376238 -0.0051499582 0.086184539
-0.16471304 0.0049692243 0.083679594
-0.15823263 0.002807949 0.089274809
-0.13595219 0.00039774671 0.087219313
-0.16745356 -0.064861737 0.096851319
-0.11715829 -0.064853653 0.096331127
-0.079180241 -0.064730965 0.091520891
-0.1492925 -5.5267505e-05 0.096491627
-0.16089797 0.0026604719 0.091368988
-0.11996751 -0.065054543 0.10395496
-0.10955016 -0.065092772 0.10535921
-0.11115219 -0.0062322677 0.10167205
-0.090056777 -0.0085795373 0.10000264
-0.14771312 -0.06540516 0.11735806
-0.10510234 -0.065397471 0.11688557
-0.10021791 -0.01055202 0.11396731
-0.085073858 -0.01230086 0.11303934
-0.1300512 -0.0059903287 0.11106008
-0.10820235 -0.0097615104 0.11501442
-0.16193229 -0.06557437 0.12383009
-0.14785308 -0.06571123 0.12895581
-0.12746471 -0.065599725 0.12464428
-0.12330092 -0.010362903 0.12588491
-0.15488189 -0.0068742558 0.12849158
-0.14870957 -0.065800354 0.13233659
-0.10106549 -0.065818988 0.13283993
-0.11238845 -0.013074351 0.13137121
-0.14476712 -0.066043481 0.14153227
-0.12730148 -0.066202238 0.14747359
-0.093847901 -0.066110559 0.14385708
-0.13468286 -0.013693247 0.14628112
-0.16304234 -0.066416509 0.15574436
-0.14149159 -0.066308096 0.15154497
-0.106232 -0.066351071 0.15302327
-0.16269723 -0.011978259 0.15444469
-0.14429671 -0.014666788 0.1557076
-0.12356286 -0.017386187 0.15581568
-0.10696165 -0.018307544 0.15057531
-0.14427783 -0.066550523 0.16074224
-0.10677807 -0.022181114 0.16690232
-0.14876203 -0.016721673 0.16688314
-0.1340979 -0.018633496 0.16691084
-0.15476245 -0.066945955 0.17577006
-0.14578712 -0.067039877 0.17929095
-0.14598772 -0.067126356 0.18256855
-0.1391739 -0.0671582 0.18374605
-0.12048176 -0.067179911 0.1844891
-0.11281692 -0.067282267 0.18833488
-0.13319157 -0.022830106 0.18420964
-0.15653822 -0.067354009 0.19123928
-0.1365298 -0.067392744 0.19262201
-0.16195714 -0.022346536 0.19800976
-0.12985376 -0.026193252 0.1966338
-0.1689533 -0.067598611 0.20056033
-0.11481174 -0.067696668 0.20404533
-0.10901068 -0.031557072 0.2078969
-0.13920894 -0.02771569 0.20824568
-0.12305804 -0.029938702 0.2087739
-0.16134976 -0.068042725 0.21735598
-0.16021527 -0.02619357 0.21336555
-0.16167876 -0.068116143 0.22013919
-0.14365385 -0.068621203 0.23919943
-0.12943223 -0.068614505 0.23888509
-0.1641289 -0.068764456 0.2447143
-0.14585352 -0.036233015 0.2480299
-0.13283771 -0.037674848 0.24697262
-0.1423921 -0.068965346 0.25223398
-0.12587538 -0.039732736 0.25186381
-0.16088527 -0.069220953 0.26199785
-0.13422187 -0.069299206 0.26484957
-0.13481949 -0.040786639 0.26126206
-0.12977053 -0.04213405 0.2641944
-0.16932967 -0.038226038 0.26941881
-0.17222548 -0.06951385 0.27314419
-0.15708292 -0.069502622 0.27265447
-0.14778814 -0.069567829 0.27508572
-0.13104337 -0.06955149 0.2743952
-0.15028673 -0.040889908 0.27022308
-0.17327124 -0.069753498 0.28222907
-0.14628324 -0.045434128 0.2872895
-0.16504209 -0.07003554 0.29288086
-0.15600874 -0.070089504 0.29488724
-0.13910036 -0.070148095 0.29703519
-0.15749668 -0.045242064 0.29265395
-0.14337902 -0.048216805 0.29749075
-0.16263932 -0.047648557 0.30569392
-0.14675234 -0.070671499 0.31689993
-0.15839095 -0.051389012 0.31921655
-0.17231262 -0.048795257 0.3158876
-0.17042758 -0.071215883 0.33762798
-0.16389509 -0.071261354 0.33932316
-0.1641264 -0.05376688 0.3324618
-0.17073663 -0.057793725 0.35318249
-0.17630768 -0.071948968 0.36543024
-0.16441935 -0.071971148 0.36622003
-0.16288121 -0.063372023 0.37251195
-0.17216043 -0.072373316 0.38149151
