# .PCD v0.7 - Point Cloud Data file format
VERSION 0.7
FIELDS x y z
SIZE 4 4 4
TYPE F F F
COUNT 1 1 1
WIDTH 903
HEIGHT 1
VIEWPOINT 0 0 0 1 0 0 0
POINTS 903
DATA ascii
-0.17437829 -0.055070706 -0.2187473
-0.16243114 -0.054717511 -0.21779522
-0.13728604 -0.053408425 -0.21960318
-0.048207663 -0.053001482 -0.21964166
-0.20081927 -0.049829204 -0.21935728
-0.18539456 -0.041347597 -0.21712251
-0.10127058 -0.04636389 -0.21422002
-0.096771844 -0.043652855 -0.21422
-0.081786305 -0.049465142 -0.21530475
-0.077966109 -0.047993973 -0.21582538
-0.20045464 -0.030204587 -0.21824925
-0.19560969 -0.033943214 -0.21749584
-0.18279852 -0.032765809 -0.21840602
-0.15580039 -0.033887081 -0.21422
-0.1443629 -0.035006806 -0.21421999
-0.12758957 -0.035089366 -0.21630156
-0.084377721 -0.03687584 -0.21601211
-0.064046659 -0.036473483 -0.21869743
-0.17474163 -0.029412974 -0.2151821
-0.15876245 -0.026122626 -0.21804787
-0.16178904 -0.013585422 -0.2173375
-0.096807666 -0.016509902 -0.21754752
-0.1752786 -0.0028077746 -0.21422002
-0.14494416 -0.0048015178 -0.21685344
-0.13901959 -0.0067979209 -0.21697021
-0.18474689 0.0030335824 -0.21638286
-0.19231661 0.015182571 -0.21569157
-0.13120943 0.013057217 -0.2152822
-0.20749341 0.029705433 -0.21422
-0.18906012 0.025807302 -0.21469517
-0.17165026 0.035896577 -0.21422002
-0.17133546 0.040651053 -0.21422
-0.13773657 -0.053207766 -0.20088859
-0.12885983 -0.053121526 -0.20339337
-0.11392467 -0.058937252 -0.20259884
-0.10798204 -0.058864664 -0.20165494
-0.12590443 -0.052651003 -0.19184034
-0.098774411 -0.058752168 -0.19627298
-0.035214689 -0.057975899 -0.19647416
-0.14878799 -0.097734451 -0.18413235
-0.056134611 -0.094090849 -0.18529101
-0.13013175 -0.084124252 -0.18359193
-0.11236939 -0.084516428 -0.18365425
-0.10049935 -0.086766936 -0.18529099
-0.093557425 -0.087014735 -0.18529101
-0.064244427 -0.082796901 -0.18321332
-0.0021864097 -0.082010686 -0.18319297
0.034820028 -0.085591719 -0.18221769
-0.1775163 -0.058836386 -0.18448573
-0.1087449 -0.058873855 -0.18146592
-0.071460806 -0.051807038 -0.1870838
-0.063503452 -0.058321342 -0.18821537
-0.029431507 -0.057246834 -0.1885633
-0.16956332 -0.10471926 -0.17239869
-0.11697575 -0.10764544 -0.17280681
-0.071751192 -0.10511267 -0.17748202
-0.03886342 -0.10741609 -0.17055331
-0.019140406 -0.10629661 -0.17328365
0.057847451 -0.097891696 -0.17120443
0.055749908 -0.081085727 -0.17258571
-0.1528281 -0.077624828 -0.17372558
-0.10764666 -0.074213766 -0.17215118
-0.096899249 -0.074756742 -0.1708799
-0.062524438 -0.073662691 -0.17124516
-0.044856623 -0.072150126 -0.17089196
-0.034610055 -0.072750881 -0.17002273
0.028351763 -0.07822457 -0.17784072
-0.055962883 -0.068876341 -0.17171988
-0.048802216 -0.063126341 -0.17121753
-0.18421069 -0.059056003 -0.17166954
-0.15763974 -0.055887744 -0.17778081
-0.11485285 -0.058948576 -0.17697844
-0.099282384 -0.058758557 -0.17235592
-0.072588444 -0.051428623 -0.17665365
-0.066036053 -0.051324684 -0.17601787
-0.041078027 -0.058047473 -0.17601995
-0.18517706 -0.1016414 -0.16306262
-0.16327128 -0.10665718 -0.16857624
-0.15319569 -0.10670441 -0.16472271
-0.14780995 -0.10732223 -0.16450767
-0.024681142 -0.10762471 -0.16936634
-0.19623457 -0.095003828 -0.16141817
-0.20550138 -0.087811008 -0.168905
-0.13902354 -0.075965643 -0.1645326
-0.12950173 -0.074480779 -0.1674034
-0.10430297 -0.074430734 -0.16435838
-0.08552444 -0.073705554 -0.16516577
-0.070923984 -0.076542556 -0.16015407
-0.052849814 -0.073544569 -0.16625765
-0.023990907 -0.073299177 -0.16911831
-0.018712517 -0.073265575 -0.16835572
-0.0082674269 -0.073860444 -0.16611044
0.025864605 -0.075508751 -0.16655894
-0.13036519 -0.065674841 -0.16722146
-0.12847146 -0.069212362 -0.16688019
-0.11185552 -0.067842647 -0.16561599
-0.052291498 -0.066498674 -0.16615346
-0.15386856 -0.059425279 -0.16214658
-0.14712708 -0.059342917 -0.16111404
-0.07292226 -0.053531963 -0.1669112
-0.030058123 -0.057912838 -0.16812579
-0.0084303059 -0.057648629 -0.16835867
0.0050058663 -0.056890793 -0.16014874
-0.14540407 -0.10146642 -0.15561624
-0.015304299 -0.096467979 -0.15282343
-0.15683137 -0.05627849 -0.15244424
-0.1291822 -0.059123728 -0.15336272
-0.066470377 -0.05043463 -0.15220638
-0.014665348 -0.054153655 -0.15555303
-0.0018319078 -0.053937238 -0.1505574
0.0078708977 -0.057449464 -0.15447304
-0.065306291 -0.10917166 -0.14124601
-0.058979932 -0.10862403 -0.147136
-0.061024766 -0.085242689 -0.14263165
-0.057200179 -0.072754718 -0.147136
-0.16218942 -0.057106741 -0.14175186
-0.15205869 -0.059403211 -0.14100498
-0.12917912 -0.05912371 -0.1476616
-0.082257517 -0.050374284 -0.14547327
-0.068898089 -0.050061002 -0.14148143
0.025050906 -0.057239566 -0.14403331
-0.031051423 -0.049777098 -0.14622426
-0.064394742 -0.10534423 -0.13317899
-0.049562532 -0.1094301 -0.13757318
-0.066565618 -0.067081228 -0.13617817
-0.14675373 -0.055407494 -0.13911307
-0.1311284 -0.053699117 -0.13129735
-0.080556691 -0.058529753 -0.13940473
0.026069002 -0.057227109 -0.13509363
-0.42740905 -0.043905854 -0.13195872
-0.061229218 -0.049883563 -0.13925356
0.055797528 -0.073167481 -0.12284543
0.074591063 -0.072325081 -0.12005331
0.08847934 -0.073813915 -0.12026075
-0.012770181 -0.069993354 -0.12605692
-0.11978376 -0.059008967 -0.12421519
-0.10588029 -0.05883912 -0.1222005
0.0066271303 -0.051116448 -0.12980992
0.026103051 -0.05370231 -0.12777942
0.031650163 -0.05715891 -0.12668481
-0.096681818 -0.049850535 -0.12613198
-0.064205006 -0.049242228 -0.12123107
0.016112456 -0.07800898 -0.11452429
0.052668583 -0.070072688 -0.11292526
0.074674338 -0.075594425 -0.11395328
0.036377724 -0.064224556 -0.11184441
-0.17436154 -0.059675604 -0.11591227
-0.15914817 -0.059489705 -0.11028697
-0.03975036 -0.058031097 -0.11058
0.028723041 -0.057194628 -0.11075322
0.047281191 -0.056967929 -0.11312269
-0.42146683 -0.035920776 -0.11601686
-0.39917213 -0.033371422 -0.11282146
0.020426018 -0.072916128 -0.10178383
0.046941087 -0.070694298 -0.10860013
0.073918596 -0.073988914 -0.10606641
0.093492031 -0.071958169 -0.10113217
-0.16523701 -0.059564102 -0.10647675
-0.15436827 -0.059431292 -0.10656444
-0.13986579 -0.059254121 -0.10610778
-0.12574622 -0.053708002 -0.10223903
-0.10864771 -0.051638924 -0.10072282
-0.095411643 -0.058711261 -0.10383134
-0.0705707 -0.048746422 -0.10597782
-0.0412504 -0.048301723 -0.10367495
-0.029436123 -0.048245832 -0.10602613
0.013525814 -0.047737043 -0.10644975
0.0014634291 -0.074852303 -0.098116949
0.032335225 -0.075353861 -0.098053999
-0.17248607 -0.059652682 -0.099502325
-0.11851328 -0.052965246 -0.09586136
-0.07545045 -0.048213892 -0.090229869
-0.038534857 -0.047820352 -0.091755286
-0.011831295 -0.047791436 -0.099660054
-0.42548811 -0.025598679 -0.091627799
-0.39584786 -0.025504034 -0.092222244
-0.17071548 -0.059631042 -0.084283151
-0.16287534 -0.058718044 -0.081863597
-0.14711629 -0.056607746 -0.088519044
-0.12315357 -0.053720787 -0.087872729
-0.027682513 -0.057883669 -0.085053809
-0.019259445 -0.057780765 -0.087303549
0.062908635 -0.050162613 -0.081498027
-0.066374689 -0.04794303 -0.085975178
-0.40474218 -0.022527587 -0.085246615
-0.38553113 -0.020731442 -0.08401908
-0.36996105 -0.020353436 -0.08670719
0.0053400658 -0.057480242 -0.076773606
0.1079132 -0.056227155 -0.074323773
-0.070480868 -0.047627129 -0.076239988
-0.057531435 -0.047274604 -0.071071118
-0.035708696 -0.047065388 -0.072595574
-0.026676772 -0.047030903 -0.07461226
-0.0040774271 -0.046636783 -0.071471319
0.026440049 -0.046315178 -0.072831094
-0.40753528 -0.016027177 -0.073234186
-0.074217208 -0.076784506 -0.064283475
-0.1600738 -0.055974197 -0.067886598
-0.11503274 -0.058951259 -0.067084238
-0.069153845 -0.051407106 -0.067886606
-0.052664332 -0.058188729 -0.068540066
0.035054184 -0.056020051 -0.067886591
0.04495259 -0.056996815 -0.067602701
0.08576043 -0.051386692 -0.068928175
0.0938273 -0.053373229 -0.066351257
0.13285032 -0.055922851 -0.065947816
0.1564714 -0.055634178 -0.065578908
-0.060818829 -0.04801055 -0.067886598
-0.047770899 -0.04895601 -0.067886606
-0.015441535 -0.044867881 -0.068685994
0.069295354 -0.047914073 -0.067886598
0.084696919 -0.040558532 -0.06795314
0.15500484 -0.049737111 -0.067070581
0.19898078 -0.046661373 -0.0609622
-0.18287262 -0.039873105 -0.065879859
-0.15301055 -0.031268686 -0.067886598
-0.091895387 -0.030228091 -0.067886598
-0.064732723 -0.037360273 -0.067886598
-0.030578526 -0.030268241 -0.067886598
-0.0056655048 -0.034442551 -0.067886598
0.0044640293 -0.039138578 -0.067886598
0.088685609 -0.038360782 -0.068060488
0.15728913 -0.034965593 -0.066788152
0.1780186 -0.036334947 -0.064416021
-0.166953 -0.025260329 -0.067886598
-0.1356139 -0.026980579 -0.067886598
-0.064991735 -0.026942967 -0.067886598
0.039234422 -0.027190959 -0.067886598
0.069398575 -0.027822033 -0.067886598
0.085836202 -0.026306279 -0.067988254
0.11815259 -0.024906877 -0.068852015
0.15904494 -0.020598657 -0.066567026
0.18610089 -0.027669245 -0.063478366
-0.36192757 -0.01030804 -0.065084912
-0.35077557 -0.013244131 -0.06654878
-0.19073327 -0.015815698 -0.064584285
-0.14124471 -0.014411923 -0.067886598
-0.0029697109 -0.013614386 -0.067886598
0.040375985 -0.010105476 -0.067886598
0.18778677 -0.0129187 -0.063264616
-0.17457309 -0.0063722534 -0.064451352
-0.14200513 -0.0027908792 -0.064386308
-0.11935619 -0.0021233684 -0.064055003
-0.080845989 -0.0023673747 -0.064660802
0.15576112 -0.00086063065 -0.065731436
-0.085667364 0.00067288126 -0.062033437
0.16990122 0.00071541045 -0.063423447
-0.076713122 -0.058483135 -0.058347628
-0.020920353 -0.057801548 -0.05833884
0.059516579 -0.056818895 -0.050219078
0.15017068 -0.055711176 -0.051613629
0.18120886 -0.05533186 -0.057155058
0.19905733 -0.052936547 -0.053552315
-0.26073259 -0.045293707 -0.052487336
-0.24644545 -0.045176424 -0.054671597
0.18066877 -0.047217596 -0.057187941
0.18932402 -0.039990991 -0.059825897
-0.41304451 -0.0074257171 -0.053412147
-0.38789824 -0.0051220325 -0.050868288
-0.36745566 -0.0044366419 -0.05141034
-0.35371339 -0.0075641419 -0.059789207
-0.18606034 -0.0001429359 -0.054455072
0.18882605 -0.0058353217 -0.059825897
0.19753087 -0.00017981394 -0.058308944
-0.17392147 0.0078653861 -0.050662454
-0.095577076 0.0072365324 -0.056366526
0.056309022 0.0050575254 -0.059786916
0.064420521 0.0070671076 -0.058167275
0.11268131 0.006187947 -0.059963271
0.13920847 0.008882165 -0.057747822
0.18767613 0.0080902353 -0.057876639
0.015253539 0.011995789 -0.051692903
-0.25998679 -0.05531691 -0.046033654
-0.14004558 -0.059256829 -0.041483976
-0.021701906 -0.057811096 -0.043655995
0.0087221954 -0.05743942 -0.043441776
0.065656319 -0.05674389 -0.048692502
0.14062925 -0.055827767 -0.046253309
-0.24215086 -0.018881081 -0.047508664
-0.40399802 -0.0032075855 -0.044959631
-0.39109099 -0.0004410441 -0.040089276
-0.37011135 -0.0045603523 -0.046562977
-0.33678603 -0.0011862136 -0.047260348
-0.33257803 0.0011085265 -0.042561688
-0.16099033 0.012665469 -0.041711353
-0.14615822 0.0127302 -0.042123184
-0.04184781 0.013297374 -0.044623729
0.014572569 0.014461918 -0.04294318
0.10113347 0.016430674 -0.040049378
0.15960075 0.015589168 -0.04601812
0.18128099 0.013847558 -0.045047469
-0.18479837 -0.059992939 -0.034196064
-0.10599639 -0.058840867 -0.035815839
-0.077522069 -0.058493011 -0.036537427
-0.054833934 -0.058215849 -0.036355406
-0.039447673 -0.058027886 -0.033338219
0.052384898 -0.056906018 -0.030328291
0.19647129 -0.05172459 -0.034599476
0.21560879 -0.050702158 -0.03542424
0.2004047 -0.047169939 -0.033790782
0.22353896 -0.044880867 -0.033751357
0.19698974 -0.033533778 -0.03426747
0.20307061 -0.03971668 -0.033940963
0.22300008 -0.038409609 -0.033772238
0.23229778 -0.035548411 -0.034003165
-0.2413393 -0.02093289 -0.032338023
0.21604821 -0.025994975 -0.034081057
0.22871591 -0.02470102 -0.033504914
0.23552819 -0.027613394 -0.03162628
0.19756609 -0.017355926 -0.034963548
0.22922102 -0.012681784 -0.032245472
-0.22978842 -0.0088579319 -0.034135044
0.18457425 -0.0032777032 -0.036666304
0.19610174 -0.006121147 -0.033583812
0.20054126 -0.0085044187 -0.035130501
0.21102434 -0.0079358723 -0.033507265
0.24338683 -0.0081780674 -0.030973533
-0.41558748 0.00043276791 -0.033675551
-0.38534853 0.0015751508 -0.034325421
0.21477194 0.0011519066 -0.033157293
0.22080109 0.0016086726 -0.033849817
-0.15128899 0.015785055 -0.032067515
0.041542288 0.017447127 -0.033552408
0.077050589 0.016989736 -0.036703646
0.17989118 0.016453199 -0.036595866
0.20544876 0.014857966 -0.035411704
0.10697873 0.021651175 -0.030096965
-0.045794275 -0.087409221 -0.02140069
-0.23122495 -0.061065026 -0.023047822
-0.2054043 -0.060468774 -0.021655219
-0.24093416 -0.054112557 -0.027624883
-0.025501819 -0.057857513 -0.027309885
0.029256754 -0.057188559 -0.028745513
0.11521046 -0.056138378 -0.023213567
0.13982886 -0.055837531 -0.025688216
0.26056153 -0.028962487 -0.029982874
0.34952962 -0.025954694 -0.028039562
0.36285087 -0.02795163 -0.026777634
0.27367923 -0.012226736 -0.029342022
0.28070033 -0.016140329 -0.029856045
0.38011211 -0.016341791 -0.020653242
-0.29604489 -0.0062737437 -0.022307647
0.29826644 -0.0083473604 -0.026851315
0.32881552 -0.0062245317 -0.021437185
-0.31450486 0.00776537 -0.025362555
-0.2794596 0.0076369392 -0.022130217
-0.22759563 0.0095147174 -0.027897019
0.24880421 0.0063053211 -0.026590489
-0.3204776 0.010820434 -0.022096898
-0.227174 0.013439688 -0.026739623
-0.21852778 0.017717505 -0.025798848
0.20718321 0.017584372 -0.029607508
-0.1626289 0.022978984 -0.02558152
-0.11717281 0.027765885 -0.021838564
-0.033776198 0.021474877 -0.028304212
-0.021319665 0.021637034 -0.028295685
0.13120802 0.026281334 -0.026669569
-0.031029295 -0.10404075 -0.015497366
-0.0045705661 -0.10356775 -0.013782304
0.038780522 -0.10230261 -0.010370042
0.046316221 -0.10110617 -0.011260607
-0.10378018 -0.090398267 -0.017822716
-0.01778269 -0.097924106 -0.018965742
0.015306317 -0.096702248 -0.017049436
0.040417518 -0.090897046 -0.018010827
-0.077508047 -0.082058102 -0.019449078
-0.13112384 -0.078033343 -0.013484602
-0.029862687 -0.076415211 -0.019648746
0.041767113 -0.071808301 -0.011489575
0.077679276 -0.077100009 -0.010635264
-0.01062104 -0.068803512 -0.011937413
0.0088262651 -0.069448844 -0.010797661
-0.24096188 -0.051849872 -0.014023507
-0.1616829 -0.059521154 -0.015282173
-0.078569293 -0.058505807 -0.017681852
-0.066918276 -0.058363479 -0.018509079
0.025603704 -0.057233192 -0.01069328
0.08736223 -0.056478702 -0.014381562
0.32061219 -0.050468992 -0.017512526
-0.24250706 -0.04679127 -0.012218863
0.35135445 -0.049762554 -0.018193211
0.39153528 -0.043294508 -0.016264826
-0.25018218 -0.037942998 -0.011790723
-0.24658686 -0.034164768 -0.011702213
-0.28489658 -0.01118583 -0.013067528
-0.24612275 -0.016797299 -0.019266285
0.39115226 -0.012644397 -0.012034724
-0.32978058 -0.0017680014 -0.017366888
-0.29993045 -0.0082387812 -0.012094785
0.16597636 -0.0069936365 -0.016526455
0.17704396 -0.0068584071 -0.016541833
0.22067675 -0.0047600139 -0.017799083
0.34804088 -0.0060470076 -0.018852871
0.22724202 0.0032188548 -0.017726991
-0.41235268 0.010237698 -0.014055419
-0.35153145 0.014022388 -0.011556992
-0.31621006 0.013745475 -0.015930051
0.13006739 0.01277505 -0.011374904
0.17268102 0.014127498 -0.017552558
0.24316017 0.017870877 -0.017602984
0.2053113 0.02996926 -0.016245162
-0.057632171 0.036489286 -0.012525708
0.11744501 0.033143669 -0.013384897
0.15207098 0.049062632 -0.011724945
0.16391796 0.068910748 -0.013380691
0.24895316 0.076531857 -0.012430269
0.27569047 -0.11328972 -0.0045739198
-0.12927428 -0.10006002 -0.0055074305
-0.04466727 -0.10907412 -0.0021758042
0.062430464 -0.1017338 -0.0064796587
0.070078462 -0.10214889 -0.00058968656
-0.13260794 -0.097982429 -0.0091365604
-0.28919026 -0.080209695 -0.0013081499
-0.15903229 -0.085495546 -0.0099546202
0.26261455 -0.085118681 -0.0022406112
-0.29940635 -0.079973094 -0.00032808757
-0.13452038 -0.071583509 -0.0055729658
0.091744408 -0.076959349 -0.0073571242
0.2563144 -0.076696232 -0.00075682066
0.28929406 -0.075740285 -0.00017389261
-0.21467319 -0.060682811 -0.0055217501
-0.20777963 -0.060523622 -0.0095510054
-0.18517409 -0.060001612 -0.0093674408
-0.070500501 -0.069172814 -0.0032664938
-0.00087960949 -0.066762008 -0.0041279709
0.012074174 -0.067006491 -0.0027545013
0.045744877 -0.068047203 -0.00039913791
-0.12052439 -0.059018347 -0.0025285822
-0.023438612 -0.05783245 -0.0026337896
0.081809461 -0.056546554 -0.0019844386
0.14575192 -0.055765145 -0.0075399894
0.15253803 -0.055682216 -0.0049751159
0.20627038 -0.053811457 -0.0071506673
0.21841578 -0.053517524 -0.0095741637
0.40074885 -0.047480941 -0.0048700562
-0.24112591 -0.038386717 -0.0068665971
0.42443985 -0.032581203 -0.0053549209
-0.30699894 -0.015189486 -0.0049313735
0.22978488 -0.012938745 -0.0043592653
-0.33521008 -0.0066887182 -0.002820567
-0.32624876 -0.0045536575 -0.0082766376
0.15931933 -0.0070747379 -0.0028015696
0.19504309 -0.0066385316 -0.0064445511
0.22685619 -0.0062498348 -0.0010027041
0.25139034 -0.0059498106 -0.0028623571
0.37937045 -0.0043877256 -0.0021812674
-0.38253346 0.0046788407 -0.0053075827
-0.3774074 0.0075740982 -0.0090436619
0.12246512 0.0035705036 -0.0085274745
0.30536669 0.0069915857 -0.008436257
0.31311187 0.0047505684 -0.0075857099
0.34705096 0.00096876675 -0.0075365142
-0.40915641 0.014549573 -0.0044226842
0.12199865 0.015421273 -0.0084198182
-0.34310031 0.028434087 -0.0061806515
-0.3203916 0.033975996 -0.006289213
-0.28635263 0.034201108 -0.0075172824
-0.22393751 0.038015503 -0.0039390256
-0.19492474 0.036948521 -0.0073694666
-0.08353699 0.038946643 -0.0058317287
0.030302633 0.039999343 -0.006647449
0.1165197 0.034709532 -0.009889246
0.22228006 0.03244916 -0.0024172722
-0.41500503 0.048709765 -0.0005360439
-0.40866768 0.042669542 -0.00068675622
-0.39305344 0.048777875 -0.0010854327
-0.35034758 0.040429931 -0.0049082725
-0.32202995 0.040518779 -0.0058009923
0.13790648 0.047328964 -0.004126037
-0.40130278 0.057805337 -0.00086486648
-0.34197915 0.057931855 -0.004561
-0.25130582 0.050683163 -0.0019834707
-0.34826303 0.06451872 -0.0040287087
-0.31460792 0.062701434 -0.0036042158
-0.42351675 0.073349372 -0.00033583143
-0.31495568 0.077964649 -0.0023202454
0.24024385 0.077172689 -0.0069053182
-0.34200341 0.080217108 -0.0029763828
-0.32942343 0.094473809 -0.0015197759
-0.32984221 0.10188489 -0.0009068388
-0.41018707 0.11289077 -0.001067786
-0.088422447 -0.10455395 0.0052760784
-0.045312028 -0.1076242 0.0064968667
0.27986553 -0.10645296 0.0044740802
-0.16308703 -0.090996563 0.0046712793
0.10319216 -0.093740538 0.0048974208
-0.31910622 -0.089935482 0.0009284952
-0.02494451 -0.070107527 0.0032195963
0.047828875 -0.070490494 0.0076603619
0.25161031 -0.074186176 0.0015071237
-0.084314764 -0.063515455 0.0023954059
-0.011465671 -0.066620789 0.0026918668
-0.0074507361 -0.064767547 0.0015434296
0.0027225707 -0.065751985 0.00037036851
0.028172206 -0.067179479 0.00059521029
0.048997685 -0.068465747 0.0011408491
-0.143425 -0.059298109 0.0011997793
-0.071151681 -0.058415197 0.0057083429
0.044109602 -0.057007115 0.00868861
0.16426644 -0.055538893 0.0047080694
0.39277905 -0.048929699 0.0099836104
0.40050694 -0.047179542 0.0064377869
0.41860271 -0.029269118 0.0090881279
0.17552769 -0.012155235 0.0025718443
0.39545476 -0.012973588 0.0098007973
0.21900609 -0.0027672132 0.0051227822
0.25255662 -0.0059358003 0.0090416139
-0.39327428 0.0063797198 0.0061395122
-0.38824365 0.0080260364 0.0072873165
-0.35890979 0.001011316 0.0073516211
0.1498621 0.0053533129 0.0084584095
0.2187909 0.001155694 0.0042112581
0.3263756 0.0034261569 0.0064529441
-0.37065822 0.027727839 0.0028995192
-0.35127473 0.027682284 0.0053812657
0.10314257 0.028660994 0.00088206009
0.12365457 0.028294077 0.0090474598
0.29249665 0.022654921 0.0025054032
-0.42113841 0.034109849 0.00038745478
-0.39598247 0.033630051 0.00098884688
-0.34425262 0.030131517 0.0055817296
-0.27464235 0.036623798 0.0027436721
-0.26531214 0.038555127 0.0034922061
-0.14312783 0.037409492 0.007783914
-0.12625425 0.037694219 0.0075942557
-0.11055762 0.039214388 0.0043886211
0.0040965481 0.039236963 0.0077148401
0.10958 0.036472693 0.0077994419
0.21981524 0.032896113 0.0062421914
-0.41277733 0.044248637 0.00058871461
-0.3754181 0.041401308 0.0027738712
-0.34857228 0.042865567 0.004885911
-0.33925331 0.044776618 0.0052057463
-0.27861384 0.040690191 0.0038900715
0.12396677 0.043714862 0.0039638206
-0.3533895 0.059781056 0.0040011578
-0.33265322 0.056072209 0.0047239419
-0.30109656 0.052462734 0.0038637673
0.15024757 0.05487486 0.0089273024
-0.38055676 0.062836573 0.0028851847
-0.37018079 0.060063802 0.0037273502
-0.30126375 0.069413677 0.0024197332
-0.24780062 0.063241802 0.00061427837
0.15043594 0.063568152 0.0010293922
-0.40184543 0.07594166 0.0010269177
-0.35396951 0.078147799 0.0032122503
-0.31447235 0.078379191 0.002228691
-0.3434411 0.089061499 0.0023231574
-0.4222154 0.10835159 0.00048233871
0.010407527 -0.092238523 0.019862462
0.031176249 -0.09132307 0.018581076
0.047626395 -0.096113548 0.014723809
0.28138709 -0.098145142 0.010771724
-0.074313082 -0.088737406 0.019641113
-0.12057289 -0.073513523 0.011741031
-0.095365003 -0.076324984 0.01538495
-0.086335346 -0.075988121 0.015727365
-0.015900427 -0.072095834 0.015551433
-0.00050919881 -0.077377565 0.018340386
-0.2226387 -0.060866751 0.015307094
-0.026042916 -0.057864126 0.018585561
0.20773429 -0.057644799 0.018446965
0.22029053 -0.052666456 0.014030541
0.32443854 -0.050199762 0.017850103
0.35192379 -0.050490402 0.017481163
0.36942846 -0.053727403 0.011498557
0.37983915 -0.051358435 0.013700516
-0.26159087 -0.041901596 0.015078035
0.40165833 -0.026649609 0.017550297
-0.28672606 -0.011735194 0.011957854
0.40617263 -0.019804686 0.011847532
-0.33132389 -0.0020001847 0.01462702
0.15265128 -0.0063206502 0.0137954
0.22495301 -0.0096618505 0.0137954
0.27851629 -0.0056186947 0.01115521
0.36866692 -0.005008678 0.013125594
0.13866222 0.0053701433 0.014633827
0.15207446 0.0083136652 0.013721284
0.2222161 0.0091020549 0.017761175
0.23773512 0.0085612992 0.017786006
0.28813925 0.0046217116 0.017008783
-0.37608618 0.011927182 0.013985645
-0.32249287 0.011158154 0.015516931
0.17023568 0.01958202 0.018173043
0.22464144 0.015392876 0.017968517
0.15272044 0.025551338 0.011678546
0.22117458 0.023342527 0.014087952
-0.26386246 0.030530367 0.014631679
-0.070541851 0.030678611 0.019765951
0.014542385 0.036580145 0.014434519
0.11922142 0.03401427 0.010724218
0.23180324 0.046966266 0.015051476
0.17884722 0.087446399 0.014478799
0.25377265 0.083400123 0.011170089
-0.055818994 -0.092471108 0.020778729
0.0011856854 -0.090100966 0.020429514
-0.067503713 -0.087768734 0.020061737
-0.036644705 -0.086811014 0.021965364
-0.017485168 -0.086209513 0.021577917
0.20435056 -0.070314176 0.020434413
0.24727604 -0.074042141 0.020041492
-0.18632585 -0.06002821 0.027276378
-0.10919327 -0.058879923 0.02987225
-0.007183664 -0.057633735 0.025437342
0.2043245 -0.045300707 0.029225923
0.23959281 -0.041459121 0.029214617
0.27055556 -0.048146535 0.022080366
0.29955503 -0.040409911 0.026564021
0.34345007 -0.045432754 0.022276195
0.35085729 -0.045040887 0.02262722
0.27905044 -0.033418193 0.028622601
0.28463948 -0.037702091 0.027771905
0.34857988 -0.032622561 0.027254518
-0.25441951 -0.01295132 0.025081066
0.29629618 -0.015498754 0.028720126
-0.27030569 -0.0046350593 0.027061783
0.26643622 -0.0099001778 0.029229186
-0.40386915 0.0069647413 0.022252124
-0.31635457 0.0085753445 0.027455412
-0.29252404 0.0073192669 0.020546667
-0.28750733 0.0015650338 0.022952247
-0.24179867 0.0081644198 0.026813883
-0.23916455 0.0079049738 0.027172863
-0.2775884 0.015512539 0.020013927
-0.26072079 0.019670177 0.020197948
-0.18561624 0.017705234 0.02933665
-0.10897493 0.019643713 0.029111844
0.22065508 0.014531763 0.021391386
-0.18011674 0.027560849 0.021339741
-0.14604214 0.026186455 0.022923563
0.063356929 0.024224261 0.026922364
0.078063428 0.026569823 0.025006479
0.092562668 0.02666853 0.025262956
0.1036987 0.026472198 0.025743233
0.15313876 0.026570713 0.023423431
0.17484221 0.023940735 0.020390434
-0.11832523 -0.058991481 0.036192913
-0.048662782 -0.05814046 0.032802302
-0.022863219 -0.057825282 0.039319981
-0.010915773 -0.057679329 0.035955772
0.16667709 -0.055509456 0.038458046
0.18098758 -0.055334561 0.039271001
0.18849345 -0.047772363 0.0341333
0.2059772 -0.041381285 0.032241613
0.18933517 -0.034821697 0.036724199
0.19848177 -0.033381771 0.034072742
0.23691691 -0.035848014 0.031524826
0.24971068 -0.031990871 0.030514572
-0.24123767 -0.029258881 0.030623343
0.29524735 -0.022504965 0.030495632
0.23549619 -0.012914678 0.032587819
-0.37171221 -0.001332506 0.039310127
-0.22482033 -0.0036030619 0.032205388
0.20376508 -0.0045917188 0.033988234
-0.37768853 0.00043462403 0.039492551
-0.3523483 0.0036519554 0.03487616
-0.19061075 0.0047204085 0.039210159
0.20102187 0.0025106883 0.033857524
0.23697449 0.0093499059 0.034043763
-0.062631205 0.014848406 0.038241465
-0.0087901531 0.019597558 0.030235007
0.015416331 0.015952222 0.037709851
0.10593958 0.018159663 0.034224056
0.13715872 0.017613389 0.038026921
0.15698497 0.018578563 0.035802647
0.18697254 0.016506515 0.036562555
0.037719343 0.020263352 0.030149024
0.16559514 0.021144331 0.032159381
-0.26179755 -0.05777631 0.042044211
-0.1666882 -0.0595823 0.042645689
-0.11076993 -0.058899183 0.049753267
0.065078765 -0.056750942 0.048128702
0.10032406 -0.056320298 0.041814905
0.18067303 -0.047570731 0.042259164
0.18039648 -0.024934079 0.043001883
-0.33996323 -0.0022077381 0.042490911
-0.13569221 0.01235758 0.043892961
-0.050550383 0.012292936 0.047799572
0.022096246 0.012857093 0.04894289
0.099044837 0.015120288 0.044557486
0.15353605 0.016196854 0.04382484
0.19821225 0.016249811 0.042456217
-0.1608011 -0.05951038 0.0584694
-0.13501841 -0.05919541 0.056374177
0.19320524 -0.051964477 0.059825901
-0.24099778 -0.048854832 0.054230191
-0.23352444 -0.046069831 0.056672867
-0.22870424 -0.043416388 0.058510818
-0.24114434 -0.036858283 0.050731778
-0.22741756 -0.026566964 0.058260076
0.18034372 -0.020602096 0.051575404
-0.21535215 -0.01404095 0.05421105
-0.36140615 -0.0097750071 0.058517367
-0.34479302 -0.0098442435 0.059228227
-0.1814325 -0.00033006165 0.056524806
0.035931498 0.0071572885 0.05779577
-0.083498918 0.0102315 0.053665571
0.10213147 0.010562029 0.055754181
0.17145731 0.012036791 0.055167351
-0.0618493 -0.072396539 0.065418646
-0.1914835 -0.051289283 0.063365564
-0.17788632 -0.054528121 0.065919697
-0.12682286 -0.059095293 0.062129609
-0.11549541 -0.058956914 0.066102169
-0.043723688 -0.058080122 0.060890317
-0.03851264 -0.055012651 0.067886598
6.1774626e-06 -0.053438298 0.067886598
0.020146482 -0.057299398 0.067965567
0.10655201 -0.056244198 0.06153715
0.1758751 -0.054333538 0.063046634
-0.21285385 -0.045665719 0.060622003
-0.20296815 -0.048095852 0.061570413
-0.19850101 -0.041579068 0.063819699
-0.18555714 -0.04339847 0.065401316
-0.077233136 -0.040515989 0.067886598
0.045955848 -0.048811268 0.067886598
0.069240637 -0.040352236 0.067886598
0.10776964 -0.04478059 0.068568066
0.1661568 -0.044845063 0.065786563
-0.16540548 -0.037103333 0.067886598
-0.13410389 -0.037988018 0.067886598
-0.05058898 -0.037693575 0.067886598
0.0056628371 -0.03060453 0.067886598
0.016037272 -0.037004143 0.067886591
0.022712946 -0.031916734 0.067886598
0.040542901 -0.037122943 0.067886598
0.18759888 -0.031947304 0.063312694
-0.18297121 -0.022524789 0.065894768
-0.13449566 -0.028496962 0.067886598
-0.074731261 -0.022587303 0.067886598
-0.026675042 -0.021287344 0.067886598
0.053790562 -0.028457636 0.067886598
0.14179547 -0.028512556 0.068553537
0.17956257 -0.025340492 0.064223841
-0.40936059 -0.012369395 0.062437668
-0.18632376 -0.013036991 0.063858211
0.090710364 -0.012655053 0.068123005
0.12943117 -0.015438392 0.069156356
0.1456697 -0.018727697 0.068096355
0.010670856 -0.0072402218 0.067886598
0.051815242 -0.0046521397 0.067886598
0.099757209 -0.0044362019 0.068367198
-0.059322663 0.002540058 0.060723566
0.043850154 0.00092939206 0.063157558
0.17556518 0.0014329382 0.062456667
-0.13970388 -0.059252217 0.072808705
0.026996605 -0.057215706 0.070252381
0.054054506 -0.056885201 0.075309411
0.077325761 -0.051690385 0.078123584
0.08443284 -0.053097427 0.079716608
-0.070434183 -0.047700945 0.078216039
-0.032587878 -0.047080647 0.074016958
0.010565598 -0.046590522 0.075003907
-0.39052188 -0.016410006 0.072169565
-0.37042493 -0.016555289 0.078176804
-0.36762521 -0.015747691 0.071581855
-0.1597923 -0.059497669 0.089034766
-0.12840161 -0.056652211 0.088248402
-0.0040897653 -0.057595529 0.084274121
0.097283684 -0.056357063 0.080589347
0.015029054 -0.047059655 0.088930681
0.022517309 -0.046891693 0.086897023
0.039575711 -0.046447475 0.080625892
0.082566932 -0.075755134 0.099524423
-0.14642529 -0.059334356 0.096257709
-0.12311004 -0.059049353 0.098498955
-0.022161465 -0.057816304 0.099916488
0.036499701 -0.057099648 0.095451504
-0.38296348 -0.026158359 0.094100796
0.028039861 -0.074276157 0.10354264
0.08510974 -0.078637481 0.10431261
-0.0090284534 -0.063656665 0.10812099
-0.11061165 -0.051752392 0.10669471
0.0013255449 -0.059746318 0.10828373
0.011187369 -0.057408884 0.10022853
-0.039463971 -0.048402235 0.10692985
-0.02082026 -0.048168596 0.1067742
-0.40308875 -0.029770704 0.10144655
-0.0059451899 -0.078767702 0.11818391
0.065260231 -0.07753858 0.11414602
-0.13374862 -0.05917928 0.11786191
-0.046605736 -0.058114931 0.11460041
-0.038653191 -0.058017779 0.11008886
0.0054950542 -0.058739591 0.11336185
-0.057390504 -0.048931774 0.11518798
0.02627972 -0.078544445 0.12038442
0.031342536 -0.072539628 0.12069223
0.05133149 -0.077812344 0.12263134
0.10162012 -0.077551857 0.12180026
-0.13715144 -0.054522764 0.12814417
-0.12905553 -0.059121914 0.12103522
-0.11027078 -0.051193386 0.12965807
-0.063727282 -0.049262285 0.1219188
-0.072105378 -0.094580427 0.13739125
-0.066518955 -0.09238629 0.1386452
-0.063686691 -0.078207247 0.1341012
-0.14724495 -0.059344158 0.13522537
-0.12705369 -0.059097495 0.13181493
-0.063713573 -0.050990701 0.13697667
-0.042570554 -0.058065567 0.13703981
-0.035765927 -0.057982452 0.13002783
0.0015687197 -0.051504452 0.13575609
0.010167383 -0.057421252 0.13588312
-0.059754837 -0.049839132 0.13855062
-0.06239197 -0.10820661 0.1419836
-0.070355967 -0.075459778 0.147136
-0.038899679 -0.058020711 0.14246938
-0.017158303 -0.057755064 0.14947732
-0.047316484 -0.049870919 0.14343755
-0.091126561 -0.10562186 0.15945534
-0.024577465 -0.10027587 0.15550005
-0.013879038 -0.10227825 0.15704545
0.022912998 -0.10056281 0.15839466
-0.023675019 -0.092481293 0.15227899
-0.11172445 -0.082552619 0.15495378
-0.034518961 -0.08196488 0.15469642
-0.097408146 -0.050793607 0.15169954
-0.088899724 -0.050722606 0.15257609
-0.064467058 -0.058333077 0.156139
-0.11085013 -0.10834271 0.16716266
-0.0207945 -0.10555658 0.16192329
-0.21073565 -0.095058814 0.16647235
-0.20504355 -0.093814462 0.16431355
-0.19772646 -0.094852716 0.16186544
0.071341246 -0.093527004 0.16517457
0.071890727 -0.084274836 0.16733569
-0.14631939 -0.077458709 0.16133629
-0.12629125 -0.072353199 0.16650166
-0.054084204 -0.073559642 0.16962981
-0.13119996 -0.062089894 0.16738367
-0.033641603 -0.063411996 0.16767412
-0.021789385 -0.065314122 0.16864131
-0.14113913 -0.059269693 0.16872606
-0.042887844 -0.058069371 0.1652678
-0.027108906 -0.057876594 0.16540799
-0.0013870373 -0.057562348 0.16360728
-0.11696075 -0.10690019 0.17512269
-0.05565149 -0.10614675 0.17513615
-0.026631301 -0.10483579 0.17810859
-0.0029455479 -0.10390324 0.17860165
0.0074558705 -0.10609792 0.17138106
-0.19020736 -0.092987165 0.17785427
0.065022744 -0.09309046 0.17476614
-0.14997008 -0.077292897 0.17400952
-0.10523435 -0.063019894 0.1722914
-0.085881732 -0.064483754 0.17282638
-0.15449773 -0.059432842 0.17405537
-0.14407116 -0.054226998 0.17947634
-0.10780803 -0.051711004 0.17271945
-0.095046788 -0.058706641 0.17913209
-0.062186796 -0.058305152 0.17038986
-0.014518784 -0.057722762 0.17059441
-0.14520167 -0.10285519 0.18096274
-0.17320289 -0.096808083 0.18094108
-0.16000728 -0.09043555 0.18305719
-0.12144381 -0.096967384 0.18529101
-0.11015079 -0.094322503 0.18529101
-0.094002485 -0.095059879 0.18529101
-0.025084676 -0.09763258 0.18398947
-0.10108289 -0.082351863 0.18256496
-0.097674772 -0.088869765 0.18529101
0.00585452 -0.089990288 0.18495154
-0.0094096409 -0.079295173 0.18116167
-0.16389143 -0.056555569 0.18024854
-0.12431499 -0.055800628 0.18914454
-0.091069646 -0.058658037 0.18239631
-0.07533922 -0.051663525 0.18200606
-0.18645898 -0.058804512 0.19399631
-0.16218796 -0.059526876 0.1950088
-0.06615822 -0.052771073 0.19478534
-0.059391256 -0.054407395 0.19768721
-0.18291909 -0.059779972 0.20313074
-0.14281657 -0.053705171 0.20610699
-0.12582318 -0.053301156 0.20915371
-0.11485806 -0.056005426 0.20749517
-0.19846739 -0.050488953 0.21939614
-0.15654299 -0.05267334 0.21531135
-0.13105017 -0.054245148 0.21537279
-0.12677918 -0.052132688 0.21421999
-0.10283767 -0.058801729 0.21390563
-0.080447197 -0.052126992 0.21957
-0.076904453 -0.046238147 0.21924013
-0.066984057 -0.041910842 0.21900254
-0.14092037 -0.03356237 0.21847983
-0.12104398 -0.031914189 0.21840096
-0.16204289 -0.023226876 0.21422
-0.15638348 -0.024252204 0.21794365
-0.13991381 -0.029052952 0.21822622
-0.093924612 -0.028642178 0.21564062
-0.083567545 -0.029202353 0.2166971
-0.18359151 -0.014698606 0.21485049
-0.17771363 -0.018437967 0.2160556
-0.15399069 -0.014738728 0.21421999
-0.13600303 -0.014847863 0.21742688
-0.2120297 -0.0055666212 0.21679589
-0.17100666 -0.0080510294 0.21701874
-0.15147598 -0.002722102 0.21673173
-0.20626983 0.0061884616 0.21532825
-0.18900165 0.0047153784 0.21422
-0.13341188 0.012471344 0.214655
-0.19946437 0.029987056 0.21485066
-0.18949232 0.021173328 0.2153552
-0.165095 0.023311898 0.21525159
