# .PCD v0.7 - Point Cloud Data file format
VERSION 0.7
FIELDS x y z
SIZE 4 4 4
TYPE F F F
COUNT 1 1 1
WIDTH 881
HEIGHT 1
VIEWPOINT 0 0 0 1 0 0 0
POINTS 881
DATA ascii
0.13471039 -0.0092246039 -0.34416014
0.094248459 -0.0090966132 -0.33033466
0.13019802 -0.01205868 -0.32433507
0.11210915 -0.004404963 -0.32521114
0.13959399 -0.0049311947 -0.32522485
0.086331412 -0.011375605 -0.31060392
0.082081959 -0.0077733123 -0.31964648
0.14733303 -0.0059738006 -0.31403825
0.098421223 -0.014189869 -0.3038702
0.15560615 -0.01084836 -0.30901659
0.077751338 -0.0081410538 -0.30419138
0.13908845 -0.0055744173 -0.30610424
0.14507234 -0.0064236862 -0.30406997
0.092005208 -0.015386875 -0.29459295
0.13496999 -0.016401116 -0.29016462
0.14204179 -0.015218925 -0.29300404
0.14283064 -0.0069201151 -0.29332903
0.13213105 -0.017025242 -0.28708333
0.14636436 -0.015886826 -0.28331608
0.15573438 -0.010104321 -0.28058228
0.12315346 -0.0062072072 -0.2835364
0.13948862 -0.0067753317 -0.28978124
0.076021716 -0.017244063 -0.27253801
0.14881575 -0.016014433 -0.27947819
0.079370335 -0.008816584 -0.2756297
0.097116373 -0.0072773304 -0.27472061
0.064303525 -0.016509676 -0.26633099
0.077673316 -0.019572049 -0.26003993
0.13718462 -0.019683883 -0.26149321
0.1516849 -0.016746886 -0.26949853
0.10239445 -0.0076704756 -0.2677145
0.11147698 -0.0077565545 -0.26574865
0.060641557 -0.012787742 -0.25782439
0.13949752 -0.011232093 -0.25044471
0.14783429 -0.019619301 -0.25323144
0.16749951 -0.015067879 -0.25616595
0.10775625 -0.0093263704 -0.25143605
0.081289053 -0.022437738 -0.24589245
0.1125175 -0.023494225 -0.24684139
0.1315527 -0.022610638 -0.2460435
0.058822475 -0.019296268 -0.24627206
0.080497026 -0.010937934 -0.24934001
0.15525599 -0.019958511 -0.24282414
0.070075825 -0.023063978 -0.23530707
0.085389823 -0.025289863 -0.2318458
0.10389571 -0.025340909 -0.23594627
0.053688858 -0.0158349 -0.23776183
0.10370718 -0.011334524 -0.23420206
0.15520358 -0.016046703 -0.23048228
0.16246915 -0.016633509 -0.2364285
0.065910771 -0.02492574 -0.22014096
0.084234089 -0.026377521 -0.22417796
0.092100024 -0.027128359 -0.2218509
0.090675563 -0.012929599 -0.22113499
0.1110096 -0.012326051 -0.22528045
0.12307753 -0.012927433 -0.22401264
0.047810316 -0.022369601 -0.21456701
0.071552485 -0.024419395 -0.21456701
0.11979502 -0.02802306 -0.21277007
0.12751973 -0.020958487 -0.21456701
0.14526814 -0.024759142 -0.2146069
0.057454951 -0.016858762 -0.21419252
0.072704583 -0.018754084 -0.21456701
0.13418317 -0.015023477 -0.21456701
0.14581299 -0.016003832 -0.21592449
0.05125095 -0.024074163 -0.20947652
0.093293965 -0.029553216 -0.2027922
0.10635589 -0.028965183 -0.20870174
0.11756214 -0.02918518 -0.20371568
0.15294516 -0.025043279 -0.20433745
0.045257092 -0.019450232 -0.20667149
0.053518724 -0.017857172 -0.20837545
0.094340421 -0.030996382 -0.19160633
0.052793644 -0.026416499 -0.19529782
0.066481888 -0.016981408 -0.19124928
0.12795958 -0.015957041 -0.19346589
0.14222582 -0.017836615 -0.19076569
0.08947745 -0.032373741 -0.18225563
0.066921756 -0.031457227 -0.17629297
0.10690266 -0.033745125 -0.17435437
0.1228496 -0.033217661 -0.17291236
0.056892283 -0.029647544 -0.17868471
0.16236091 -0.022671754 -0.1766472
0.13993679 -0.018718287 -0.17737645
0.13665794 -0.033213411 -0.16399097
0.034466311 -0.025034361 -0.1638774
0.16366008 -0.02747656 -0.16969594
0.10267165 -0.017048139 -0.16539691
0.11252523 -0.017150197 -0.16664702
0.120589 -0.017906316 -0.16362903
0.14459629 -0.033201005 -0.15615997
0.15031038 -0.033160288 -0.15052731
0.028508803 -0.027355928 -0.15512526
0.15967368 -0.029862588 -0.15980759
0.16254456 -0.029773498 -0.15638177
0.09744145 -0.017848864 -0.15606284
0.12663615 -0.018947296 -0.15642273
0.098009057 -0.038680427 -0.14296465
0.15217105 -0.033286192 -0.14704561
0.042326972 -0.025274865 -0.14155437
0.056985583 -0.022064403 -0.14674079
0.074488983 -0.020172212 -0.14366511
0.032403566 -0.031161984 -0.13513058
0.048341066 -0.034428008 -0.13730872
0.067200646 -0.037900783 -0.13384748
0.11110269 -0.039106995 -0.13873319
0.027213937 -0.029122412 -0.13860108
0.058026262 -0.023408638 -0.13254803
0.10617086 -0.019570647 -0.1384474
0.11039789 -0.019898189 -0.13618232
0.10303169 -0.040941939 -0.12701198
0.058528099 -0.038274795 -0.12232044
0.1517279 -0.036695283 -0.1234605
0.04442168 -0.02647952 -0.1264194
0.063270919 -0.023165081 -0.12684296
0.089808777 -0.021570746 -0.12037525
-0.28841811 -0.0012186255 -0.1224737
0.064741492 -0.040501781 -0.11326425
0.11485828 -0.042238042 -0.11540661
0.1390067 -0.040022865 -0.11481644
0.029513933 -0.030595813 -0.11980724
0.046811353 -0.037503876 -0.11296216
0.13966396 -0.039698765 -0.11629381
0.1463974 -0.038107947 -0.11972725
0.051184095 -0.026834261 -0.11009266
0.078235403 -0.022469969 -0.11858948
0.10994597 -0.021592382 -0.11978569
0.11901087 -0.022890214 -0.11184421
-0.28780782 0.0029528779 -0.11137506
0.08643087 -0.043553535 -0.10594825
0.10352834 -0.044522017 -0.10159174
0.12508255 -0.042939901 -0.10537598
0.027827663 -0.032255415 -0.10820338
0.1752194 -0.033797335 -0.10450264
0.069812864 -0.02505289 -0.1020299
0.072596937 -0.023997072 -0.10898994
0.087333187 -0.02298945 -0.10761722
0.092817686 -0.023038387 -0.10562955
0.14324969 -0.026049573 -0.10697228
-0.27574888 -0.0016103131 -0.10353849
-0.28369203 0.0031660479 -0.10148598
0.053005535 -0.040864613 -0.097429499
0.11165586 -0.045431413 -0.093794093
0.06889312 -0.025640255 -0.09742409
0.10750958 -0.02446432 -0.091624305
-0.27341521 -0.0019790514 -0.096082143
-0.26236358 -0.00058336998 -0.098127909
-0.25148529 0.00080290472 -0.091157407
0.10184439 -0.046421267 -0.088447452
0.11458299 -0.046680167 -0.084156714
0.16376191 -0.040092357 -0.080937162
0.1603401 -0.031115772 -0.088772886
0.17812133 -0.036086198 -0.082290322
0.071891829 -0.026182195 -0.08868631
0.11676669 -0.025358744 -0.086438939
-0.2607289 -0.002004947 -0.080370136
-0.25787991 -0.001449229 -0.081419617
-0.31166017 0.00084826624 -0.082669169
-0.30016387 0.0019283637 -0.088598832
-0.27225274 0.0031099457 -0.088702515
0.054951854 -0.044995051 -0.070321202
0.066312268 -0.046174549 -0.074042916
0.12987961 -0.046494015 -0.076597676
0.025847584 -0.037504729 -0.076905251
0.086299725 -0.025955539 -0.079690307
0.10609162 -0.025970146 -0.076763138
0.11629623 -0.026977956 -0.070443183
-0.26854536 -0.0035130659 -0.074518181
-0.29759923 0.0020726097 -0.076664187
0.32092705 0.030942604 -0.075921044
0.036067575 -0.04138438 -0.068279609
0.13014925 -0.047537543 -0.06900385
0.16625369 -0.034666676 -0.066349044
0.093125783 -0.026893869 -0.068426758
0.12769833 -0.028191652 -0.067157388
-0.30340552 -0.0025122068 -0.068639114
-0.24872799 -0.00075517118 -0.06998346
-0.30357045 0.0013848742 -0.066027686
-0.2824713 0.0031459136 -0.060689844
0.034173068 -0.042555988 -0.057206117
0.16317256 -0.035118014 -0.055913977
0.086039737 -0.028689414 -0.053466037
-0.31477833 -0.0011565728 -0.053905651
-0.26568419 -0.0041927658 -0.05761303
-0.31086373 0.00065142434 -0.058301423
-0.30684614 0.001059255 -0.056313589
-0.2510215 0.00099439535 -0.054220334
0.31076476 0.022699125 -0.054984048
0.31475711 -0.10307992 -0.047535609
0.32040089 -0.098199829 -0.048054881
0.080889896 -0.051876705 -0.044473689
0.048252754 -0.046744931 -0.049730144
0.14331618 -0.049627513 -0.043118306
0.02418834 -0.039619427 -0.047481332
0.034527153 -0.035882212 -0.041405573
0.062656522 -0.031516925 -0.047883812
0.16532223 -0.035403699 -0.042387336
0.072462834 -0.028976928 -0.041927248
0.086136937 -0.026281849 -0.041358933
0.090018511 -0.027806917 -0.042035911
0.10897794 -0.026548009 -0.04607147
0.11215118 -0.029149435 -0.047493152
0.12550007 -0.029983729 -0.045092177
0.15306047 -0.027879156 -0.041108448
0.053526908 -0.013906805 -0.041046873
0.088049725 -0.017017145 -0.042738542
0.10660361 -0.018123243 -0.043278605
0.16339725 -0.016731404 -0.041758291
0.17514993 -0.010189063 -0.040842753
-0.2652849 -0.0044339881 -0.049364433
-0.25295064 -0.0025668861 -0.041599236
-0.24803619 -0.0014806695 -0.040791195
0.13260347 -0.0089163138 -0.04211662
-0.27280325 0.0031610834 -0.043100934
0.31623501 0.021540198 -0.04527596
0.32203871 -0.080213271 -0.035337642
0.32280692 -0.074613966 -0.036142383
0.063488431 -0.060282234 -0.030600356
0.090012439 -0.054216031 -0.035885852
0.11235618 -0.059160035 -0.034190159
0.18466519 -0.051072519 -0.034985598
0.21513483 -0.053893123 -0.031660996
0.14698286 -0.049833462 -0.039179225
0.20756568 -0.048859309 -0.034881882
0.21873917 -0.0483789 -0.033615254
-0.0019217723 -0.037059892 -0.030515609
0.052840624 -0.031149242 -0.038978569
0.1728459 -0.036027785 -0.039532244
0.22414657 -0.02299311 -0.039618373
-0.011549471 -0.015442315 -0.03211844
-0.0067896238 -0.012770062 -0.033239622
0.010449253 -0.013927307 -0.036096517
0.21684259 -0.010397263 -0.039567888
0.22563902 -0.010057027 -0.03999633
0.27033907 -0.017660063 -0.038654
0.30461439 -0.015428288 -0.036506154
-0.31462094 -0.0013284977 -0.03668426
-0.020766992 -0.0065277973 -0.031611111
0.0025182464 -0.0072717094 -0.035130206
0.18740056 -0.0055055688 -0.039805189
0.21259831 -0.0036286071 -0.039228357
0.0068543977 0.0034842035 -0.034518335
0.037024856 0.0019198383 -0.03752961
0.074341461 0.0049677943 -0.038461562
0.10869357 0.0039060693 -0.039441191
0.11860034 0.004611006 -0.039430965
0.15683773 0.0069481973 -0.037620407
0.16091079 0.0019807068 -0.038903583
0.20899437 0.0032664121 -0.037565112
0.22198531 0.0073913578 -0.035988823
0.23473519 0.0080943294 -0.035076894
0.10624197 0.01786571 -0.032470942
0.1770886 0.014414295 -0.033048883
0.18123603 0.012221857 -0.034291908
0.21838987 0.01378411 -0.031000536
0.31506217 0.01452177 -0.035407607
0.045739293 -0.070158921 -0.021859575
0.14304513 -0.078884013 -0.0212625
0.15812594 -0.076517493 -0.022311646
0.17824315 -0.070574529 -0.025285274
0.31931919 -0.075246677 -0.026708484
0.32171944 -0.07182321 -0.026708132
0.073758572 -0.069169678 -0.026035702
0.18861367 -0.068417996 -0.0261239
0.20915061 -0.067990676 -0.024237251
0.21910609 -0.069001488 -0.021679051
0.32224834 -0.063955769 -0.023794362
0.024074838 -0.057337649 -0.027060281
0.035465267 -0.058904156 -0.027782544
0.23978093 -0.055777483 -0.029362956
0.25494856 -0.057703137 -0.027365079
-0.10580534 -0.042285949 -0.02186181
-0.084982678 -0.043131627 -0.021896128
-0.005350078 -0.04127147 -0.028888114
0.29746535 -0.043289445 -0.024386376
-0.16541927 -0.032532826 -0.020449933
-0.14124617 -0.033396948 -0.022323076
-0.09610223 -0.039271243 -0.023199538
-0.086273849 -0.03775204 -0.023953822
-0.034833401 -0.038791463 -0.025662297
-0.029428566 -0.033260021 -0.02739102
-0.1665044 -0.0252671 -0.022454733
-0.14971243 -0.028902102 -0.023047401
-0.13594861 -0.027274506 -0.024429511
-0.12055589 -0.023004219 -0.026488805
-0.097056344 -0.026188981 -0.02671174
-0.01898399 -0.029039815 -0.029156918
0.296455 -0.025863038 -0.023413859
-0.18718138 -0.013941654 -0.02106443
-0.16301423 -0.018915864 -0.024008701
-0.13594055 -0.01538967 -0.026320009
-0.11165402 -0.018385805 -0.02767125
-0.30016544 -0.0037692329 -0.027465254
-0.27559194 -0.005329221 -0.026419202
-0.2575379 -0.0035229845 -0.021157259
-0.14172047 -0.0030556475 -0.026317019
-0.041957971 -0.0037389502 -0.029591102
-0.1278024 0.00072147429 -0.026904006
-0.11353282 0.0014363374 -0.027887888
-0.04539882 0.0064160568 -0.028383911
-0.14973621 0.014597321 -0.020157702
-0.075514629 0.012637421 -0.026714897
-0.059795655 0.015852898 -0.026359493
-0.044172928 0.018044638 -0.02632267
-0.038010217 0.019062111 -0.026504036
-0.021042245 0.018082649 -0.027775098
-0.051952325 0.026681762 -0.022795163
0.0056783948 0.029707815 -0.023436069
0.015085741 0.022365905 -0.02857214
0.062118955 0.022764297 -0.028530348
0.15088283 0.023032364 -0.027505621
0.16959533 0.026120469 -0.023485476
0.17072764 0.025431674 -0.024202961
0.19633169 0.026191212 -0.022444692
0.21326877 0.02009121 -0.027625771
0.22322145 0.023232015 -0.025266487
0.23722847 0.020053735 -0.026360946
0.26651525 0.022551784 -0.020606991
-0.054562412 0.03084955 -0.020748843
-0.042648774 0.03147456 -0.021008888
0.01131425 0.030931978 -0.023327909
0.078517944 0.037864514 -0.02217067
0.1704241 -0.08327882 -0.01204404
0.0056773205 -0.070700675 -0.014127705
0.01171206 -0.073847048 -0.011128031
0.040819533 -0.071899794 -0.019533414
0.18717229 -0.079452991 -0.015975585
-0.033704735 -0.067063533 -0.011769883
-0.024741858 -0.068071246 -0.011804774
0.27420077 -0.068791285 -0.010869516
0.28570944 -0.066057011 -0.012839309
-0.12925825 -0.054972038 -0.010582586
-0.10200527 -0.051377688 -0.017556516
-0.089109942 -0.050782204 -0.018618658
-0.078443669 -0.053122051 -0.017721675
-0.066661172 -0.059516672 -0.01491072
-0.044770442 -0.058962956 -0.01676077
-0.19680515 -0.032887958 -0.0151097
0.296455 -0.025861772 -0.012267128
0.3196924 -0.026414094 -0.012762371
0.32097641 -0.029881939 -0.013377301
-0.23183636 -0.015787484 -0.01360699
-0.21753439 -0.012720952 -0.01612905
0.296455 -0.014659059 -0.01475553
-0.28170323 -0.0054006288 -0.015570145
-0.2767579 -0.005406294 -0.019079655
-0.24841535 -0.0012603943 -0.011927586
-0.23827592 -0.002064592 -0.012933515
0.296455 -0.00044927228 -0.01842718
-0.27186257 0.0026121133 -0.019861188
-0.26410738 0.0016546373 -0.017093349
-0.22346842 0.00025318703 -0.014679476
0.31097546 0.00025486562 -0.019384688
-0.15629309 0.016588846 -0.018088611
-0.14462782 0.025359187 -0.010108697
-0.12953417 0.023275513 -0.016679479
-0.11447292 0.025610834 -0.017275974
0.18869132 0.028799076 -0.019344848
0.2073933 0.028717056 -0.017707579
0.27367097 0.026739853 -0.010017715
-0.088737726 0.034853391 -0.011349129
-0.025589161 0.036107179 -0.017277041
0.095956489 0.03307797 -0.019431628
0.10804646 0.036808487 -0.012370126
0.12033148 0.032415975 -0.015257484
0.14358914 0.031071415 -0.016892444
0.19641501 0.031600118 -0.013029523
0.038894247 0.042535357 -0.019891119
0.042498969 0.043343917 -0.01965579
0.077979848 0.048888158 -0.01798014
0.096172258 0.048926074 -0.013167061
0.018444402 0.055204265 -0.013369787
0.036855113 0.057821069 -0.01310497
0.05013559 -0.081210494 -0.0015115743
0.10364157 -0.08726503 -0.0061213984
0.12511066 -0.088817008 -0.0053697736
0.19080202 -0.083802953 -0.0039456999
0.21592294 -0.079345621 -0.0049091587
0.22642608 -0.071967646 -0.0042042639
-0.083560444 -0.065672688 -0.0038900049
-0.14453402 -0.055781022 -0.0013327405
0.30571684 -0.052707169 -0.0047044223
0.296455 -0.044789381 -0.0053298157
-0.25565889 -0.035044193 -0.0034925174
-0.22608817 -0.036162805 -0.008399562
0.31682622 -0.023343707 -0.0027435662
0.32897657 -0.021795942 -0.0034449331
-0.27687138 -0.019409671 -0.0076849572
0.29645503 -0.014534776 -0.0062960805
0.31478849 -0.01200973 -0.0063808523
-0.29925141 -0.0014442209 -0.0068376008
-0.27659252 -0.0078979675 -0.0088796681
0.296455 -0.0049630757 -0.0030222572
-0.31159312 0.0071831224 -0.0026920582
0.296455 0.0041172337 -0.0032469346
-0.3308109 0.010210469 -0.000751135
-0.23409224 0.012718813 -0.0077464357
-0.22643444 0.017565083 -0.0023545485
-0.2096613 0.019800596 -0.0010977775
-0.1978687 0.019458137 -0.0063542956
0.3030169 0.012482453 -0.0069140336
-0.3141132 0.021182438 -0.0031696614
-0.24569257 0.023496006 -0.0033104937
0.27831548 0.026107231 -0.009847207
0.28352356 0.027058708 -0.0014144119
-0.32302791 0.032288574 -0.0018403202
-0.31218037 0.033790492 -0.003277065
-0.24229166 0.032585628 -0.0023805422
-0.095152967 0.037438124 -0.0015806878
0.16441824 0.035323862 -0.001800485
0.1969727 0.034405645 -0.0014936514
-0.24717806 0.04395099 -0.0023113613
-0.23938935 0.041714087 -0.0011445475
-0.05894991 0.042326067 -0.0083056437
-0.041010875 0.047007073 -0.00031549158
-0.02042143 0.044795722 -0.0075222282
-0.30567273 0.054608654 -0.0039960914
-0.28489208 0.067248091 -0.0047743553
0.037189368 0.060714424 -0.0079339137
0.057781018 0.061167143 -0.0047248118
-0.27366886 0.075667709 -0.0036235468
-0.30699891 0.095503852 -0.00065078418
-0.28698161 0.092052095 -0.003529611
0.086917572 -0.085525259 0.0010267551
0.10753889 -0.087800972 0.0036470341
0.11413674 -0.087246038 0.009696601
-0.026279747 -0.072418965 0.0044677891
-0.0069163148 -0.072781354 0.008365836
0.0063605872 -0.075729348 0.0025693616
0.23995157 -0.070663266 0.0051846509
-0.09802904 -0.063694805 0.0039075245
0.26304898 -0.067848437 0.0075805443
-0.16287169 -0.050613701 0.0081857406
-0.22959885 -0.032278772 0.0098999953
-0.28883016 -0.029809207 0.00047361021
-0.26290905 -0.028220225 0.00647482
-0.28449261 -0.014269322 0.0082175694
-0.26195797 -0.0151538 0.0094787702
0.3010526 -0.016350267 0.0059658499
0.31720614 -0.019253656 0.0073486902
0.30999532 -0.0017374711 0.0089992788
-0.28418636 0.0023107978 0.0071176607
-0.32546511 0.010831625 0.0015026748
-0.31866214 0.014051625 0.0024437143
-0.23654407 0.012576523 0.0074729323
-0.22194782 0.01757516 0.0038514431
-0.2923981 0.020103438 0.0048316815
-0.25182071 0.021230245 0.0040021222
-0.22996278 0.022845825 0.0012393121
-0.18415987 0.020709461 0.0071852207
-0.14485419 0.025401402 0.0099516539
-0.26330277 0.032965545 0.0045663351
-0.2598263 0.038377732 0.0041614091
-0.13083459 0.030134175 0.0043374011
-0.10785954 0.034665383 0.0032878767
-0.086027145 0.037524577 0.0079037016
0.1220248 0.034936592 0.007333078
0.14102364 0.034094207 0.0096165575
0.16285539 0.035077233 0.0030871239
0.20458679 0.033857126 0.0019636282
0.22008932 0.030647766 0.0099465558
-0.29111803 0.044675142 0.0050226231
-0.2723459 0.043229677 0.0048973234
-0.074557319 0.041008104 0.0026839278
-0.055839647 0.044997208 0.001220985
-0.32582179 0.052445319 0.00076159911
-0.29449999 0.051624931 0.0048853494
0.00095355557 0.05306156 0.00069272565
0.048198916 0.060956463 0.0041763089
0.068465047 0.061402112 0.0071525946
-0.31542477 0.071581282 0.0016749618
-0.2895014 0.074989907 0.0044594649
-0.31511191 0.086658821 0.0001800561
-0.30089664 0.082297072 0.0034158872
-0.31018692 0.093570307 0.00020791788
0.098847941 -0.084937729 0.011219087
0.12331326 -0.085044123 0.014933083
0.068465345 -0.077975646 0.017125409
0.18741852 -0.077869743 0.018060541
0.19967091 -0.078945935 0.014139123
0.22194509 -0.072927564 0.013796343
-0.099273577 -0.060498752 0.010045293
-0.046284944 -0.064356267 0.012781866
-0.026746089 -0.061702829 0.016996374
-0.01477691 -0.063900635 0.017170416
0.0019350513 -0.066602185 0.017818984
0.27541453 -0.066067785 0.018862588
0.28528422 -0.067776427 0.019414125
-0.10940179 -0.055031221 0.014770097
-0.085995108 -0.05514206 0.016170565
-0.070832342 -0.052316636 0.018633153
-0.025276259 -0.057812221 0.019333795
-0.1957781 -0.041477587 0.010595568
-0.13103336 -0.041755673 0.019897623
-0.12527336 -0.048039466 0.017132394
-0.19350174 -0.035016187 0.014751362
0.31300923 -0.033697572 0.014560716
0.32151753 -0.023081642 0.017101787
-0.24564877 -0.010410108 0.01223205
-0.19156858 -0.017881233 0.019825775
-0.31444779 -0.00063356751 0.018632963
-0.23616417 -0.0088882651 0.013695222
-0.20677173 -0.003459617 0.017870404
-0.25847638 0.00033289724 0.013377924
0.30567834 0.0080742007 0.019858394
0.31170934 0.0036098768 0.015413235
-0.21794148 0.010987015 0.011808386
-0.19132341 0.012060775 0.015283828
-0.14352641 0.019261733 0.017963693
-0.12079542 0.028901838 0.011785653
-0.10708006 0.029299043 0.015082722
0.19482684 0.028678775 0.019027717
0.20238034 0.029801227 0.016047582
0.25296214 0.02656542 0.01550997
-0.083157212 0.033154622 0.015297255
-0.037727844 0.038702324 0.015443753
0.13739917 0.032749914 0.013259517
0.17720456 0.033297665 0.010160988
0.18498765 0.033186749 0.010004012
-0.02643813 0.042472407 0.010847664
-0.002667086 0.044500858 0.015104372
0.0076092621 0.043494571 0.017673863
0.032229781 0.045412078 0.018458081
0.083851285 0.047159038 0.017305039
0.10351979 0.041659746 0.012483135
0.019567551 0.053743325 0.014148648
0.026982073 0.055101648 0.013238135
0.065632194 0.054657403 0.015528022
0.077994242 0.050204467 0.017460322
0.10300875 -0.070622191 0.027585112
0.14219929 -0.074150041 0.02506775
0.18588854 -0.076044716 0.020559357
0.024800736 -0.062773421 0.023967791
0.14134993 -0.069371983 0.028604314
0.16378869 -0.065884255 0.029373739
0.18437056 -0.069260895 0.025832705
0.20743163 -0.067058004 0.025174547
0.23570889 -0.064380072 0.022234391
-0.054001577 -0.051216729 0.0201311
0.0065844227 -0.051376812 0.027075775
0.20922674 -0.059563726 0.029705461
0.28802592 -0.0525258 0.027511299
-0.043888107 -0.044978894 0.022693433
-0.14294118 -0.036999531 0.020617001
-0.029135793 -0.034871303 0.027121615
-0.0063309809 -0.038797215 0.029419146
0.32277068 -0.034211118 0.026923887
-0.11704674 -0.029116627 0.025493722
-0.10391507 -0.027253168 0.026483588
-0.057735905 -0.028883129 0.026331533
-0.033727463 -0.025521122 0.028319553
-0.12908225 -0.01585798 0.026746996
-0.30768725 -0.002463816 0.029074598
-0.27241138 -0.0051818276 0.024355626
-0.1637205 -0.0052730935 0.024913475
-0.15162629 -0.0038896436 0.025656994
-0.13963337 -0.0030537983 0.02647265
-0.035890013 -0.0079115424 0.029959371
-0.29094672 0.0025606151 0.023772089
-0.18129118 0.0014166262 0.021246409
-0.14296699 0.0052224295 0.024752058
-0.07494697 0.0060621342 0.028013797
-0.062990844 0.0064752297 0.028037418
-0.053193379 0.0076926178 0.028039351
-0.048020925 0.0039155912 0.028424038
-0.091849737 0.017123153 0.024955139
-0.07425829 0.012841925 0.026708473
-0.034671687 0.019111497 0.026704375
0.26107481 0.019415151 0.024995789
-0.095439322 0.024423435 0.020901348
-0.070040904 0.02727817 0.021426056
-0.029111408 0.0240533 0.024830149
-0.018896969 0.02810391 0.02324307
0.014316209 0.022615956 0.028466852
0.095000163 0.027797323 0.023085635
0.11573392 0.023244822 0.028287381
0.12846 0.025841113 0.02516458
0.17442833 0.02746569 0.021853065
0.18502308 0.021426387 0.028121248
0.243577 0.021981699 0.023569264
0.32296348 0.02109682 0.022755696
-0.016544081 0.032602184 0.020301111
0.083949767 0.031478755 0.02344957
0.073557362 0.04273586 0.020510577
0.099765331 -0.060915902 0.032593697
0.060732681 -0.050331131 0.039884955
0.14567377 -0.050630838 0.037238713
0.21726303 -0.050672837 0.0327897
0.28560552 -0.052544132 0.030907381
0.0072787413 -0.042835977 0.030578539
0.043074343 -0.046995826 0.036916658
0.051209856 -0.048493691 0.039256286
0.18763039 -0.045668185 0.036457926
0.19585277 -0.046324357 0.036120795
0.20704615 -0.046619382 0.035770908
0.21247247 -0.047323458 0.035149198
0.23551738 -0.042711645 0.035231799
0.31282872 -0.046862982 0.034560323
0.024677455 -0.038288649 0.039426766
0.038198322 -0.034247279 0.038428478
0.048893478 -0.031981111 0.039478801
0.1801106 -0.033382945 0.039284378
0.24350508 -0.03315521 0.037146173
0.31114084 -0.033146653 0.036211826
0.013627062 -0.022837205 0.035490062
0.025879692 -0.022369783 0.037005764
0.2127208 -0.025923839 0.039529901
0.27906141 -0.02560609 0.037702981
0.29229027 -0.025812294 0.037172325
0.042722873 -0.011792732 0.039879426
0.23496161 -0.017294724 0.039869104
0.27481851 -0.011756081 0.0381019
0.28338832 -0.010329381 0.037685148
0.29720241 -0.019418733 0.033117477
-0.31680501 -0.000103673 0.031645469
-0.24470735 -0.00021445898 0.030739203
-0.005650165 -0.0068146838 0.033838011
0.045838684 -0.0096301427 0.039840337
0.16009918 -0.0017225993 0.039977379
0.23227328 -0.0044843815 0.038762793
0.2432745 -0.0040492117 0.038137674
0.25096861 -0.0029954787 0.037629735
-0.27829516 0.0032257098 0.03844621
-0.0042769387 0.008629743 0.031860329
0.069418207 0.0078213429 0.037540589
0.083471023 0.0011063288 0.039753802
0.11620022 0.0073021324 0.038616512
0.15463352 0.0062186602 0.037898943
0.16800629 0.0058888309 0.03756772
0.22515218 0.0030167366 0.037385777
0.23044822 0.0011983723 0.037489604
0.27278608 0.0054824906 0.034037903
0.063171871 0.018308263 0.03164031
0.070624091 0.013867056 0.034573145
0.085382357 0.016018854 0.033388298
0.10728843 0.016958397 0.033056926
0.13903588 0.015459297 0.03357318
0.15489876 0.011377617 0.03564892
0.18936947 0.010223775 0.035312772
0.081470393 -0.051898561 0.044593625
0.10999288 -0.052588835 0.044150487
0.11718626 -0.051646225 0.047741994
0.046976998 -0.046741538 0.047964785
0.14795421 -0.047987401 0.047764476
0.32321605 -0.048890051 0.046570189
0.032599933 -0.036649972 0.044864494
0.060061026 -0.030796355 0.042032931
0.14962666 -0.033326335 0.046782006
0.15930796 -0.035316885 0.045794044
0.31868452 -0.037097767 0.048145287
0.1650635 -0.029056974 0.04047361
0.17633086 -0.023792341 0.040760092
0.21416003 -0.02016831 0.040232025
0.063182436 -0.017500896 0.041737191
0.12398251 -0.019252764 0.043467302
0.15232977 -0.017232152 0.042557079
0.19624284 -0.014223454 0.040999919
0.21351881 -0.012732529 0.0404329
0.22629654 -0.014499005 0.040573981
-0.2937538 -0.0048904181 0.046697304
0.15069272 -0.0075294306 0.041318793
0.3125343 0.040464334 0.042944748
0.31366619 0.053767964 0.045443084
0.077218138 -0.050136231 0.054556489
0.053485513 -0.031829979 0.059035055
0.077884674 -0.029224595 0.053993288
-0.31869832 -0.00051462912 0.052881874
-0.30751804 -0.0023625765 0.05529068
-0.29520255 -0.0042508654 0.057794563
-0.29192159 0.0025481898 0.05461102
-0.2865063 0.0029640005 0.058068652
-0.27291426 0.0031650765 0.059493989
0.31631595 0.074691482 0.05545174
0.31723323 -0.050849415 0.068712659
0.076042168 -0.049015515 0.061882511
0.10631869 -0.049610894 0.065093428
0.14572956 -0.046435025 0.061422028
0.02424933 -0.038034916 0.064421356
0.050341211 -0.031479131 0.06746266
0.077748224 -0.028051162 0.065422453
0.10505982 -0.027045645 0.066144794
-0.30613384 0.0011408381 0.068434268
0.31108695 -0.063061774 0.071461469
0.061345033 -0.044943035 0.078542933
0.11617312 -0.047343947 0.078657143
0.13583624 -0.045678221 0.077139944
0.14379954 -0.044734869 0.075759999
0.15387225 -0.043062352 0.075277284
0.055167321 -0.029714402 0.076745294
0.097383887 -0.026055571 0.075522229
0.10385553 -0.025601014 0.079805359
-0.28775886 -0.0034973244 0.079216674
-0.29343683 0.0024183611 0.074203268
0.046581138 -0.04129358 0.085823268
0.098876543 -0.046539098 0.08745078
0.1211734 -0.045482412 0.089178674
0.02517717 -0.03595344 0.087020837
0.046461094 -0.030281879 0.08603812
0.16685763 -0.035535298 0.086872235
0.1091425 -0.025704749 0.080034256
0.13285956 -0.04398445 0.091686338
0.16366455 -0.03085456 0.097386882
0.17345771 -0.033695705 0.094070762
0.11165528 -0.023874655 0.098184198
-0.28689888 -0.002393144 0.092507057
-0.25722086 -0.00046817213 0.090030193
0.071617737 -0.043072261 0.10061531
0.10478549 -0.04333172 0.10979432
0.025421426 -0.032872047 0.10787224
0.036571164 -0.030005829 0.10847128
0.051381961 -0.039480247 0.10555324
0.16590461 -0.036272492 0.10458493
0.042001501 -0.029259609 0.10486857
-0.2663801 -0.00034810675 0.10855628
-0.30095029 1.1295313e-05 0.1062196
0.0801915 -0.042455014 0.11058365
0.043200973 -0.035839409 0.11953044
0.058875062 -0.039915264 0.11102488
0.15787271 -0.037029509 0.11167204
0.039022207 -0.028603654 0.11650044
0.065521911 -0.023681296 0.1195963
0.11053006 -0.021655045 0.11930548
0.13326612 -0.024108816 0.11261855
0.14237599 -0.02473253 0.11832689
0.15897134 -0.02780477 0.11736115
-0.2827785 -0.0015591863 0.11585989
-0.28632149 0.0029887871 0.11666737
0.076442324 -0.040541831 0.12241039
0.11329421 -0.040736299 0.12683073
0.027430229 -0.030289849 0.12730193
0.045755457 -0.035334054 0.1269443
0.075465247 -0.03972587 0.12763436
0.1378791 -0.039422564 0.12014581
0.16230334 -0.034221426 0.12546518
0.17363839 -0.030846789 0.12101702
0.051788177 -0.025091194 0.12567486
-0.28391838 -0.00027651829 0.12786433
-0.27877083 -0.00085785461 0.12560689
-0.29875827 0.0015254187 0.12261261
0.036916152 -0.032485716 0.13368648
0.049822498 -0.034808598 0.13676454
0.14023 -0.036721785 0.13663889
0.060648762 -0.023101393 0.13166063
0.077961788 -0.020931685 0.13348341
0.12764351 -0.021644181 0.1302104
0.15338242 -0.024800234 0.13525042
0.040066116 -0.031664692 0.1451807
0.087863386 -0.038088102 0.14535283
0.044204775 -0.024205409 0.1480988
0.14070751 -0.022127934 0.14060736
0.17237148 -0.02943472 0.14184462
0.058199696 -0.033811178 0.15342197
0.058784816 -0.02091755 0.1568307
0.16556154 -0.029815612 0.15116726
0.074736491 -0.019289123 0.15262689
0.10061677 -0.01812711 0.15179691
0.059712172 -0.03294747 0.16029707
0.073334612 -0.033287428 0.16889304
0.12400015 -0.033787422 0.16881162
0.13027135 -0.034206212 0.16194941
0.036954597 -0.027670741 0.16614634
0.043198217 -0.022595581 0.16919862
0.052543782 -0.020791162 0.16973113
0.14981043 -0.021558346 0.16140929
0.098985858 -0.017359028 0.1616663
0.12933582 -0.018388493 0.16666244
0.13408275 -0.019456405 0.16006766
0.089063495 -0.032996513 0.17818508
0.14554352 -0.03001374 0.17618279
0.03837958 -0.023258589 0.1740953
0.050451364 -0.021027481 0.1719164
0.14709246 -0.020191981 0.17197637
0.069385543 -0.017993804 0.17557254
0.086190186 -0.016683459 0.17486835
0.075755931 -0.030594874 0.18746138
0.087075844 -0.031183325 0.18876633
0.098017707 -0.032299958 0.18382891
0.11763769 -0.030968573 0.18936102
0.060328465 -0.029229822 0.18451412
0.14654729 -0.028248698 0.18701911
0.16574201 -0.025226941 0.18169671
0.0604949 -0.017985513 0.18904898
0.079938076 -0.015902158 0.18885569
0.12237424 -0.016425073 0.18242636
0.10160723 -0.030239046 0.19853848
0.14569072 -0.027168471 0.19583699
0.087895229 -0.014906192 0.1956539
0.15044728 -0.018452611 0.19755603
0.068770885 -0.027572419 0.20394544
0.085603997 -0.028318029 0.20950946
0.11011344 -0.028849961 0.20904946
0.14748788 -0.026006147 0.2044926
0.043968469 -0.019580882 0.20981818
0.073159337 -0.015410061 0.2044134
0.11104695 -0.014159189 0.20266922
0.039028447 -0.020971959 0.21336608
0.060151368 -0.020537207 0.21456701
0.079116732 -0.021552168 0.21456701
0.11941613 -0.025926506 0.21456701
0.12416489 -0.013488691 0.21815264
0.14604829 -0.016269473 0.21334735
0.16281903 -0.019286487 0.21292873
0.077205501 -0.025564654 0.22540617
0.085838847 -0.026543818 0.22359918
0.1194817 -0.026996344 0.22200125
0.1351386 -0.025169974 0.2273379
0.15233369 -0.02290564 0.22620159
0.074355349 -0.014211356 0.22063801
0.066506535 -0.02294236 0.23332867
0.10650676 -0.025496956 0.23526734
0.14747249 -0.021697065 0.23994416
0.046433456 -0.017698538 0.2340752
0.12831025 -0.011789123 0.23725688
0.16964833 -0.018624688 0.23246327
0.085108817 -0.022939268 0.2451393
0.097717457 -0.022903649 0.24984702
0.10058624 -0.023836385 0.24457137
0.11534668 -0.024289619 0.24163771
0.13208243 -0.022037055 0.24938154
0.14477691 -0.020857148 0.24775094
0.050162293 -0.017153345 0.24854586
0.063955233 -0.013360169 0.24590111
0.093130358 -0.010261335 0.2468808
0.10841408 -0.01037441 0.24242835
0.1505287 -0.019885173 0.24872321
0.16357934 -0.01795214 0.24552488
0.094999455 -0.021331936 0.25812542
0.11920452 -0.022219168 0.25372645
0.056462292 -0.017585156 0.2530005
0.061730664 -0.013228944 0.25132486
0.077812746 -0.019601118 0.259978
0.1459433 -0.011719128 0.25312805
0.16411413 -0.015205026 0.25005645
0.097767904 -0.0088810632 0.25729841
0.10940367 -0.02046028 0.26641956
0.14047416 -0.019120807 0.26281205
0.15482216 -0.014413735 0.26440048
0.079984002 -0.0094017787 0.26503992
0.13558891 -0.0088556744 0.26696619
0.057426713 -0.012565828 0.27929604
0.13373351 -0.017837184 0.27921095
0.15329403 -0.015737548 0.27565023
0.091254368 -0.0078079067 0.27265963
0.12083381 -0.0072993301 0.27207214
0.078017116 -0.014979703 0.28733021
0.10899407 -0.018423477 0.28178805
0.1438292 -0.015471072 0.2896336
0.16249935 -0.011225961 0.28231797
0.11801875 -0.0063475412 0.28080136
0.13695025 -0.0065853139 0.28930032
0.14791635 -0.0086982241 0.28191143
0.069277689 -0.010790835 0.29884633
0.073094785 -0.012995466 0.29276869
0.086898893 -0.014130736 0.29774296
0.073023066 -0.0090651941 0.29285321
0.11177815 -0.0053613461 0.29061544
0.10898238 -0.013820214 0.30966479
0.10825415 -0.0046743359 0.30720195
0.1209484 -0.0045556379 0.30604658
0.14385843 -0.0063523841 0.30286807
0.15220147 -0.0073249517 0.30553004
0.15158388 -0.010870119 0.31340522
0.07789883 -0.0081440685 0.31060681
0.095660478 -0.0054324027 0.31286407
0.10368928 -0.004673854 0.31607085
0.12631238 -0.004194845 0.3139115
0.14660148 -0.0058308975 0.31402445
0.15997118 -0.0079647079 0.3140538
0.10398813 -0.011688289 0.32163379
0.087910175 -0.0070908316 0.32321718
0.10602557 -0.0047751353 0.32385212
0.11827181 -0.01123652 0.33424538
0.1243974 -0.01163613 0.33130535
0.097695529 -0.0074046785 0.33997527
0.10579774 -0.0054993634 0.33596504
0.12983382 -0.0046123695 0.33852887
0.15527414 -0.0074789207 0.33844221
0.10485047 -0.0082243029 0.34202519
0.11428155 -0.0077242004 0.34700209
0.12418428 -0.0086545479 0.34774753
0.15228073 -0.0072136633 0.34008566
