# .PCD v0.7 - Point Cloud Data file format
VERSION 0.7
FIELDS x y z
SIZE 4 4 4
TYPE F F F
COUNT 1 1 1
WIDTH 792
HEIGHT 1
VIEWPOINT 0 0 0 1 0 0 0
POINTS 792
DATA ascii
-0.30083749 -0.024844505 -0.36290336
-0.28208113 -0.026517514 -0.36182731
-0.29306075 -0.027547691 -0.35522988
-0.28391552 -0.026712298 -0.35486826
-0.25624236 -0.024916589 -0.35062763
-0.28829157 -0.028441368 -0.34809104
-0.25472438 -0.025503118 -0.34621125
-0.27592251 -0.029362924 -0.33519077
-0.26005349 -0.02748365 -0.33515191
-0.2455761 -0.027703485 -0.33447289
-0.23872191 -0.026888542 -0.33401662
-0.27049753 -0.030688457 -0.32770911
-0.26996893 -0.030983478 -0.32537419
-0.25404179 -0.028388701 -0.3269802
-0.24622203 -0.027620286 -0.32915086
-0.23690349 -0.027213523 -0.32850277
-0.25903332 -0.032085832 -0.31495914
-0.23586479 -0.031122115 -0.31970581
-0.23706825 -0.029662326 -0.31234431
-0.231729 -0.031045698 -0.30127794
-0.22354633 -0.032507833 -0.30726877
-0.24961446 -0.034455258 -0.29523066
-0.23849843 -0.032849889 -0.29366502
-0.22657448 -0.033207852 -0.29256487
-0.20747797 -0.034137104 -0.2903316
-0.24125257 -0.034983829 -0.28506565
-0.2257534 -0.033179518 -0.28479683
-0.21422058 -0.035641748 -0.28086963
-0.20573221 -0.032653738 -0.28852654
-0.23816806 -0.036870148 -0.27364251
-0.20392632 -0.036515236 -0.2728577
-0.19498207 -0.033940226 -0.27207103
-0.21705657 -0.036406595 -0.26638877
-0.22549024 -0.038973026 -0.25649351
-0.20824897 -0.038416542 -0.25767836
-0.19021182 -0.03834885 -0.2567119
-0.18042038 -0.037135229 -0.25760025
-0.21018228 -0.040587887 -0.24138772
-0.21443254 -0.039644994 -0.24932402
-0.20071656 -0.037399136 -0.24680404
-0.18402144 -0.038461767 -0.24371344
-0.17522892 -0.036589649 -0.24392933
-0.20573714 -0.040175103 -0.23518443
-0.17357035 -0.040227741 -0.23981905
-0.19945285 -0.039736029 -0.2330296
-0.19971648 -0.042376049 -0.22311653
-0.18331124 -0.042087127 -0.22225714
-0.16039371 -0.0419157 -0.22134234
-0.15104893 -0.040240172 -0.22068444
-0.18725172 -0.039537422 -0.22503948
-0.16890264 -0.038104072 -0.22913179
-0.19876517 -0.042657882 -0.21959758
-0.18948811 -0.040999126 -0.21630883
-0.17763442 -0.0402903 -0.2117026
-0.1633743 -0.042298205 -0.21684633
-0.15589188 -0.038879231 -0.21359155
-0.19002825 -0.04352529 -0.20709282
-0.18250313 -0.042471424 -0.20041026
-0.17510563 -0.041121133 -0.20243205
-0.1441548 -0.042778492 -0.20515342
-0.13407636 -0.041815311 -0.20008475
-0.15496853 -0.039600875 -0.20564124
-0.16862288 -0.04136017 -0.195774
-0.154073 -0.04376889 -0.19644988
-0.17339173 -0.04476437 -0.18799536
-0.15039182 -0.041244723 -0.18608904
-0.13655499 -0.04258693 -0.18364656
-0.12897566 -0.044171061 -0.18580328
-0.18132037 -0.045633033 -0.17873481
-0.17005391 -0.043997139 -0.17919403
-0.16985847 -0.045602378 -0.17739698
-0.15278265 -0.045532927 -0.17339656
-0.14598177 -0.042216994 -0.17267197
-0.13414453 -0.044981435 -0.17799824
-0.11704569 -0.040766381 -0.1704641
-0.16386169 -0.045364991 -0.16322932
-0.11472715 -0.045368865 -0.16925028
-0.10741903 -0.041669033 -0.16620547
-0.11573003 -0.044207402 -0.15584508
-0.10105604 -0.046337768 -0.15497205
-0.16201942 -0.04857178 -0.1417169
-0.14176914 -0.044774875 -0.14526992
-0.13271843 -0.04490133 -0.14729436
-0.11253935 -0.044953808 -0.14637539
-0.10206929 -0.041943215 -0.14668983
-0.083320066 -0.045770429 -0.14417857
-0.15923838 -0.048148323 -0.13862869
-0.13305874 -0.048016492 -0.1394318
-0.12300043 -0.048628189 -0.13027364
-0.11396356 -0.043624453 -0.13487148
-0.094430119 -0.045268256 -0.13395135
-0.086989522 -0.047897287 -0.13476013
-0.077525757 -0.047774483 -0.13162541
-0.15254942 -0.049308818 -0.12359591
-0.1140182 -0.04685609 -0.12336423
-0.060888037 -0.047188088 -0.12151567
-0.15227863 -0.050380826 -0.1154388
-0.11840189 -0.047326483 -0.11579245
-0.10343433 -0.044052538 -0.11996852
-0.096943527 -0.043873183 -0.11301912
-0.087107122 -0.049294904 -0.11261167
-0.061553046 -0.04184778 -0.11373269
-0.15357006 -0.05092407 -0.10326572
-0.1486461 -0.050939538 -0.10350679
-0.14130428 -0.04896947 -0.10654599
-0.1120122 -0.049671125 -0.10989755
-0.070764124 -0.04250896 -0.10833273
-0.06040727 -0.049481362 -0.1024064
-0.044322368 -0.044597015 -0.10365934
-0.15387875 -0.05137866 -0.096892841
-0.14526546 -0.050147034 -0.097934067
-0.13858679 -0.049289744 -0.096865781
-0.10737239 -0.045185409 -0.092609771
-0.078521669 -0.043186817 -0.099801734
-0.068974406 -0.042812996 -0.093568027
-0.044145714 -0.049463511 -0.097380966
-0.2893756 0.039850999 -0.09019161
-0.30348414 0.04291366 -0.095498204
-0.14020404 -0.051967584 -0.080740482
-0.13887191 -0.050537512 -0.080186918
-0.12097847 -0.051304497 -0.084041327
-0.075013965 -0.05056861 -0.082267791
-0.062794499 -0.050322007 -0.084948406
-0.047055073 -0.050189659 -0.084157467
-0.066015825 -0.04284643 -0.086211786
-0.030214708 -0.040883347 -0.083235458
-0.027369542 -0.049348801 -0.085898675
-0.30339018 0.026189176 -0.080865189
-0.29385322 0.027602322 -0.080693707
-0.27089301 0.026843093 -0.080807932
-0.30512583 0.033652216 -0.087320134
-0.28719637 0.032846928 -0.084211096
-0.16535331 -0.052664861 -0.071050167
-0.15566839 -0.052304842 -0.078195348
-0.14625768 -0.052114796 -0.076303147
-0.11401302 -0.051720675 -0.073186673
-0.050404724 -0.050697349 -0.074069925
-0.028327264 -0.050463274 -0.073828436
-0.10994786 -0.046859942 -0.074634492
-0.090435058 -0.044625022 -0.071605146
-0.054835822 -0.042421371 -0.078451194
-0.29486725 0.017516892 -0.073127478
-0.28967938 0.018853482 -0.074694574
-0.2672492 0.014960481 -0.070751168
-0.30214098 0.02189751 -0.077409312
-0.28414598 0.023833321 -0.077319972
-0.26904601 0.020556999 -0.072579235
-0.17677404 -0.05290788 -0.063416481
-0.13526072 -0.052776325 -0.06055788
-0.12674047 -0.052239135 -0.069542676
-0.1195024 -0.052521121 -0.062536344
-0.08107958 -0.051864482 -0.063926011
-0.072796732 -0.051156618 -0.068997264
-0.068221301 -0.051246982 -0.067410715
-0.036100678 -0.051482625 -0.064235978
-0.029767524 -0.052011628 -0.060777832
-0.0082939742 -0.050229829 -0.067250289
-0.09280204 -0.044672795 -0.066137508
-0.087362997 -0.043820698 -0.062881313
-0.078674063 -0.043050211 -0.061035644
-0.017607225 -0.040557861 -0.068786383
0.0090974551 -0.049303845 -0.064035743
0.013010084 -0.047984499 -0.064271875
-0.0046586096 -0.039585985 -0.060584083
-0.27778655 0.004499739 -0.061914328
-0.2177586 0.0058432771 -0.060508821
-0.27432728 0.010475619 -0.067096941
-0.26733398 0.012273369 -0.068470478
-0.23482484 0.012555345 -0.063448206
-0.20292643 -0.052841693 -0.059806079
-0.19225669 -0.052873608 -0.058112707
-0.16506322 -0.052886829 -0.054900724
-0.091840342 -0.052762188 -0.054131497
-0.084410451 -0.052581996 -0.057326943
-0.035752583 -0.05244112 -0.057519138
-0.013633133 -0.052837029 -0.051821876
0.0096396925 -0.050586097 -0.059095997
0.017286059 -0.050337981 -0.057448804
-0.17299218 -0.04600526 -0.050938267
-0.15867406 -0.042962383 -0.051613539
-0.12363914 -0.046508159 -0.050747469
-0.11426559 -0.046389014 -0.054353714
-0.1046116 -0.045563284 -0.057592407
-0.08291243 -0.04197754 -0.053312484
-0.078007743 -0.04192118 -0.054208767
-0.049430899 -0.040945504 -0.059279602
0.012130232 -0.040627237 -0.058703769
0.02823757 -0.041594468 -0.056463219
0.035852551 -0.043806918 -0.054099567
0.044734076 -0.049532618 -0.050422378
-0.026875988 -0.038129143 -0.05109736
-0.22606774 -0.0047054794 -0.052770801
-0.2023226 -0.0059842109 -0.050732695
-0.27875262 0.0015050096 -0.059123162
-0.25112581 0.0025899783 -0.059748031
-0.23630527 0.00627831 -0.057972502
-0.22293079 0.0030755308 -0.055815976
-0.20721588 -0.050911464 -0.048481122
-0.1305784 -0.05291561 -0.047164448
-0.093156353 -0.052899636 -0.048062127
-0.088444263 -0.0529171 -0.043363437
-0.065000787 -0.052895211 -0.048235245
-0.011062961 -0.052833904 -0.046576791
0.0046277423 -0.052378953 -0.046756998
0.045186386 -0.05115483 -0.046778336
-0.2092378 -0.049420267 -0.04396442
-0.16584821 -0.046606164 -0.046424132
-0.15531752 -0.04236073 -0.043098502
-0.14123628 -0.040672764 -0.04606238
0.046425126 -0.040413722 -0.048882227
0.075360484 -0.041550603 -0.041422412
0.086911455 -0.042790625 -0.042012066
-0.13176717 -0.036393292 -0.045667633
-0.11361402 -0.032409299 -0.044824667
-0.069518715 -0.037041727 -0.048011974
-0.055133205 -0.036548126 -0.04578257
-0.049420632 -0.03911712 -0.049766935
-0.03309875 -0.037041407 -0.044899978
-0.009264282 -0.036705583 -0.046666268
0.0027651028 -0.035804082 -0.040558152
-0.24545726 -0.015046983 -0.04228168
-0.20785058 -0.014907556 -0.043476406
-0.21193123 -0.0075940108 -0.049828514
-0.20494795 -0.0071448861 -0.044226095
-0.14831014 -0.0529171 -0.034343615
-0.13523497 -0.0529171 -0.030256046
-0.12375209 -0.0529171 -0.03867767
-0.11607364 -0.0529171 -0.034127556
-0.10805046 -0.0529171 -0.031347312
-0.085244998 -0.0529171 -0.031963233
-0.059560578 -0.0529171 -0.031106478
0.027323712 -0.0529171 -0.031272244
0.095032454 -0.052359443 -0.034181874
0.10150796 -0.052070826 -0.034261253
0.1103026 -0.050918166 -0.035754297
0.14014751 -0.050731387 -0.032378737
-0.16525091 -0.041593231 -0.037529118
0.038718745 -0.041498795 -0.037371065
0.092460409 -0.041438911 -0.036719449
0.10188265 -0.049464904 -0.038265917
0.13137403 -0.042774774 -0.032683987
0.14774173 -0.049794771 -0.032456651
0.1564569 -0.049754415 -0.031636283
0.16289729 -0.043986615 -0.03060207
-0.1625655 -0.037035115 -0.030570347
-0.15958135 -0.037233088 -0.03218561
-0.14507522 -0.032449726 -0.031506162
-0.11441878 -0.030889766 -0.030473355
-0.091060743 -0.03028062 -0.031912163
-0.051307712 -0.032281339 -0.032951128
-0.04914904 -0.032657549 -0.036606342
-0.03710809 -0.033152547 -0.032844521
-0.015932299 -0.032569762 -0.032871522
0.063741706 -0.039373957 -0.030338561
0.079660438 -0.039792132 -0.030890007
-0.21501715 -0.024533739 -0.035117082
-0.18705215 -0.025267057 -0.033667371
-0.17641968 -0.024924891 -0.033576924
-0.16308984 -0.022515168 -0.035004504
-0.15526018 -0.027057674 -0.030923393
-0.22606134 -0.017562613 -0.037328698
-0.214819 -0.018336706 -0.035163175
-0.20925994 -0.019100215 -0.033771332
-0.24333677 -0.052916653 -0.025582304
-0.20719491 -0.0529171 -0.021361444
-0.15561604 -0.0529171 -0.022894064
-0.1471917 -0.0529171 -0.02922697
-0.095139191 -0.0529171 -0.02359426
-0.086479746 -0.0529171 -0.02103949
-0.064615399 -0.0529171 -0.020222969
-0.031054419 -0.0529171 -0.02045624
0.031405032 -0.0529171 -0.029035445
0.040048234 -0.0529171 -0.021691991
0.095444493 -0.0529171 -0.029886637
0.10250743 -0.0529171 -0.02455901
0.11660045 -0.0529171 -0.023867659
0.13613249 -0.0529171 -0.023360711
0.1467078 -0.052890956 -0.024160057
0.18390527 -0.050021019 -0.027271384
0.19466998 -0.05010223 -0.022810668
-0.19179763 -0.040806953 -0.020729085
0.16729905 -0.049816485 -0.020313898
0.18587005 -0.045212332 -0.025286676
0.20137295 -0.04091531 -0.023200721
-0.25081286 -0.038760338 -0.022668656
-0.23515613 -0.035408787 -0.023917509
-0.18581158 -0.037139885 -0.024539234
-0.17519982 -0.036132198 -0.022813236
-0.15096845 -0.030405505 -0.021868706
-0.14328 -0.032996349 -0.028458595
-0.13465242 -0.038908709 -0.020987105
-0.071621269 -0.033145547 -0.023426302
-0.068086483 -0.036030412 -0.02116026
-0.049096517 -0.031354807 -0.028381579
-0.038880434 -0.030665798 -0.022949368
0.043160524 -0.037429683 -0.028570121
0.052635923 -0.032825571 -0.027729101
0.065440238 -0.033994548 -0.02766918
0.085044578 -0.033543058 -0.024961969
0.12443322 -0.037783779 -0.026285097
0.14981456 -0.035092689 -0.024251275
0.2237505 -0.038668741 -0.02173217
-0.23288922 -0.029028047 -0.028204322
-0.1741903 -0.02590039 -0.02320298
-0.14091082 -0.029372767 -0.021330746
-0.11515535 -0.028294969 -0.024742905
-0.091016427 -0.025051849 -0.022024626
-0.089493245 -0.02865074 -0.025165705
0.090927184 -0.027762458 -0.020478174
0.15353391 -0.029335886 -0.021278568
0.20753956 -0.027603943 -0.020387281
0.22589731 -0.029183213 -0.020936204
-0.15991148 -0.018329764 -0.029278383
-0.26193994 -0.051216129 -0.011166699
-0.24965069 -0.0529171 -0.017765664
-0.21887317 -0.0529171 -0.017549619
-0.18651673 -0.0529171 -0.015776232
-0.10403204 -0.0529171 -0.015991844
-0.089457422 -0.0529171 -0.018657565
-0.075554177 -0.0529171 -0.019669911
-0.058451556 -0.0529171 -0.01968264
-0.042928103 -0.0529171 -0.013081962
-0.021981403 -0.0529171 -0.016961413
0.0030212398 -0.0529171 -0.015688898
0.032616377 -0.0529171 -0.012255011
0.066056632 -0.0529171 -0.017711865
0.093110628 -0.0529171 -0.012529474
0.10297886 -0.0529171 -0.01170107
0.1186447 -0.0529171 -0.019452639
0.12846866 -0.0529171 -0.015763156
0.19770338 -0.05233141 -0.010377087
-0.24759854 -0.044688508 -0.017167136
-0.22402275 -0.043944541 -0.0164316
0.19735208 -0.048858419 -0.01866235
0.23456302 -0.047954444 -0.01432481
0.25411642 -0.04440701 -0.017310001
0.29413676 -0.041555062 -0.014564481
-0.22921282 -0.035333652 -0.01181597
-0.21654125 -0.033409085 -0.016513301
-0.16791427 -0.035638023 -0.012614152
-0.15332203 -0.034866206 -0.011217332
-0.1491933 -0.035196848 -0.010209179
-0.12143372 -0.030847356 -0.011066007
-0.11954305 -0.031169195 -0.010388927
0.27029896 -0.035489544 -0.018668775
-0.2053593 -0.027180694 -0.012042832
-0.17969868 -0.02713054 -0.016746998
-0.10635595 -0.025270618 -0.016212767
-0.050492965 -0.024049327 -0.017362779
-0.044454444 -0.025499918 -0.019176845
-0.021929054 -0.026405431 -0.018595148
-0.011023275 -0.025565209 -0.017116752
0.098369204 -0.022934899 -0.016605824
0.13470927 -0.022054724 -0.015353167
0.18868054 -0.025004406 -0.018704511
0.23182368 -0.023814125 -0.01569486
0.083041787 -0.019819919 -0.012280597
0.12350466 -0.018774716 -0.010039548
-0.21535015 -0.0529171 -0.0034880883
-0.1820823 -0.0529171 -0.0073988838
-0.17153016 -0.0529171 -0.003763176
-0.15100451 -0.0529171 -0.0086266343
-0.083107747 -0.0529171 -0.00081353809
-0.053798296 -0.0529171 -0.0018193141
-0.046202511 -0.0529171 -0.0010654767
0.0089207226 -0.0529171 -0.00016855641
0.034800127 -0.0529171 -0.0029877671
0.040144425 -0.0529171 -0.0065462017
0.059195668 -0.0529171 -5.5747383e-05
0.079167768 -0.0529171 -0.0028020372
0.081649788 -0.0529171 -0.0070735398
0.10118634 -0.0529171 -0.0082081119
0.1800961 -0.0529171 -0.0037375446
0.21392031 -0.052475769 -0.0041627991
0.22508067 -0.051163368 -0.0089948811
0.23581775 -0.050712015 -0.0097180121
0.27900776 -0.05085431 -0.0029320051
-0.26458037 -0.047787271 -0.0048609441
0.30671629 -0.04943506 -0.0012438673
0.3164272 -0.046837959 -0.0056633153
-0.22475886 -0.03018905 -0.0010673946
0.33134806 -0.03906038 -0.00087387394
-0.20960195 -0.025850493 -0.0019275317
-0.19300784 -0.024764623 -0.009982585
-0.17664702 -0.021585219 -0.00025867281
-0.16181026 -0.020596296 -0.0045790235
-0.12524672 -0.019721361 -0.0092493966
-0.11754074 -0.017898472 -0.0017235156
-0.099558741 -0.017478563 -0.0042737373
-0.073016383 -0.017305622 -0.0052459612
0.04253773 -0.017264854 -0.004861671
0.05159254 -0.016958302 -0.0019707601
0.062966242 -0.017799623 -0.0071151862
0.081977934 -0.018378813 -0.008852466
0.096374005 -0.017867494 -0.0062380596
0.13801356 -0.01744158 -0.0060411524
0.18433966 -0.018193264 -0.0082959756
0.20117743 -0.01711989 -0.0034951903
0.21070664 -0.018399002 -0.0089130159
0.22525468 -0.01824731 -0.007779167
0.24535665 -0.019740909 -0.0083706835
-0.27011687 -0.0529171 0.001127106
-0.2331143 -0.0529171 0.0037527126
-0.21658573 -0.0529171 0.0021050263
-0.20628351 -0.052917104 0.0037122415
-0.16231462 -0.0529171 0.00032013233
-0.15369436 -0.0529171 0.001247804
-0.13135754 -0.0529171 0.0027349894
-0.12375733 -0.0529171 0.0036056128
-0.085592389 -0.0529171 0.0059709093
-0.073203832 -0.0529171 0.0083778026
-0.057183452 -0.0529171 0.0010951122
-0.043960169 -0.0529171 0.0067090592
-0.015761126 -0.0529171 0.008422656
0.017550485 -0.0529171 0.00093866233
0.15223899 -0.0529171 0.0017548652
0.18188669 -0.052917104 0.00012382229
0.21501052 -0.052404184 0.006365946
0.24843901 -0.05027277 0.009947231
0.27945134 -0.050830748 0.002967586
-0.26985735 -0.048167758 0.0022103777
0.29413205 -0.048310239 0.0083402703
-0.22825769 -0.03142136 0.0014028444
0.31191203 -0.031621058 0.0043024509
-0.19806796 -0.024056779 0.0054812436
-0.17178805 -0.02128078 0.0019103977
0.26010114 -0.020575557 0.0061467933
0.27541623 -0.022296354 0.001876147
0.29319751 -0.02681613 0.0059362734
-0.1565437 -0.019800244 0.0014634315
-0.11105467 -0.017485186 0.00013769927
-0.10291556 -0.018728673 0.0087287351
-0.095288642 -0.018042512 0.0072438037
-0.062559754 -0.018173659 0.0082366625
0.024053058 -0.018270319 0.0085266428
0.11466464 -0.017641816 0.0058130114
0.14371355 -0.017406717 0.0058870222
0.18426189 -0.018405665 0.0089325141
-0.26153269 -0.052915629 0.015741551
-0.23473673 -0.052917104 0.016531624
-0.14188929 -0.0529171 0.019623335
-0.13602905 -0.0529171 0.013398114
-0.0844087 -0.0529171 0.017143087
-0.053759418 -0.0529171 0.013366133
-0.038417745 -0.0529171 0.018512493
-0.0038000585 -0.0529171 0.016046826
0.039527856 -0.0529171 0.018775405
0.061267074 -0.0529171 0.013707329
0.10958912 -0.0529171 0.01421297
0.11880803 -0.0529171 0.019174857
0.17312637 -0.0529171 0.017603066
0.18601957 -0.052819453 0.016716022
0.19707274 -0.052088 0.013182465
0.20529105 -0.051473111 0.014519949
-0.2538068 -0.047892313 0.014492335
-0.24414521 -0.046149779 0.01447867
-0.23394547 -0.043559 0.015285564
-0.22734028 -0.0418538 0.015862951
0.25402248 -0.045090809 0.016664458
0.27538636 -0.048066512 0.011185452
0.28660089 -0.045925274 0.012386229
0.29320329 -0.04421597 0.013325693
-0.20459098 -0.032778013 0.018431636
-0.19365364 -0.032306463 0.019682163
-0.14591093 -0.032770935 0.012469724
-0.13152498 -0.031762265 0.011468679
0.25903162 -0.037872061 0.019796731
0.26422 -0.031128151 0.018515281
0.27444714 -0.032450594 0.017454021
0.28433898 -0.039699208 0.016490158
0.30556256 -0.032851368 0.010286478
-0.20715988 -0.029089211 0.014878433
-0.19137996 -0.029320527 0.018173393
-0.16690084 -0.024876298 0.014925962
-0.12298517 -0.025919855 0.017388407
-0.10110237 -0.0271172 0.012800304
-0.094894044 -0.023209691 0.016917482
-0.086046964 -0.022970999 0.017244471
-0.060346596 -0.025228089 0.01928583
-0.055865869 -0.022390945 0.015646122
-0.014315467 -0.024890251 0.018595697
0.0074067642 -0.021342957 0.014746364
0.073398277 -0.020177152 0.012858789
0.10072896 -0.025228135 0.018917773
0.13131371 -0.020856187 0.013958277
0.14381331 -0.024962664 0.018664721
0.15649559 -0.020294232 0.013048377
0.16045734 -0.025618814 0.019290177
0.19029123 -0.025300715 0.018986961
0.2115624 -0.024842501 0.01855018
0.041372728 -0.01877616 0.010043524
0.064714082 -0.019154202 0.011177227
0.16686313 -0.019373713 0.011557786
-0.2469923 -0.052915506 0.026838595
-0.22715643 -0.0529171 0.021048121
-0.18444003 -0.0529171 0.025483804
-0.14359394 -0.0529171 0.022980167
-0.12143959 -0.0529171 0.022330375
-0.094318591 -0.0529171 0.028779341
-0.013045393 -0.052917097 0.0260433
0.047739845 -0.0529171 0.027582783
0.059860978 -0.0529171 0.028379193
0.065850779 -0.0529171 0.025990814
0.089077406 -0.0529171 0.024363233
0.16593736 -0.0529171 0.023409244
0.17021734 -0.050108343 0.02705184
0.19180466 -0.051174425 0.024216304
0.16552401 -0.047689106 0.023527002
0.18096317 -0.048166737 0.027789008
0.19246015 -0.04281256 0.025012385
-0.25047359 -0.030882016 0.02941755
-0.233127 -0.036138125 0.023397621
-0.22683555 -0.03679055 0.024330804
-0.2145265 -0.033519097 0.021490581
-0.20942913 -0.033897892 0.020430945
-0.19557035 -0.037181146 0.02376119
-0.18515371 -0.03244023 0.021757459
-0.14115846 -0.035729099 0.023802204
-0.11130066 -0.036172088 0.022499548
-0.031870861 -0.030495934 0.027327742
0.0084353099 -0.032014109 0.029397758
0.029450245 -0.034660682 0.027576085
0.036776301 -0.035638135 0.028337963
0.068648607 -0.031584747 0.024341246
0.078445807 -0.030600285 0.023016971
0.085077181 -0.033322427 0.025235681
0.095854096 -0.038561013 0.029458404
0.10490645 -0.035946704 0.025735006
0.15701106 -0.037209548 0.025547367
0.17931783 -0.030238941 0.021743061
0.19331715 -0.033282701 0.022915531
0.20594519 -0.033646531 0.02253611
0.21275783 -0.037788562 0.022709645
0.23158932 -0.030883919 0.021336034
-0.21275118 -0.025850432 0.028125051
-0.17229484 -0.029374775 0.029635431
-0.1542441 -0.0287713 0.029481821
-0.14023788 -0.021362696 0.0297939
-0.13163424 -0.021166688 0.025943965
-0.10515312 -0.024043981 0.023082037
-0.099240802 -0.02665725 0.022767028
-0.078869998 -0.02980707 0.0248695
-0.06623181 -0.028790366 0.023548242
-0.053676613 -0.029421726 0.024759864
-0.016489238 -0.02985334 0.026519433
0.027948514 -0.02998022 0.024603184
0.030699002 -0.028833084 0.022915022
0.063847698 -0.028679287 0.021850135
0.19618137 -0.028388398 0.020790793
-0.14107648 -0.019738 0.026737915
-0.19491845 -0.0529171 0.039009143
-0.18373199 -0.0529171 0.038128451
-0.17922083 -0.0529171 0.036011547
-0.14623415 -0.0529171 0.034853611
-0.12411247 -0.0529171 0.035985284
-0.083822548 -0.0529171 0.033260576
0.0090686083 -0.0529171 0.030948235
0.034264725 -0.0529171 0.037513498
0.041315816 -0.052885793 0.038522705
0.062919036 -0.0529171 0.03120102
0.085626908 -0.0529171 0.030865356
0.12521043 -0.051669072 0.032582931
0.045175646 -0.041189875 0.03525304
0.056907002 -0.040674113 0.03236255
0.062841512 -0.041586328 0.039224077
0.089929625 -0.040589146 0.032203045
0.093229294 -0.042738777 0.039961349
0.10619954 -0.042407148 0.03642492
0.13983056 -0.043044351 0.032111503
0.16845478 -0.044469621 0.030435473
-0.15207984 -0.037861407 0.036477197
-0.14263217 -0.032607287 0.033792973
-0.020900194 -0.033087518 0.033880271
0.021548958 -0.035892647 0.037323616
0.084407553 -0.039295997 0.030246288
-0.25320959 -0.02579245 0.034231707
-0.16794838 -0.023224112 0.034628533
-0.087648116 -0.029669655 0.035732407
-0.18085058 -0.014183477 0.035312805
-0.16346347 -0.015852062 0.035941798
-0.23011233 -0.052908655 0.045664314
-0.22941798 -0.052859157 0.040545981
-0.21812904 -0.051709786 0.042407356
-0.14060497 -0.0529171 0.044188302
-0.13443089 -0.0529171 0.040713355
-0.11352414 -0.0529171 0.042176995
-0.10675474 -0.05290411 0.048259635
-0.087821081 -0.052892763 0.048772931
-0.061314322 -0.052898519 0.047802627
-0.037727073 -0.052912444 0.046504803
-0.016972438 -0.0529171 0.045090247
-0.0022273245 -0.052569687 0.047273796
0.014747808 -0.05182834 0.048546396
-0.20596197 -0.049598079 0.045899618
-0.18962741 -0.047133498 0.043149717
-0.16710454 -0.049703099 0.049177967
-0.15591238 -0.045230892 0.046169367
0.034545206 -0.04088125 0.046451475
0.055319961 -0.041440308 0.042160608
0.082040839 -0.049806982 0.042147867
0.093738444 -0.048872635 0.041064091
-0.13210401 -0.036276311 0.045305632
-0.12559153 -0.033597957 0.044531912
-0.10697254 -0.036133982 0.048517194
-0.095427543 -0.03278907 0.04543411
-0.060775042 -0.032847174 0.042787652
-0.056861758 -0.036147449 0.045850165
-0.029204881 -0.036286373 0.042825785
0.012015515 -0.038201444 0.045713656
0.026994854 -0.03867545 0.047338076
-0.25408792 -0.014509387 0.043757804
-0.24717879 -0.012716133 0.045597795
-0.22333486 -0.010588736 0.047713514
-0.20000026 -0.010403786 0.047001179
-0.23460293 -0.0068047824 0.04736311
-0.21712613 -0.0030698308 0.048623752
-0.21507552 -0.052913025 0.05240041
-0.19567561 -0.052915003 0.055557266
-0.18008526 -0.052916385 0.052230377
-0.17406337 -0.052480686 0.054829955
-0.16576432 -0.052871648 0.054356113
-0.15741697 -0.052826937 0.058256563
-0.13991511 -0.051092252 0.055847928
0.021637838 -0.050511774 0.054507572
-0.071945764 -0.042400576 0.05928313
-0.05923228 -0.040109366 0.051530618
0.025183087 -0.049093392 0.059311237
0.052286506 -0.045453519 0.052337851
-0.034714635 -0.038841274 0.052385189
-0.017759377 -0.038387377 0.055931136
-0.26410031 -0.0043042107 0.053233456
-0.25660193 -0.0047775586 0.052515462
-0.27405769 0.00056080427 0.057770878
-0.23255309 0.0036267722 0.059983023
-0.2184494 0.0038351538 0.059518352
-0.18227103 -0.052903831 0.066891983
-0.17164436 -0.052736893 0.069638208
-0.1523388 -0.052872043 0.064212605
-0.14868774 -0.052831873 0.06879086
-0.1006725 -0.051965963 0.064869426
-0.098507464 -0.051910833 0.064999141
-0.11500506 -0.047583103 0.062328912
-0.045912571 -0.041594416 0.065736517
-0.019408302 -0.040019102 0.065029711
0.016936297 -0.046845783 0.06428007
0.025200035 -0.048175432 0.060249951
-0.27554876 0.0084456848 0.065358832
-0.26471743 0.0058977921 0.062919833
-0.25126529 0.0073274625 0.063771769
-0.23171107 0.0064727608 0.062298238
-0.26178789 0.010911098 0.067142121
-0.18511236 -0.052710336 0.070231803
-0.1768235 -0.052663174 0.07113564
-0.16292894 -0.052628424 0.071767494
-0.15202734 -0.052267563 0.078917533
-0.13998656 -0.051205747 0.073120922
-0.074057564 -0.051006809 0.072530776
-0.054697867 -0.050741404 0.074053623
-0.11840598 -0.047892086 0.076903649
-0.10128161 -0.045778204 0.072641507
-0.068169959 -0.043149542 0.079667933
-0.043175865 -0.041943371 0.071617723
-0.030950485 -0.041111287 0.076478489
-0.021678165 -0.040996451 0.079118602
-0.012379685 -0.041344017 0.073402688
-0.2797676 0.015454814 0.071536623
-0.30197442 0.02002921 0.075901136
-0.24650589 0.020579923 0.073475063
-0.13586375 -0.051644817 0.08466205
-0.12465009 -0.051377431 0.084395394
-0.11818501 -0.051186509 0.084909499
-0.093418367 -0.050474491 0.088351846
-0.077843964 -0.050458852 0.085274853
-0.066996604 -0.050358348 0.085079901
-0.059597831 -0.050087299 0.089348808
-0.049127612 -0.050287984 0.082572684
-0.1274389 -0.048564564 0.085225105
-0.11128066 -0.04625427 0.085535109
-0.10391375 -0.045553502 0.080838703
-0.094222456 -0.044473577 0.085125759
-0.070704028 -0.043215964 0.082514405
-0.022764539 -0.041660942 0.083074875
-0.28183603 0.02974773 0.081202768
-0.30293304 0.033477373 0.087606922
-0.29497313 0.034876242 0.088485986
-0.27346376 0.03358572 0.086301461
-0.12877586 -0.050951049 0.094127588
-0.10376825 -0.050407793 0.092072681
-0.14344798 -0.0499628 0.096962884
-0.096885458 -0.044380888 0.094121829
-0.079066113 -0.04988775 0.097959146
-0.049884867 -0.049800113 0.093102708
-0.034473516 -0.047422186 0.099477202
-0.29865122 0.039382972 0.09057007
-0.32385063 0.042827614 0.095800072
-0.31862134 0.041147307 0.093940191
-0.29727247 0.041465104 0.094014138
-0.11699115 -0.050187707 0.10221012
-0.12461057 -0.046494409 0.10813773
-0.053022213 -0.041663609 0.10222511
-0.045101546 -0.048805393 0.10172644
-0.039432205 -0.042744182 0.10102407
-0.31921896 0.050357357 0.10234279
-0.14480114 -0.050068527 0.11772394
-0.11983386 -0.045252845 0.11589536
-0.10519713 -0.046785824 0.11372611
-0.084201664 -0.047524791 0.11705819
-0.073453687 -0.048857536 0.11879095
-0.068143949 -0.048892483 0.11676677
-0.054947644 -0.042531285 0.11230832
-0.1421323 -0.049209617 0.12891795
-0.11721399 -0.049002793 0.1245482
-0.086828418 -0.048761997 0.1239033
-0.079945989 -0.042629831 0.1230015
-0.06589324 -0.047202624 0.12582079
-0.13536084 -0.047044054 0.13568048
-0.12423321 -0.047936581 0.13921614
-0.1126935 -0.043557972 0.13481542
-0.10807739 -0.047888916 0.13775696
-0.085495837 -0.044968903 0.13462122
-0.070197061 -0.044519503 0.13437398
-0.15431391 -0.047926765 0.14681301
-0.14617738 -0.045525242 0.1443367
-0.13425034 -0.043718316 0.14719003
-0.12435415 -0.047792118 0.14106664
-0.080745421 -0.043444049 0.14340927
-0.15203241 -0.043564886 0.16420789
-0.17234318 -0.044558704 0.17747533
-0.13244434 -0.040991589 0.17807546
-0.12483861 -0.04504792 0.17584066
-0.18587679 -0.045234628 0.18547164
-0.16061874 -0.044485837 0.18794599
-0.158804 -0.043021046 0.18762007
-0.14549814 -0.040766247 0.18815382
-0.12410713 -0.042913109 0.18380122
-0.1198068 -0.041367002 0.18022272
-0.18471022 -0.044062883 0.1960043
-0.17943297 -0.044572715 0.19197957
-0.16669677 -0.041527763 0.19259788
-0.15483049 -0.040658846 0.19469219
-0.13191722 -0.043085571 0.19417204
-0.18460858 -0.042570896 0.2040565
-0.17109884 -0.043534957 0.20174244
-0.15155739 -0.042963773 0.20653415
-0.20355564 -0.042849109 0.21877663
-0.14785165 -0.04155276 0.21303959
-0.18198445 -0.039875008 0.21850689
-0.16126381 -0.039436769 0.21099389
-0.14714512 -0.039966397 0.21532466
-0.19522601 -0.041818351 0.22180963
-0.17844748 -0.041521989 0.22899944
-0.18626127 -0.039637215 0.2234361
-0.16312271 -0.0386451 0.22020827
-0.21120636 -0.041788135 0.23088849
-0.17776842 -0.04053092 0.23784822
-0.1681525 -0.041289233 0.23055586
-0.1834141 -0.038335759 0.23393261
-0.21779773 -0.03985044 0.24840382
-0.18537654 -0.036549021 0.24673164
-0.17655198 -0.036421686 0.24677399
-0.21138975 -0.03664694 0.25652611
-0.20422465 -0.038781699 0.25436121
-0.19302306 -0.037376352 0.2541281
-0.2172032 -0.036644109 0.26041007
-0.20752391 -0.034705829 0.2675907
-0.23211353 -0.036241461 0.27427152
-0.22673357 -0.036336996 0.27660131
-0.20378976 -0.034900729 0.27433217
-0.24299768 -0.035639569 0.28501889
-0.23240641 -0.034597035 0.2809065
-0.21513395 -0.0354174 0.28277999
-0.20644802 -0.033481456 0.28543192
-0.22485381 -0.032004453 0.29240295
-0.25655663 -0.033146605 0.30423808
-0.23341706 -0.030831475 0.3033095
-0.22187677 -0.030124847 0.30367738
-0.21736419 -0.030686531 0.30931181
-0.25592995 -0.031509146 0.31868953
-0.23014763 -0.031596638 0.31530964
-0.2395843 -0.029805228 0.31233692
-0.27016971 -0.030997362 0.32530689
-0.24651624 -0.03107786 0.32097486
-0.23874442 -0.028231427 0.32236552
-0.27120423 -0.029779082 0.33007473
-0.28064865 -0.028237484 0.3481923
-0.26337165 -0.028727619 0.34167373
-0.24700803 -0.025577061 0.34536195
-0.28409016 -0.027472813 0.35463458
-0.27335721 -0.027631663 0.35150063
-0.26577377 -0.027386576 0.3528921
-0.31478375 -0.025752041 0.36381298
-0.30386421 -0.025515638 0.36363268
