# .PCD v0.7 - Point Cloud Data file format
VERSION 0.7
FIELDS x y z
SIZE 4 4 4
TYPE F F F
COUNT 1 1 1
WIDTH 853
HEIGHT 1
VIEWPOINT 0 0 0 1 0 0 0
POINTS 853
DATA ascii
0.10988922 0.039601699 -0.36448759
0.11575574 0.039617714 -0.36515319
0.045971658 0.038872965 -0.35009909
0.083359569 0.039601699 -0.35600537
0.099379689 0.036802575 -0.35172966
0.059931364 0.040468197 -0.35411927
0.087096788 0.041273747 -0.3521834
0.097662553 0.0410241 -0.35613599
0.10908967 0.04046284 -0.3544938
0.11293553 0.040221371 -0.35542452
0.10751873 0.037930835 -0.34700647
0.070639603 0.041031346 -0.34971336
0.087295808 0.041328136 -0.34318939
0.049551323 0.039736252 -0.33149612
0.061579391 0.039601699 -0.33256584
0.072415486 0.036090896 -0.33083248
0.11015402 0.039601699 -0.33864871
0.12364209 0.039601702 -0.33273894
0.10995533 0.040731445 -0.338254
0.04689955 0.039431583 -0.32254982
0.054809459 0.037530392 -0.32129744
0.079142958 0.036416337 -0.32077819
0.056198113 0.039601699 -0.31122464
0.08762221 0.039601699 -0.31885397
0.10015509 0.03718866 -0.31458241
0.039061047 0.037654523 -0.30733913
0.04083737 0.038119074 -0.3055743
0.075940587 0.039601699 -0.30817774
0.092762753 0.041533019 -0.30333328
0.12207066 0.040245134 -0.30366066
0.05041942 0.039981224 -0.29054552
0.12477098 0.037799288 -0.29565245
0.13070308 0.039601699 -0.29557568
0.063767187 0.040895913 -0.29803589
0.08236555 0.041585449 -0.29120025
0.03913388 0.036688723 -0.28859895
0.045341384 0.035638336 -0.28279752
0.050065909 0.039975502 -0.2844893
0.062206101 0.039601699 -0.28390867
0.075796694 0.036624268 -0.28759861
0.088947885 0.037064362 -0.28819072
0.099659845 0.037204482 -0.28166112
0.10137172 0.037182759 -0.28255132
0.1236562 0.038259543 -0.28528085
0.055385187 0.040384911 -0.28905618
0.095270813 0.041607104 -0.2843385
0.1095583 0.041270696 -0.28014365
0.062910199 0.039601699 -0.27193862
0.072257146 0.039601699 -0.27514941
0.093042724 0.037281185 -0.27651435
0.05766046 0.040611353 -0.27168712
0.062993675 0.04092196 -0.27876666
0.1117617 0.04122676 -0.27556401
0.061260305 0.036367245 -0.26325777
0.10495079 0.039601699 -0.26985165
0.051617254 0.040208001 -0.26096451
0.11251698 0.041476257 -0.26404372
0.036785048 0.037283055 -0.25731087
0.11198886 0.039601699 -0.2529918
0.12267412 0.036763817 -0.25867766
0.13604379 0.039925184 -0.25029746
0.083733886 0.041784592 -0.2540544
0.046882235 0.036093831 -0.24116363
0.087563232 0.039601699 -0.24190232
0.12231149 0.041029781 -0.24304283
0.043521225 0.039601702 -0.23166713
0.1406865 0.039750233 -0.23649937
0.043842152 0.039601699 -0.22524537
0.067470998 0.038286727 -0.22671634
0.078249767 0.039601699 -0.22651786
0.083962798 0.039601699 -0.22272308
0.11912231 0.036656383 -0.22098917
0.12512018 0.03656745 -0.22110882
0.13107659 0.036512189 -0.22897121
0.064612627 0.041190416 -0.22873269
0.074775964 0.041650757 -0.22863023
0.061341379 0.039601699 -0.21598648
0.083036155 0.039601699 -0.21200809
0.13659391 0.039601699 -0.21338956
0.058791298 0.040912494 -0.21204121
0.068398319 0.041447721 -0.2139855
0.12346343 0.041335288 -0.21096593
0.034043994 0.036972247 -0.2053715
0.079003058 0.037202239 -0.20883557
0.10709971 0.039601699 -0.20097026
0.11851881 0.037766717 -0.20378405
0.036968604 0.036613919 -0.19605976
0.041205823 0.036396246 -0.19007306
0.11231879 0.036640082 -0.19337347
0.057422832 0.040865231 -0.19846489
0.08319667 0.042020194 -0.19591516
0.096356004 0.042198904 -0.19175127
0.10575372 0.042120583 -0.19132976
0.041129407 0.039601699 -0.18030606
0.060571898 0.037136514 -0.18142571
0.089958534 0.039601699 -0.18923739
0.13685079 0.036226802 -0.18213442
0.045361247 0.038134135 -0.17466375
0.074772954 0.038326282 -0.17655
0.097930931 0.03679521 -0.179416
0.12863971 0.039601699 -0.17476799
0.13178325 0.039601699 -0.17858553
0.066846162 0.039601699 -0.16225486
0.13822116 0.039601699 -0.16975348
0.11406796 0.042148314 -0.16203484
0.073307738 0.038339585 -0.15580824
0.12266769 0.03632411 -0.15534347
0.13671696 0.036130838 -0.15912265
0.057725653 0.041057028 -0.15243764
0.03954912 0.039601699 -0.14635232
0.099931806 0.039601699 -0.14634477
0.12171568 0.037954502 -0.1479947
0.13622524 0.03607206 -0.14359447
0.1577455 0.039771058 -0.14588432
0.059088252 0.041190565 -0.14257202
0.10499297 0.042451985 -0.14011301
0.11315016 0.042267248 -0.14935865
0.12142456 0.042081393 -0.144482
0.072293535 0.036969095 -0.13054845
0.11293758 0.036383778 -0.13528749
0.12946664 0.037073653 -0.13784978
0.057116054 0.04109614 -0.13012208
0.12790397 0.041880324 -0.13863127
0.14172755 0.024165554 -0.12153219
0.03144538 0.037941806 -0.12284715
0.068341807 0.037024092 -0.12966639
0.11745346 0.039601699 -0.1293923
0.12630607 0.039601699 -0.12555757
0.056502439 0.041069102 -0.12561554
0.069395423 0.041826583 -0.12483963
0.080857217 0.042255476 -0.12785871
0.097845361 0.042559907 -0.12376799
0.13386303 0.041742291 -0.12476882
0.034353554 0.037860997 -0.11459357
0.061842378 0.039601699 -0.11696018
0.074825019 0.039601699 -0.11511168
0.098543108 0.038040195 -0.11086489
0.10223392 0.039601699 -0.11248079
0.11728612 0.039601699 -0.11152935
0.15976992 0.035603769 -0.11597223
0.091120645 0.042564094 -0.11249329
0.15027547 0.04083173 -0.1170958
0.16128153 0.040021893 -0.11227477
0.049911931 0.039601699 -0.10542408
0.11062534 0.036286324 -0.10432944
0.1229766 0.036120243 -0.10854162
0.16426954 0.035500094 -0.10736151
0.066316828 0.041710321 -0.10967532
0.06574852 0.039601699 -0.094920762
0.11836901 0.039601699 -0.098619498
0.1290293 0.035971932 -0.094880216
0.15323664 0.039601699 -0.099041611
0.04227785 0.040073618 -0.096901238
0.12413359 0.042437527 -0.093215659
0.027035307 0.037320241 -0.082413584
0.034353513 0.0391519 -0.082068637
0.084424332 0.036578298 -0.081219852
0.11715386 0.039601699 -0.08908733
0.14566985 0.035703041 -0.089947686
0.1645025 0.035383802 -0.080858566
0.096015319 0.042722821 -0.08890824
0.11209812 0.042735167 -0.085571975
0.13136928 0.042244162 -0.085544772
0.0428393 -0.064750083 -0.070342943
0.17471123 -0.0051053441 -0.074319161
-0.30932534 0.0044460008 -0.075961366
-0.27734897 0.0045791054 -0.070070572
0.029910028 0.038116135 -0.075839177
0.047756694 0.037079692 -0.070667014
0.067611367 0.039601699 -0.075650431
0.14565176 0.037625816 -0.073289067
0.15601443 0.037541971 -0.074125454
0.16420524 0.035378329 -0.078532897
0.066403225 0.041851729 -0.071450725
0.12961271 0.042395495 -0.076869011
0.043704592 -0.073548749 -0.065460183
0.044893235 -0.067844063 -0.063873231
0.055961128 -0.063437529 -0.068618201
0.065330386 -0.06114186 -0.066367313
0.019887999 -0.059792504 -0.065714031
0.038974844 -0.0597925 -0.065017819
0.046883363 -0.056681402 -0.065725304
0.054949977 -0.059251793 -0.06836167
-0.26762754 0.0082066385 -0.068249181
0.095689461 0.039601699 -0.061912075
0.12035062 0.039601699 -0.061728977
0.15755399 0.039601699 -0.063122347
0.16208163 0.035351723 -0.064847946
0.16524297 0.040452626 -0.065616481
0.025555819 -0.062868811 -0.055603825
0.049268469 -0.059994359 -0.057291083
0.050172791 -0.051498622 -0.053393118
0.041622005 -0.04478031 -0.05212567
0.024388211 -0.031817928 -0.052177086
0.057721689 -0.035645187 -0.050626785
0.16606668 -0.036864944 -0.050132755
0.17883812 -0.034649223 -0.050295092
-0.020408794 -0.021263186 -0.055490717
0.037969671 -0.02788447 -0.053770434
0.041515857 -0.025503375 -0.054262474
0.09749043 -0.022054102 -0.055669185
0.15481339 -0.023863913 -0.055399023
0.18788411 -0.02271831 -0.055462141
0.046435088 -0.018517636 -0.054871216
0.076842338 -0.014719149 -0.054014131
0.084927686 -0.017339678 -0.054605424
0.20147777 -0.012243294 -0.051261064
0.12418153 -0.0045643235 -0.051722571
0.161759 -0.0036052456 -0.051506191
0.18986741 -0.0012006799 -0.050963741
0.19677265 -0.0035130063 -0.050514895
-0.31004766 0.0067317998 -0.055131864
-0.29578033 0.0098643498 -0.052813075
-0.28611329 0.0098643498 -0.057437498
0.12344481 0.039601699 -0.055683374
0.1319682 0.039601699 -0.058615983
0.15861133 0.035382599 -0.059954569
0.17466114 0.03980517 -0.055221438
0.056381851 0.041325148 -0.054060936
0.1107223 0.042957235 -0.051639047
0.04664382 -0.051405761 -0.042757954
-0.0045666322 -0.043907329 -0.04611925
0.011192843 -0.046239592 -0.041467696
0.047053937 -0.04620719 -0.041920744
0.095006496 -0.046619333 -0.040710304
0.11326907 -0.043399557 -0.047132038
0.17519595 -0.044366792 -0.042962879
0.047914758 -0.038112007 -0.048473995
0.18332671 -0.03674496 -0.047744825
0.21408287 -0.035402294 -0.040335082
0.23387164 -0.034610402 -0.040005602
-0.077216335 -0.021856232 -0.04996511
0.21867564 -0.019067021 -0.046991687
0.24344948 -0.017312104 -0.040238582
-0.057340518 -0.0019472641 -0.049295016
0.19316201 -0.007454522 -0.046417262
0.22862652 -0.0093614273 -0.043810524
-0.30473131 0.0049601682 -0.048045427
-0.29459456 0.0033686301 -0.046261448
-0.052065779 0.0035550511 -0.048986953
-0.034600712 0.004847534 -0.049598895
0.045485541 0.0048198793 -0.049605161
0.073504269 0.0035086859 -0.049901076
0.13025713 0.005213812 -0.049516231
0.14308409 0.0066517335 -0.049191721
0.16816288 0.0076299729 -0.048970953
0.17517686 0.0096197519 -0.04611636
0.18339142 0.007988736 -0.048889987
0.21230268 0.0049409312 -0.044511843
0.22214217 0.0065882746 -0.044723473
-0.032317393 0.015822422 -0.045909297
-0.028767442 0.017489554 -0.045602541
0.047310501 0.014306564 -0.047009654
0.08839114 0.011665868 -0.045445081
0.117835 0.01515507 -0.046731178
0.18893656 0.010253754 -0.048338991
0.20217362 0.015721463 -0.046366483
-0.014819538 0.023338431 -0.042711467
-0.0099387467 0.022418723 -0.044348348
0.02009251 0.029974692 -0.04186954
0.11428986 0.021140115 -0.044767749
0.19312379 0.025331825 -0.04269119
0.10393009 0.036089301 -0.043669708
0.12426089 0.035825346 -0.043744616
0.16286349 0.037422072 -0.044448331
0.17291225 0.035086267 -0.040385917
0.077237844 0.042430874 -0.047277063
0.10182227 0.043017291 -0.040078282
0.11664842 0.042936925 -0.047363702
0.16656291 0.040614314 -0.048188172
0.044469081 -0.050214034 -0.033540994
0.083810493 -0.050392922 -0.033184212
0.027470555 -0.048873104 -0.036215365
0.08087948 -0.049568921 -0.03482759
0.13301975 -0.047640316 -0.038674057
0.19236428 -0.046529174 -0.033580609
-0.12389986 -0.031679943 -0.030476961
0.22969133 -0.038589656 -0.035195492
0.23034802 -0.033908751 -0.036918588
-0.16538146 -0.025478214 -0.030005775
-0.11511654 -0.026189994 -0.038761627
0.26128516 -0.020634392 -0.035615627
-0.16900729 -0.010206313 -0.030698096
-0.13763575 -0.011495191 -0.036887113
0.23386261 -0.010103105 -0.039019722
0.18667901 -0.0033335977 -0.034073975
0.24860352 -0.001177727 -0.03551051
0.26308629 -0.0046452726 -0.030333098
-0.29868385 0.0052917227 -0.038777709
-0.13912277 0.0054327222 -0.033008702
-0.11102642 0.0089568188 -0.037226848
0.24600831 0.0013348676 -0.038579535
0.2043104 0.012054527 -0.036656089
0.19241136 0.026311796 -0.034252781
0.023051323 0.037381086 -0.037009306
0.035240784 0.039450184 -0.036540948
0.051592946 0.034673166 -0.039285287
0.083568245 0.0349821 -0.039194487
0.12150712 0.0349821 -0.038853411
0.13557464 0.0349821 -0.039051414
0.16057669 0.034813292 -0.039712474
0.17588924 0.037973601 -0.036504757
0.18268555 0.036852621 -0.039329685
0.13766713 0.042436957 -0.033038199
-0.0096840989 -0.051703606 -0.021050798
0.017631313 -0.053981394 -0.023652151
0.03032713 -0.052694701 -0.028316908
0.04999328 -0.055340081 -0.021204829
0.069752857 -0.052900128 -0.028019734
0.087388262 -0.052694701 -0.027277522
0.094742551 -0.054526992 -0.02347583
0.12051179 -0.052738611 -0.028470855
0.17076099 -0.050858766 -0.026556002
0.20823961 -0.051045064 -0.020179974
-0.042668004 -0.047827803 -0.026013127
0.20509741 -0.040582143 -0.028269652
0.22785938 -0.045608044 -0.029390821
0.23535116 -0.045648612 -0.027847141
0.28167552 -0.045391977 -0.021476828
0.29766858 -0.042477898 -0.02118337
-0.16501945 -0.030895457 -0.023557452
-0.091584265 -0.038914617 -0.02795258
0.28795052 -0.036253065 -0.022671584
-0.17083433 -0.029836297 -0.023719758
-0.16202144 -0.028188942 -0.027387008
0.30124795 -0.026065836 -0.021894585
-0.1787858 -0.016403478 -0.02973989
-0.15570293 -0.010977926 -0.028252305
0.30571488 -0.019899314 -0.020461636
-0.21244702 -0.0085214917 -0.022143271
-0.17717984 -0.0087104859 -0.020025436
-0.16995686 -0.0043745097 -0.029658454
-0.15780649 -0.0020822424 -0.021086533
-0.11376588 -0.00813221 -0.025532976
0.18868285 -0.00336796 -0.026151111
-0.296157 0.0089994855 -0.023500673
-0.10371318 0.0036537871 -0.026145484
0.20828772 0.0097626857 -0.023293484
0.23274818 0.006213503 -0.021130569
-0.136026 0.01399496 -0.021592055
0.19434194 0.024219483 -0.025280055
0.015519095 0.036060296 -0.028405543
0.03276718 0.039601699 -0.021958226
0.051007047 0.039601699 -0.028044831
0.12894084 0.039601699 -0.025002452
0.16295834 0.039648909 -0.0277371
0.17396362 0.039601699 -0.027803067
0.1806003 0.035705648 -0.020399639
0.13147801 0.042681452 -0.029862165
0.22787787 -0.065469384 -0.01079662
-0.014062461 -0.052327421 -0.010902924
0.026136512 -0.057547987 -0.011626121
0.068809807 -0.057791896 -0.01195313
0.081785813 -0.052694701 -0.012810568
-0.060293239 -0.047388084 -0.018248674
0.25906619 -0.049537346 -0.011860873
-0.1570036 -0.033043437 -0.011258983
-0.14575696 -0.035120759 -0.013270695
0.28376627 -0.0227881 -0.013264058
0.24609837 -0.010392513 -0.015605229
0.26430935 -0.010659336 -0.017767282
-0.12329929 -0.0052675288 -0.012587047
-0.10914585 -0.0081149507 -0.012959595
-0.099673174 -0.0026410429 -0.010306473
0.17928383 -0.0092518218 -0.012181067
0.19111383 -0.0094717154 -0.013057941
0.24439444 -0.0043243254 -0.017326992
-0.29714853 0.0077525899 -0.017669396
-0.28907216 0.0030920384 -0.010554534
-0.25403458 0.0033686301 -0.012882359
-0.23524457 0.0098643498 -0.015239148
-0.22013873 0.00084984023 -0.019293819
-0.093253762 0.00441613 -0.01019241
0.20509128 0.0091640549 -0.011017019
0.23053324 0.0065348879 -0.019830942
-0.26192671 0.013795164 -0.012352859
-0.16951242 0.013873311 -0.016139792
-0.090090349 0.011864805 -0.015809434
-0.088593625 0.011795398 -0.018436702
-0.24802677 0.024179215 -0.012916919
-0.25642735 0.038970821 -0.010621253
0.024285663 0.038836133 -0.011725034
0.0431794 0.039601699 -0.014782814
0.056897674 0.039601699 -0.015708135
0.060860287 0.039601699 -0.012286769
0.093820415 0.039601699 -0.015799182
0.043898717 0.040455878 -0.015505086
0.11669184 0.042990439 -0.018114412
0.14443968 0.042157013 -0.018534426
0.17457519 0.040087238 -0.014455768
0.2237162 -0.075361416 -0.00485588
0.215322 -0.064674199 -0.0067613511
0.22740518 -0.063329197 -0.0038588054
0.23381534 -0.060368598 -0.0047411704
0.24672925 -0.067341715 -0.0026601269
-0.012615062 -0.052477792 -0.0075096316
0.02638888 -0.0577919 -0.0094265044
0.0545284 -0.055243302 -0.0046221041
0.07065957 -0.0577919 -0.0031337349
0.10324246 -0.052694701 -0.0087612439
0.18822409 -0.052694701 -0.0098303193
0.23311168 -0.051185489 -0.0019250091
-0.11259796 -0.041245438 -0.0085497256
-0.096958622 -0.043715298 -0.0031254576
0.26912314 -0.048898663 -0.0061016441
0.27952093 -0.047301762 -0.0021192511
-0.16620004 -0.031344794 -0.005855103
-0.15141928 -0.034074895 -0.0051381956
0.28757441 -0.0227881 -0.0035021855
0.30237916 -0.0227881 -0.0070351399
0.31705743 -0.0227881 -0.0075603081
0.3179681 -0.012496238 -0.0011163127
-0.25235423 -0.0022368731 -0.0040859617
-0.1768623 -0.0087043028 -9.4648916e-05
-0.10392267 -0.003223985 -0.0063807284
0.17550844 -0.0091817658 -0.0032866001
0.26946363 -0.0048733316 -0.00065456494
0.29949498 -0.0064608264 -0.0061916965
-0.17544073 0.0076203737 -0.004873273
-0.15495932 0.0049261684 -0.0025699069
-0.11655679 0.0014221859 -0.0055020116
0.21110106 0.0093544899 -0.0060755853
-0.31141803 0.010734472 -0.0048446571
-0.30222583 0.017542638 -0.0084478464
-0.22232468 0.017609136 -0.0082713449
-0.21009547 0.015466131 -0.0047085281
-0.20867328 0.015240344 -0.0044635218
-0.16473274 0.015326167 -0.0092686834
-0.15838256 0.015031693 -0.0074271695
-0.12771672 0.013609638 -0.0025400287
-0.10711536 0.012654299 -0.0032733225
-0.074397877 0.011137104 -0.0034583854
-0.041873123 0.01199421 -0.0043804687
-0.24120145 0.027842488 -0.0073074829
-0.23489878 0.025184982 -0.0097476905
-0.21243155 0.02497666 -0.0016056951
-0.23477405 0.032422192 -0.006937684
0.034382951 0.039601699 -0.0063247201
0.055244029 0.039601699 -0.0016810652
0.13655318 0.039601699 -0.0010488912
-0.32016999 0.0469983 -0.0045577404
-0.23854974 0.042893123 -0.0042159217
0.10365699 0.040573865 -0.0018644249
0.16488056 0.04088195 -0.0098482221
-0.32185736 0.05358303 -0.0017059022
-0.30252561 0.052861661 -0.0075087673
-0.27703348 0.050306905 -0.0053292573
-0.26569137 0.05514821 -0.0081105158
-0.2557998 0.052990455 -0.0062139705
-0.25925079 0.062589362 -0.0021368822
-0.31671086 0.075286545 -0.0049708099
-0.29040176 0.079154797 -0.0039274804
0.21464208 -0.065988556 0.0049566282
0.2342947 -0.061980218 0.0025247918
0.25193486 -0.066037737 0.00054340821
-0.030962233 -0.050571695 0.0085178772
0.0058295717 -0.052694701 0.0037388802
0.01675169 -0.057258427 0.0065751122
0.059546225 -0.052694701 0.0093750115
0.10482165 -0.052694701 0.0017688124
0.14960627 -0.05604893 0.0073648863
0.18242961 -0.054537572 0.0055782758
-0.043454878 -0.049273826 0.0043846769
0.22694488 -0.046792474 0.0019699973
0.26028973 -0.049459621 0.0014838246
0.28175032 -0.046834182 0.0088466508
-0.15505682 -0.033403017 0.009305099
0.27649149 -0.0227881 0.0030786032
0.30509266 -0.0227881 0.0080717579
-0.22557162 -0.012743056 0.0019397987
0.32664865 -0.017981686 0.0017519449
-0.24186724 -0.003827129 0.0066602016
-0.190364 -0.0076591875 0.004498424
-0.17905945 -0.0087104868 0.0041132355
-0.12154281 -0.008146992 0.0091511374
0.17373291 -0.0031111455 0.0090810023
0.20403178 -0.0097120665 0.0027522948
0.2379334 -0.0042226878 0.0072377352
0.25154847 -0.0016874557 0.0096351551
0.28706199 -0.0072021205 0.0044243447
0.29583633 -0.0052655283 0.0058589284
-0.28457251 0.0098643498 0.0050633932
-0.27661943 0.0098643498 0.0013128032
-0.25974271 0.0098643498 0.0078142472
-0.18672758 0.007817382 0.0025747281
-0.17144352 0.0021451905 0.0020558983
-0.16659993 0.0074661146 0.0021543643
-0.10610354 0.0036955527 0.0022989481
-0.092070445 0.0058692168 0.00084731914
-0.045475911 0.0079787048 0.0066420087
0.22477001 0.0073711309 0.0055027283
-0.31682479 0.019988324 0.00021996163
-0.28467634 0.016360005 0.0063837222
-0.21647608 0.019490737 0.001914088
-0.17531422 0.015816858 0.00088844466
-0.16196977 0.01519804 0.0034238365
-0.076397046 0.011229811 0.0066785445
0.20411545 0.012893531 0.0058649741
-0.26693079 0.022180326 0.0079106214
-0.25094646 0.038679175 0.00035602273
0.012510611 0.03479844 0.0061321044
0.078425325 0.039601699 0.0074005248
-0.2987766 0.045550365 0.0042984802
-0.30775836 0.054474991 0.0032195442
-0.30419722 0.064219028 0.0018308964
-0.022590645 -0.051076435 0.012993181
0.039021894 -0.052694701 0.016181782
0.10381934 -0.052694701 0.010642656
0.14337732 -0.054324586 0.015367259
0.15925984 -0.052694701 0.013539985
0.18802701 -0.052323744 0.014313163
0.24818458 -0.050228305 0.011450759
0.26603323 -0.047202829 0.01700145
0.27310058 -0.048646081 0.014185429
0.2938484 -0.034778692 0.017157398
0.30353585 -0.036103353 0.014838193
0.27611238 -0.022788102 0.018748894
0.30763501 -0.025457814 0.015133425
0.24268427 -0.010430686 0.010952244
0.25363249 -0.010629026 0.011978195
0.26251945 -0.010769702 0.01328616
-0.15738781 -0.0028859321 0.013111673
0.16877039 -0.0090567078 0.010630371
0.25955743 -0.0029192511 0.010225439
0.29665148 -0.0055319956 0.011292862
0.30386141 -0.0078877369 0.013663926
-0.27560526 0.0067499671 0.014721109
-0.24577084 0.0098643498 0.01728005
-0.20537448 0.0024490622 0.018098556
-0.1760779 0.01274738 0.01414383
-0.16045389 0.012470348 0.017655827
-0.15280992 0.014773275 0.010042426
-0.14993629 0.012820866 0.018622428
-0.054336697 0.010206816 0.015529811
-0.022873636 0.019961156 0.016704092
0.20433326 0.012914021 0.014339291
0.0097477799 0.033640061 0.014779169
0.047776774 0.039601699 0.018185586
0.097736821 0.039601699 0.017765813
0.13866055 0.039601699 0.019292794
0.14890274 0.039601699 0.01995752
0.17732207 0.039249096 0.011610506
0.090976931 0.042875983 0.015547139
0.11528857 0.043001551 0.018150676
0.12101425 0.042929329 0.014407512
0.012048686 -0.052694701 0.024488699
0.060427111 -0.052853506 0.024396755
0.098194517 -0.050934963 0.02834977
0.12402199 -0.053304024 0.023099739
0.13482969 -0.051878456 0.025742033
-0.071308002 -0.041428033 0.02966477
-0.056289531 -0.045382254 0.026013199
-0.013951366 -0.049711909 0.026069945
0.1783735 -0.049781479 0.023329662
0.25650886 -0.043738764 0.025431391
0.2663621 -0.043803453 0.023364659
-0.11928734 -0.032889046 0.026151229
-0.10339627 -0.033271413 0.028730068
0.27562034 -0.034187559 0.024167484
0.28166384 -0.026039032 0.025314016
-0.16960016 -0.012649976 0.027191037
-0.14410299 -0.010928054 0.022949457
-0.12998226 -0.010883699 0.020789478
0.23297414 -0.010250449 0.029649438
0.25600564 -0.010678556 0.028073879
-0.16473618 -0.0099545419 0.020663157
-0.15943399 -0.0015139519 0.021575689
-0.12521444 -0.006666074 0.026073564
-0.10349722 -0.0023784095 0.020971114
0.16970438 -0.0076434966 0.028457135
0.18027265 -0.0032233568 0.021160828
0.19095546 -0.009469334 0.027132822
0.24693641 -0.0044743693 0.020068951
0.26670578 -0.0049371906 0.027680477
0.27850503 -0.00070841552 0.021450879
-0.18418196 0.002270872 0.021924842
0.25530422 0.0029406222 0.029206969
0.26366228 0.001727873 0.027879741
-0.11608297 0.01083257 0.029844416
-0.085754164 0.011663726 0.026338371
-0.072942175 0.0110696 0.024834244
-0.054105617 0.010196101 0.026410207
0.0068684039 0.032432832 0.020244487
0.1615556 0.039601699 0.026197551
0.041604601 0.040017329 0.029992636
0.073239252 -0.050074521 0.030065764
-0.0083233789 -0.045177832 0.039832182
0.00789061 -0.048946097 0.03231664
0.028426554 -0.045576129 0.039037805
0.042915151 -0.048653606 0.032899693
0.086419202 -0.048802022 0.032603826
0.16210154 -0.047929704 0.031664439
0.17088141 -0.045345116 0.037275426
-0.091339603 -0.032740366 0.031674583
0.20228152 -0.037130404 0.034855023
0.215994 -0.038009532 0.034396697
0.24402633 -0.031375483 0.035690863
0.2444693 -0.024074521 0.036210824
0.25967729 -0.024872549 0.032182645
-0.12276709 -0.016122218 0.036657877
-0.11173381 -0.012538817 0.03823173
0.24954854 -0.017638488 0.034862526
-0.11381687 -0.0011349622 0.0352685
0.23835102 -0.0043334085 0.030505201
-0.26918948 0.0042445958 0.035065863
-0.25508553 0.0092084333 0.039248884
-0.2444393 0.0055869208 0.030460592
-0.096399456 0.0015206914 0.030503746
-0.074993938 0.00868834 0.039971482
-0.030326456 0.01683606 0.032847654
-0.021817127 0.020024795 0.039122757
-0.00066874921 0.028293062 0.038638137
0.078377008 0.025090521 0.039284341
0.19563533 0.022817884 0.035236578
0.028958621 0.035913698 0.039456099
0.082195155 0.034375906 0.037409965
0.15398669 0.037151545 0.038875349
0.17349388 0.033905253 0.039675221
0.18006274 0.037093516 0.037765831
0.042513572 0.040335007 0.036455382
0.050167594 0.040939301 0.035091773
0.11546247 0.040219951 0.038711499
0.14461452 0.042147331 0.035544075
0.043356482 -0.055550814 0.048224941
0.01972184 -0.043858159 0.042464182
0.045112349 -0.042643927 0.048210226
0.050221939 -0.04688241 0.044814169
-0.013743024 -0.030612867 0.04891216
-0.0030471459 -0.03732729 0.046192378
0.0073934179 -0.033304766 0.047821801
0.014687301 -0.032419629 0.048180334
0.048590593 -0.037815932 0.043148525
0.069099985 -0.030422866 0.048989117
0.074527055 -0.030498993 0.048958283
0.18738821 -0.037923977 0.042143878
-0.070501126 -0.021551449 0.047451328
0.19615392 -0.026806174 0.047935791
0.17489055 -0.010940155 0.04940832
0.22063008 -0.018074147 0.04266173
-0.09408357 -0.0072535696 0.040183716
-0.054888658 -0.003477145 0.046327412
0.0088630328 -0.0031298234 0.047645863
0.029805355 -0.006154371 0.0483284
0.070607416 -0.0024440361 0.04749123
0.18535289 -0.0033121756 0.040230583
-0.30713832 0.0066403095 0.043529343
-0.043073099 0.0089955553 0.044460636
0.039428186 0.0070365337 0.045351781
0.14512247 0.0065711392 0.045456812
0.20644495 0.008810495 0.042520951
0.21601468 0.0081021599 0.04253915
-0.032520451 0.01341132 0.043035064
0.015243626 0.013689976 0.043382782
0.03528 0.010371978 0.044611238
0.19373813 0.017146794 0.040887654
0.010991408 0.024869898 0.041685186
0.035393253 0.037169218 0.047932729
0.043144055 0.037023339 0.040749989
0.072081938 0.033193953 0.040005103
0.13609174 0.035658829 0.043757517
0.15231955 0.0333542 0.041283738
0.17301127 0.03511814 0.047286928
0.077069752 0.042415671 0.049550742
0.14955539 0.04179503 0.045549788
0.048025399 -0.073706456 0.057524994
0.020218641 -0.060847148 0.051373713
0.041500546 -0.059792496 0.056435287
0.056290045 -0.059792496 0.056401812
0.0049204789 -0.024643358 0.051330198
0.12480006 -0.025252111 0.051083609
0.13799948 -0.026292965 0.050662
0.15096967 -0.026887015 0.050421372
0.047327306 -0.015212792 0.050372396
0.13797283 -0.019105995 0.05125086
-0.30320078 0.0073234416 0.050807826
-0.28688604 0.0043320097 0.051601674
-0.26665831 0.0049151527 0.0549009
0.062109575 0.036795951 0.053673118
0.12650815 0.039601699 0.051139295
0.13689283 0.039601699 0.05626912
0.14289364 0.035599105 0.054981455
0.15495135 0.039601699 0.057356607
0.16043375 0.039601699 0.053975083
0.17489257 0.037443355 0.055366814
0.024545565 -0.059832636 0.065393984
0.033245802 -0.05865372 0.064979985
0.17852162 -0.013125441 0.063873954
-0.29449743 0.0040764124 0.062862247
-0.28761682 0.0096139796 0.060947925
-0.26143178 0.0052015102 0.060147144
0.045490939 0.039601699 0.068945885
0.068808608 0.036765531 0.06998457
0.08773157 0.03644865 0.06169115
0.12736958 0.035887305 0.068432748
0.17321181 0.039601699 0.063894153
0.10208075 0.042908896 0.061779931
-0.31059134 0.005672927 0.076631963
-0.30748117 0.0034679417 0.071723022
0.039381929 0.03989584 0.078918546
0.065370627 0.039601699 0.077961713
0.071840852 0.036759477 0.07918445
0.064548828 0.041752629 0.070450373
0.092006832 0.042739637 0.076345496
0.10075271 0.042819023 0.07737413
0.028479738 0.036966871 0.086201414
0.03685084 0.038478818 0.082819819
0.044952631 0.03835826 0.085647166
0.05755648 0.039601699 0.084737547
0.069896273 0.039601699 0.083185516
0.074030891 0.036744159 0.083260402
0.088192478 0.036561646 0.089906923
0.15215969 0.035589278 0.085135981
0.048624899 0.040640231 0.089865744
0.10108296 0.042802937 0.081048422
0.11791866 0.042621978 0.088361211
0.16409858 0.0066661397 0.090440854
0.03464641 0.038294211 0.095194153
0.057611305 0.039601699 0.094973549
0.076608181 0.03676331 0.096810944
0.12065091 0.036101073 0.095214255
0.14447807 0.035747644 0.095500179
0.065091223 0.041700065 0.093557991
0.080973811 0.042386282 0.09788435
0.033735149 0.038719572 0.10549282
0.063763902 0.039601699 0.10487168
0.075739458 0.036811344 0.10507485
0.091001295 0.036564365 0.10041557
0.10669039 0.037978999 0.104853
0.13865319 0.035880558 0.10638141
0.14723518 0.039601699 0.10358319
0.059040327 0.04131978 0.10622058
0.065708593 0.041679293 0.10893509
0.12164323 0.042385295 0.10772234
0.13732131 0.041818548 0.10234456
0.15114442 0.040869944 0.10990615
0.067822389 0.036963921 0.11324933
0.14991914 0.039601699 0.11682972
0.15506226 0.035664309 0.11298302
0.048467338 0.040528402 0.11704376
0.15415154 0.040623121 0.11225212
0.033946212 0.038534503 0.12553246
0.043557107 0.039601699 0.1205807
0.051867511 0.039601699 0.12642466
0.070110753 0.036998466 0.12939711
0.086927831 0.039601699 0.12011847
0.10604385 0.039601699 0.1253317
0.12263521 0.039601699 0.12684993
0.14367223 0.037735477 0.12495652
0.15336274 0.037011281 0.12471662
0.13319799 0.041801497 0.12365471
0.047891214 0.039601699 0.13873298
0.052419998 0.039601699 0.1380733
0.064544477 0.039601699 0.13730711
0.09515854 0.039601699 0.13448165
0.1025648 0.039601699 0.1385738
0.11121339 0.042449966 0.13150643
0.055816308 0.038418327 0.14498755
0.13884251 0.039601699 0.14408189
0.077968433 0.042075422 0.14937323
0.10459132 0.042394228 0.14990439
0.15742204 0.039601699 0.15473315
0.085046619 0.039601699 0.16592592
0.099687621 0.039601699 0.16659288
0.14973371 0.035983399 0.16945736
0.10714546 0.042303264 0.16127102
0.11617731 0.042051051 0.16820262
0.13763362 0.041079104 0.16404901
0.043799859 0.038144145 0.17524928
0.062139615 0.037229598 0.17702125
0.046107739 0.040098824 0.17142633
0.081368677 0.042069443 0.17424533
0.099686451 0.042270944 0.17595387
0.12198005 0.041760966 0.17610855
0.055164386 0.038221706 0.18387653
0.12392996 0.036448974 0.18862487
0.055760231 0.040778875 0.18979445
0.075334191 0.041849777 0.18163837
0.049522009 0.039601699 0.19156834
0.077363782 0.039601699 0.19825059
0.1485602 0.036120996 0.19775406
0.12515286 0.04143551 0.19413564
0.048383232 0.039601699 0.20564981
0.05400496 0.039601699 0.20200445
0.06537383 0.039601699 0.20119515
0.090506792 0.039601699 0.20418929
0.14359084 0.036213238 0.20205207
0.055069048 0.039601699 0.21433221
0.095954917 0.039601699 0.2101011
0.10939641 0.036758643 0.21060479
0.12191381 0.036580645 0.2125694
0.13705491 0.036371328 0.21636769
0.048203446 0.040094409 0.2165994
0.11965268 0.041488472 0.21474764
0.13407494 0.040619425 0.21531339
0.070179373 0.039601699 0.2263795
0.10877427 0.041826941 0.22030398
0.11430724 0.039601699 0.23818676
0.13817461 0.039601699 0.2390413
0.14261314 0.037839543 0.23533995
0.058915421 0.040831581 0.23630948
0.035880461 0.037546154 0.24953167
0.066555411 0.036746897 0.24241
0.071881317 0.039601699 0.2482357
0.08936733 0.03720079 0.24456912
0.11037229 0.039601699 0.24146836
0.036528058 0.037655786 0.25392208
0.047442473 0.0359881 0.25387383
0.067485593 0.038133748 0.25293422
0.094485492 0.039601699 0.25673839
0.10363444 0.039601699 0.25549242
0.10301784 0.041668702 0.25872663
0.13059029 0.040267274 0.25828218
0.03880918 0.036501728 0.2660079
0.044815801 0.039601699 0.26326254
0.099515989 0.037154399 0.26922172
0.05576029 0.040508457 0.26290295
0.062954426 0.04095659 0.26846975
0.07525117 0.041518979 0.26862413
0.095587373 0.037238017 0.27513582
0.11696058 0.039601699 0.27236521
0.055305779 0.040413849 0.27970821
0.11912867 0.040663853 0.28864756
0.043624245 0.035684265 0.29845652
0.072901331 0.036492288 0.29098019
0.11647005 0.037000973 0.29248661
0.053472474 0.040208828 0.29978538
0.068881504 0.036227591 0.30425924
0.11805379 0.037027121 0.30420065
0.10582714 0.041166771 0.30679339
0.041020703 0.036566757 0.31803191
0.05393438 0.040175725 0.31752115
0.078945369 0.041412115 0.3146995
0.11582053 0.040506266 0.31691253
0.069434449 0.036073729 0.32210636
0.077799655 0.039601699 0.32738638
0.10753559 0.039601699 0.32300082
0.11262155 0.039601699 0.32154393
0.042992868 0.037114933 0.33848533
0.069218621 0.039601699 0.33322787
0.083251536 0.039601699 0.33938381
0.09923093 0.036920927 0.33895046
0.082429409 0.041350994 0.33735752
0.085980937 0.039601699 0.34655845
0.10493508 0.037043519 0.3462688
0.11802913 0.039601699 0.34456304
0.093688153 0.041213423 0.34691978
0.057257608 0.035316326 0.35773849
0.063704722 0.035578899 0.35318732
0.097385786 0.038135637 0.3566246
0.10290962 0.040820669 0.35450894
0.061677303 0.039844677 0.36553699
0.080572054 0.036056243 0.36295417
0.10044693 0.036720861 0.36389905
