# .PCD v0.7 - Point Cloud Data file format
VERSION 0.7
FIELDS x y z
SIZE 4 4 4
TYPE F F F
COUNT 1 1 1
WIDTH 842
HEIGHT 1
VIEWPOINT 0 0 0 1 0 0 0
POINTS 842
DATA ascii
-0.074450836 -0.034253344 -0.32519203
-0.056551401 -0.033546772 -0.32468012
-0.090320021 -0.027746532 -0.32616699
-0.073067799 -0.035373781 -0.31461105
-0.064926207 -0.032860354 -0.31183887
-0.059428141 -0.031486344 -0.31978855
-0.073044106 -0.036118247 -0.307145
-0.036334921 -0.036034025 -0.30221048
-0.061763901 -0.037960492 -0.29413074
-0.053852409 -0.036645196 -0.29512617
-0.042861711 -0.035689998 -0.29582313
-0.04348347 -0.040003449 -0.2842038
-0.058162555 -0.036143333 -0.28584978
-0.041941538 -0.034939006 -0.28730416
-0.054330282 -0.0407134 -0.27009735
-0.044171784 -0.040949382 -0.27301291
-0.055877835 -0.037040535 -0.27845198
-0.062847301 -0.040822975 -0.26122481
-0.043233484 -0.042084806 -0.26172185
-0.021164004 -0.037999652 -0.26288238
-0.046737652 -0.042712025 -0.25371706
-0.01689134 -0.043024637 -0.25638109
-0.0094177015 -0.040159576 -0.25104153
-0.048637427 -0.039560363 -0.25711754
-0.024996355 -0.038472891 -0.25429276
-0.015501948 -0.039156437 -0.25047946
-0.049797133 -0.041718673 -0.24382474
-0.0059418604 -0.041648932 -0.24492148
-0.045781542 -0.044905826 -0.23517084
-0.033464655 -0.042728201 -0.23573853
-0.026484376 -0.046768162 -0.23507848
-0.041798614 -0.043374889 -0.22761035
-0.024745693 -0.042363107 -0.22383374
-0.010772077 -0.041329112 -0.22718281
-0.0056672413 -0.041920912 -0.2216149
0.0006100256 -0.046985973 -0.22418368
-0.0013352139 -0.042509057 -0.21608134
0.0067730974 -0.043447986 -0.21039465
-0.036781311 -0.047780298 -0.20765477
-0.022275889 -0.044366822 -0.20884985
0.018375425 -0.047692269 -0.20289171
0.022625826 -0.04894476 -0.20000386
0.0096911481 -0.052259304 -0.19010991
0.015970975 -0.050158471 -0.19756672
-0.036478553 -0.048072558 -0.19841732
-0.023814354 -0.049687326 -0.19496152
0.016889585 -0.045307871 -0.19518435
-0.02060746 -0.050699625 -0.18672344
-0.014218101 -0.05128042 -0.18630931
-0.029187534 -0.049155053 -0.18181884
0.023137562 -0.046468966 -0.18537326
0.017893372 -0.054392792 -0.17352539
0.032972597 -0.052400146 -0.17495942
-0.0055486877 -0.04732646 -0.17909698
0.025106467 -0.047057822 -0.17479399
-0.024657566 -0.051995706 -0.16832137
0.044166707 -0.053819865 -0.16037793
-0.033364989 -0.060505629 -0.15668216
0.00049330964 -0.060993016 -0.15726162
-0.026054069 -0.052380573 -0.15967436
-0.017314022 -0.053533498 -0.15542021
-0.0088350512 -0.051371992 -0.15366448
0.0081080841 -0.056120448 -0.15873522
0.010238443 -0.050247379 -0.15015358
0.029479306 -0.049171291 -0.15339968
-0.0031115427 -0.05612392 -0.14287651
0.012774364 -0.057097677 -0.14708599
0.027302898 -0.058462836 -0.14564835
0.04531518 -0.056032814 -0.14772454
0.082170419 -0.095524594 -0.13336778
0.098905705 -0.094794817 -0.13338453
0.056729738 -0.089093618 -0.13335925
0.050283317 -0.079803936 -0.13064165
-0.013012262 -0.055816971 -0.13399954
0.0063735568 -0.057425767 -0.13736358
0.015889555 -0.05185806 -0.13578358
0.0274055 -0.050715387 -0.138872
0.049337685 -0.10169588 -0.12828699
0.058546275 -0.10655247 -0.12446473
0.079018146 -0.10721429 -0.12632054
0.080613546 -0.1097815 -0.12285024
0.029175648 -0.091660567 -0.12604964
0.044010662 -0.096294858 -0.12445685
0.11496084 -0.090516746 -0.12867887
0.03501552 -0.082738213 -0.12922379
0.059574865 -0.085364595 -0.12691037
0.03963808 -0.076493666 -0.12724423
0.042519011 -0.074557662 -0.12604409
0.10107556 -0.070892811 -0.12291119
0.11152409 -0.079148933 -0.12979862
0.063078247 -0.06995979 -0.12249011
0.087538108 -0.069499902 -0.1219226
-0.0092943357 -0.058478244 -0.12129168
0.0016129921 -0.053902164 -0.12887242
0.048675135 -0.051980786 -0.12057269
0.051967468 -0.059913963 -0.12142842
0.063564382 -0.055167135 -0.12474422
0.11231488 -0.11151612 -0.11035994
0.033438392 -0.1023882 -0.11479469
0.009851166 -0.073006317 -0.11106747
0.026768185 -0.072366826 -0.11835782
0.045184523 -0.071362182 -0.11459295
0.053778663 -0.072910637 -0.11400099
0.031714752 -0.065278083 -0.11317141
0.046570301 -0.064438812 -0.11382769
0.055217028 -0.060289312 -0.11694744
0.076423556 -0.060707189 -0.11074446
0.08696945 -0.062042892 -0.11115253
0.095121771 -0.064646266 -0.11156857
0.11473711 -0.069003344 -0.1122272
-0.013813074 -0.058128215 -0.11519575
-0.0015173866 -0.055633783 -0.11938085
0.053502332 -0.052070521 -0.11894347
0.067306623 -0.058919542 -0.11685878
0.074950665 -0.054957956 -0.11115713
-0.32644281 -0.013529681 -0.11646733
0.054079503 -0.11050341 -0.10662399
0.087577693 -0.11047217 -0.10072374
0.095092729 -0.11213168 -0.10517241
0.04337313 -0.10717316 -0.1030678
0.05359133 -0.10469592 -0.10401702
0.085412785 -0.10312282 -0.10173216
0.10275372 -0.10634355 -0.1072443
0.11192574 -0.10670288 -0.10880558
0.0525649 -0.099665515 -0.10028739
0.046710122 -0.08120805 -0.10812299
0.022665156 -0.072181135 -0.10658676
0.031671196 -0.073201254 -0.10969995
0.043643884 -0.074276723 -0.108123
0.06590037 -0.074954174 -0.10413469
0.071066491 -0.071842663 -0.10831255
0.080611438 -0.076397255 -0.10146391
-0.011745689 -0.061118759 -0.10385881
-0.0034469762 -0.060921367 -0.10861257
0.0064521111 -0.062312033 -0.10158364
0.019412054 -0.062299103 -0.10719042
0.044499982 -0.064483434 -0.10330829
0.058139615 -0.065432139 -0.10364582
0.06516476 -0.068098776 -0.10914911
0.07538452 -0.067497142 -0.10562913
0.080419913 -0.067962959 -0.1038752
0.035315502 -0.053075138 -0.1081553
0.056319062 -0.052925318 -0.10342433
-0.32541269 -0.014173261 -0.10581772
0.084327005 -0.10546489 -0.094737336
0.093681894 -0.10450765 -0.096374355
0.10782234 -0.1014089 -0.098945856
0.11479357 -0.10077082 -0.093142159
0.049439564 -0.097039402 -0.098249078
0.027975239 -0.08547841 -0.096084699
0.10537232 -0.081897393 -0.096832879
0.058480036 -0.076146007 -0.093276039
0.11250803 -0.072834492 -0.09852872
-0.010489075 -0.063529797 -0.091028854
0.023816977 -0.069515862 -0.091744512
0.042984091 -0.06547381 -0.096547231
0.054429188 -0.064297527 -0.097844124
0.020523507 -0.055628762 -0.098058522
-0.34417689 -0.016379321 -0.093949787
-0.32610646 -0.017499886 -0.090815529
-0.31602889 -0.016430285 -0.095988512
0.10894694 -0.08766377 -0.089475259
-0.013641949 -0.068602972 -0.08830975
-0.0097863413 -0.063098416 -0.081566229
0.00081276568 -0.061614621 -0.08084172
0.048732072 -0.067568272 -0.082248792
0.05249013 -0.067153789 -0.085078374
0.073070467 -0.064493977 -0.082269177
0.083036542 -0.061927252 -0.088029921
0.019000243 -0.057492502 -0.088228151
-0.33121687 -0.014926529 -0.087003335
-0.31862253 -0.01592803 -0.084258504
-0.012899951 -0.06581375 -0.075470127
-0.0019759471 -0.066777468 -0.074472249
0.018149134 -0.06637226 -0.079118729
0.059967984 -0.067660913 -0.078464672
0.092495948 -0.063104898 -0.074476346
0.020923834 -0.058875471 -0.077975065
0.044773102 -0.056051761 -0.071999907
0.071406975 -0.054626592 -0.072537199
-0.33028677 -0.01547992 -0.079341859
-0.32261735 -0.019396912 -0.074009001
0.030022612 -0.11102933 -0.061018787
0.0132851 -0.10494307 -0.063624337
0.023269136 -0.088459797 -0.060446121
0.022197012 -0.075403273 -0.063314155
0.043682549 -0.070179895 -0.062234215
0.005166959 -0.063428365 -0.065620683
0.033015203 -0.069648348 -0.061605409
0.08331345 -0.067577735 -0.060428716
0.078625634 -0.054798134 -0.069422834
-0.33005247 -0.017117558 -0.06403935
0.012919421 -0.10432133 -0.051698357
0.017458733 -0.097795099 -0.059037369
0.023430632 -0.097981155 -0.053679004
0.018702481 -0.085636199 -0.05640633
0.025748149 -0.084633678 -0.05693534
0.031768192 -0.077353165 -0.056011651
-0.0053221826 -0.069472805 -0.058304414
0.032356825 -0.06009585 -0.059495799
0.10106443 -0.064564042 -0.059884019
0.045259904 -0.058829065 -0.054680243
0.060297035 -0.056626957 -0.053471301
0.086935371 -0.05574578 -0.052218005
0.099381916 -0.057514369 -0.056109373
-0.31305254 -0.021668088 -0.052817926
-0.28191841 -0.020151082 -0.057267308
-0.29674965 -0.01909769 -0.057239067
0.022739403 -0.11466579 -0.045531027
0.030453276 -0.10227206 -0.049191758
-0.00091259694 -0.067876674 -0.044525538
0.026290083 -0.063168839 -0.046731357
0.035224151 -0.061702047 -0.046974264
0.049154237 -0.060472988 -0.040934954
0.11404462 -0.066423804 -0.041348524
0.073725857 -0.055956922 -0.048384652
-0.33619457 -0.02179027 -0.040639855
-0.30682844 -0.022259526 -0.046558201
-0.29298341 -0.020450259 -0.040034905
-0.28397632 -0.02197469 -0.044439875
-0.30005285 -0.019838121 -0.042353172
-0.29910374 -0.019845549 -0.043204926
0.020949204 -0.083397061 -0.033470232
0.086469136 -0.0812295 -0.035072792
0.10471217 -0.084468499 -0.032678075
0.13055593 -0.080577657 -0.032394189
-0.0013623675 -0.075082973 -0.037535451
0.017200844 -0.077620842 -0.037740815
0.068112984 -0.078817196 -0.036856301
-0.13799736 -0.063941792 -0.030576417
-0.12227541 -0.062851377 -0.032571137
-0.039536856 -0.06306126 -0.035617314
-0.012560591 -0.065633193 -0.036949821
0.019538691 -0.065359391 -0.039983336
0.039592713 -0.064744487 -0.0380002
0.046071976 -0.069373548 -0.038000196
0.080828778 -0.063803211 -0.0380002
0.095261984 -0.063083895 -0.0380002
0.1405862 -0.061253574 -0.035858508
0.19235581 -0.062280312 -0.033270247
0.20003243 -0.064855263 -0.031395994
-0.16853671 -0.052707545 -0.032181174
-0.147003 -0.050472487 -0.034160994
-0.13504963 -0.053311072 -0.035278782
-0.11278874 -0.057164393 -0.034536585
-0.069516748 -0.05933341 -0.034043267
-0.011601288 -0.05711145 -0.037800167
0.013529956 -0.054479763 -0.0380002
0.10747173 -0.057677455 -0.0380002
0.16160256 -0.050018989 -0.036486607
0.2233161 -0.053340103 -0.035459206
0.28342265 -0.055338383 -0.033092611
-0.19021517 -0.04459583 -0.031254418
-0.18005821 -0.049831096 -0.031287204
-0.16159634 -0.047512803 -0.034562364
-0.14528713 -0.041153874 -0.037623379
-0.10038532 -0.044910658 -0.037826609
-0.062782519 -0.042382881 -0.037511736
-0.034794062 -0.048009731 -0.037013669
-0.013455724 -0.04466131 -0.037812609
0.0049022548 -0.048322309 -0.0380002
0.018526236 -0.044688251 -0.0380002
0.024584789 -0.048477624 -0.0380002
0.041147981 -0.048907205 -0.0380002
0.065450154 -0.043868821 -0.037714608
0.082916096 -0.049615845 -0.0380002
0.18874213 -0.0400832 -0.036909558
0.19446295 -0.040937155 -0.037133135
0.2118811 -0.04682469 -0.037324525
0.22796983 -0.04432828 -0.037723757
0.25329915 -0.047312412 -0.036329791
-0.15464637 -0.031067051 -0.034171373
-0.099796459 -0.037264157 -0.036171667
-0.00021399686 -0.03981711 -0.036840022
0.23137948 -0.038948294 -0.036294501
0.26322341 -0.036213562 -0.034487799
0.28125808 -0.036526978 -0.033282727
-0.27672026 -0.021795152 -0.035687
-0.16291176 -0.028002499 -0.032582853
-0.147003 -0.027618529 -0.030826332
-0.13451131 -0.029082855 -0.03424415
-0.12896432 -0.022708751 -0.030976048
-0.05409611 -0.027384806 -0.033585161
-0.0074615167 -0.025382718 -0.033060987
0.0022728122 -0.025968235 -0.03255713
0.13854291 -0.024566879 -0.032356244
0.14061688 -0.028978666 -0.034002334
0.20851766 -0.025493087 -0.033089969
0.21032281 -0.02239427 -0.030177953
0.27751434 -0.026987854 -0.031302422
-0.3228876 -0.019894503 -0.035196397
-0.31371921 -0.019548569 -0.032929193
-0.30628875 -0.01996072 -0.034090247
-0.026868153 -0.08295951 -0.025035493
0.039849121 -0.085169502 -0.020605436
0.080595151 -0.085169502 -0.026776532
0.094315045 -0.085169502 -0.027709186
0.12987971 -0.083997317 -0.023073254
0.13421999 -0.083095059 -0.023310442
-0.13661453 -0.07156416 -0.02254409
-0.12976161 -0.072442636 -0.022119053
-0.054138701 -0.070111312 -0.027595375
0.16124508 -0.070866697 -0.025515266
0.21742602 -0.073760882 -0.022462193
0.22876874 -0.070125192 -0.025870591
0.29527795 -0.070740238 -0.022757476
-0.17377827 -0.062392566 -0.024677038
-0.16722357 -0.061770666 -0.02707449
-0.1596165 -0.063981101 -0.026724186
-0.14822598 -0.067294702 -0.026195625
-0.11669078 -0.069763593 -0.0257308
-0.082554229 -0.068129256 -0.028122116
-0.074061528 -0.066565245 -0.029686075
0.20774576 -0.06862209 -0.027629299
0.27805206 -0.068067648 -0.026918996
-0.147003 -0.053419687 -0.025886694
0.32529423 -0.05537102 -0.02413135
-0.2368242 -0.047298726 -0.023651082
-0.24655952 -0.037904486 -0.024702972
-0.3057521 -0.022551779 -0.024999591
-0.27575696 -0.023615101 -0.024054589
-0.25399703 -0.025796974 -0.023345131
-0.23514077 -0.026963051 -0.025536895
-0.17639145 -0.020996414 -0.028010001
-0.065177366 -0.021675594 -0.029457206
-0.042596411 -0.021665461 -0.029447023
-0.038839407 -0.020412933 -0.028191159
-0.011126792 -0.020744264 -0.028523341
0.01200458 -0.020061756 -0.027838994
0.14278799 -0.021918502 -0.029700939
0.16269714 -0.021216623 -0.029211868
0.2422521 -0.020570267 -0.027922858
0.25518465 -0.022228606 -0.028555868
0.29051697 -0.028568283 -0.028564466
0.30824161 -0.026076257 -0.020704651
-0.095955312 -0.019183567 -0.026958592
-0.089284033 -0.014949823 -0.022713594
-0.022373598 -0.013395973 -0.021155547
-0.018671468 -0.016266793 -0.024033984
0.03013223 -0.015336147 -0.023100808
0.081244342 -0.017578924 -0.025349496
0.15825418 -0.01575904 -0.02387982
0.16129614 -0.018919725 -0.026693957
0.18836111 -0.016558945 -0.024327012
0.19272757 -0.018977437 -0.026751846
0.20438215 -0.013846159 -0.021606905
0.21892671 -0.013678513 -0.021411594
0.25973421 -0.014654652 -0.020656969
-0.046699412 -0.080660969 -0.012291519
0.049116746 -0.085169502 -0.018149044
0.07957533 -0.085169502 -0.017205769
0.10574313 -0.085169494 -0.019799348
0.13922822 -0.08205393 -0.013344786
-0.12567101 -0.077322714 -0.013451311
-0.097443573 -0.078370675 -0.014785643
-0.082173526 -0.07839936 -0.01467629
0.17994168 -0.078668259 -0.013651153
0.19844505 -0.079154752 -0.011796515
0.21914642 -0.07845062 -0.014480875
0.23412663 -0.078350127 -0.014751273
0.29686341 -0.076707453 -0.015142038
0.30009404 -0.07781069 -0.010292103
0.31530833 -0.072930142 -0.016081339
-0.19957615 -0.065599456 -0.012389511
-0.16962285 -0.069256984 -0.018606815
-0.147003 -0.064200647 -0.013823949
0.33640018 -0.064443059 -0.017243683
-0.23869601 -0.052285414 -0.018003903
-0.28401697 -0.040944606 -0.015364422
-0.147003 -0.034029316 -0.012664267
-0.32944769 -0.024637587 -0.014957973
-0.30243334 -0.021205239 -0.018657969
-0.26603466 -0.010806212 -0.010195821
-0.24858671 -0.016468391 -0.018772881
-0.18633182 -0.011725929 -0.017763536
-0.12489758 -0.011137172 -0.018636232
-0.10273603 -0.012195429 -0.019951897
-0.083026052 -0.011065168 -0.018361757
0.018075645 -0.010982651 -0.018047208
0.065182939 -0.011122316 -0.0185796
0.098969787 -0.010205597 -0.015085103
0.15304804 -0.012192704 -0.019949129
0.16519994 -0.01101833 -0.018183209
0.17299847 -0.010797545 -0.017341586
0.24622978 -0.010927769 -0.016884288
0.29925251 -0.018100321 -0.010679301
-0.11319032 -0.0098850671 -0.013863255
-0.0025011078 -0.0094706221 -0.012283407
0.0051475465 -0.008894369 -0.010086753
0.2699289 -0.10811175 -0.0094066728
-0.062401935 -0.080331877 -0.0091191484
-0.024653491 -0.083343387 -0.0042338097
0.10673754 -0.085169502 -0.0068400651
0.16514486 -0.080499589 -0.0066696331
0.20764036 -0.081557423 -0.0026368639
0.21351448 -0.081489787 -0.0028946868
0.26455271 -0.083883807 -0.0092100203
0.28036538 -0.085300103 -0.0092100203
0.23715611 -0.079796597 -0.0092848279
0.30900156 -0.077683426 -0.0069209067
0.32612044 -0.076049738 -0.0037141177
-0.20508927 -0.067509189 -0.00072640635
-0.18675348 -0.069621876 -0.0066665551
-0.147003 -0.066676892 -0.0032978468
0.2957257 -0.066298202 -2.6406909e-05
0.35239172 -0.065935396 -0.0048838626
-0.147003 -0.054153848 -0.00070340669
0.3589125 -0.055603303 -0.0030545678
0.34338206 -0.041572757 -0.001308786
0.318331 -0.023638872 -0.0026310119
-0.32104883 -0.017562091 -0.0097213853
-0.147003 -0.013020651 -2.165325e-06
-0.25313908 -0.005860324 -0.0035946381
-0.24981059 -0.0030130157 -0.0037104348
-0.23547444 -0.0008018841 -0.0031239362
-0.22637132 -0.0040088203 -0.002470725
-0.13837643 -0.0083863195 -0.0081500867
-0.022222148 -0.0068071773 -0.0021304542
0.010229848 -0.0065197255 -0.0010347003
0.062567741 -0.0086029824 -0.0089759948
0.11939412 -0.0069588022 -0.002708443
0.16459981 -0.0074797785 -0.004694385
0.20500809 -0.0088626472 -0.0099658286
0.21581979 -0.0079457425 -0.0064706239
-0.2164246 0.0017248247 -0.0010347493
-0.28368837 0.016555324 -0.0025027595
-0.2557309 0.01684007 -0.0034902063
-0.2412637 0.015459104 -0.0022979844
-0.2396872 0.018398354 -0.0019036162
-0.32579291 0.022868782 -0.00016119298
-0.29599535 0.027722094 -0.0020617689
-0.2719335 0.024314482 -0.0029137544
-0.30817038 0.038258657 -0.0018561054
-0.24602976 0.036089838 -0.00092610111
-0.31193537 0.045031771 -0.0016700361
-0.30157298 0.047665633 -0.0018535252
-0.32107049 0.064512804 -0.0013034231
-0.30462447 0.065753065 -0.0017355501
-0.31322682 0.071642444 -0.0015625462
-0.30882499 0.088702589 -0.0015742525
-0.28757983 0.084780306 -0.00065292744
-0.32076985 0.094655558 -0.0013597412
-0.31722775 0.097264558 -0.0013367492
-0.33634737 0.117262 -0.00080615911
-0.32500216 0.11152384 -0.0012110882
0.27556136 -0.11042427 0.0034810465
0.26475862 -0.10623156 0.0053644655
0.2754133 -0.10226914 0.0080723753
0.27550727 -0.090654761 0.0015581762
-0.088816464 -0.080304384 0.0074137775
-0.070568793 -0.080739982 0.0061364505
0.023909224 -0.085169494 0.00016185502
0.0523725 -0.085169494 0.0060551651
0.12449809 -0.085116059 0.00085093046
0.1411303 -0.083568014 0.0011570357
0.19133672 -0.080440938 0.0068931957
0.20281871 -0.082235403 5.2207954e-05
0.21575445 -0.080703884 0.0058907876
0.24317136 -0.08004193 0.0083061848
0.27415323 -0.083857708 0.00207797
-0.16776136 -0.074308321 0.0032965434
-0.15167761 -0.077517927 0.0033365563
0.27591035 -0.079833724 0.00091604562
0.28512761 -0.073652335 0.0010863179
-0.22099426 -0.062034607 0.009204655
-0.18363218 -0.069614895 0.0090755047
-0.27173918 -0.051958136 0.00055887294
-0.24413067 -0.058879551 0.00087623857
-0.23889981 -0.058600083 0.0064199786
-0.147003 -0.057637431 0.0024563009
0.3568975 -0.050211027 0.0005786671
-0.33382761 -0.031614058 0.0076417937
-0.32421604 -0.035617158 0.0064139278
-0.147003 -0.030700069 0.0094350874
-0.33363953 -0.018233735 0.0084962575
-0.31479833 -0.014792308 0.0078523867
-0.3118012 -0.00012156763 0.00083252095
-0.29440346 -0.0048630466 0.0020250084
-0.27444732 -0.0036172345 0.0028405478
-0.26025447 -0.0084294928 0.0031241695
-0.237351 -0.008022259 0.0046016173
-0.18517625 -0.0072986381 0.0038350276
-0.13527021 -0.0080401497 0.0068305032
-0.074587934 -0.0082349675 0.007573138
-0.056216933 -0.0088401288 0.0098799923
0.027948681 -0.0073522124 0.0042081121
0.034199804 -0.0070163547 0.0029278344
0.041044861 -0.0067378599 0.0018662203
0.051279273 -0.007890231 0.0062590158
0.086348116 -0.0082520274 0.0076381708
0.14372742 -0.0073241508 0.0041011409
0.16198516 -0.007349628 0.0041982606
0.17062828 -0.0082952008 0.0078027463
0.19894101 -0.0069206711 0.0025630919
0.22612071 -0.0087555554 0.0094629228
0.23214728 -0.0071526496 0.003399729
0.24217702 -0.0086620338 0.0090739084
-0.280128 0.00087965233 0.0026374068
-0.078005217 0.0027168719 1.88296e-09
-0.2781139 0.015689613 0.0027001922
-0.25596863 0.01566061 0.0034825471
-0.32455719 0.021116763 0.00022512728
-0.31658137 0.021455597 0.00083179405
-0.30171418 0.025788186 0.0019667384
-0.26024315 0.039732192 0.0020309808
-0.30286446 0.043466043 0.0018344551
-0.30403078 0.050690405 0.0017650794
-0.30818594 0.060903944 0.0016572409
-0.33666945 0.074150167 0.00019596634
-0.32013875 0.078827024 0.0014992701
-0.31407022 0.076284505 0.0015216792
-0.29108399 0.083395019 0.0012423781
-0.33212006 0.096304342 0.0010891223
-0.31644776 0.10190779 0.0012975867
-0.3415049 0.11154225 0.00057949097
-0.33987844 0.1158722 0.00086193084
0.26614469 -0.10166305 0.010518879
0.27741456 -0.1014467 0.0103777
-0.042518716 -0.081019312 0.014875359
0.0069007385 -0.085169494 0.014514248
0.016935825 -0.085169502 0.018244402
0.070099182 -0.085169502 0.012451068
0.10925268 -0.085169494 0.017107971
0.14196374 -0.081485271 0.017949041
-0.11288887 -0.078600563 0.012057759
0.17918554 -0.077199899 0.019051798
0.18407261 -0.077688672 0.017385598
0.20805329 -0.077358 0.018646233
0.21055087 -0.077206694 0.019045008
0.22662896 -0.076877251 0.019265361
0.26668334 -0.078341797 0.013738048
0.29537147 -0.076244138 0.015851188
-0.20855387 -0.064036265 0.011532894
-0.147003 -0.063787483 0.015552728
-0.22603592 -0.059328593 0.014524931
0.3456732 -0.05471335 0.015965147
0.33265996 -0.043432623 0.01697975
-0.147003 -0.038100854 0.019143961
-0.33399642 -0.026173241 0.01058777
-0.32548773 -0.024639782 0.018619686
-0.30303538 -0.024215952 0.015592704
-0.29519665 -0.021658242 0.018985989
-0.24724451 -0.016771337 0.019184232
-0.054567315 -0.012065424 0.01982154
0.0077275708 -0.010946343 0.017908799
0.095924318 -0.011509765 0.019264411
0.11215576 -0.011477594 0.019122427
0.13995306 -0.011525176 0.019279862
0.14684084 -0.011434211 0.019188659
0.16429935 -0.010557 0.016424641
0.18582381 -0.010505144 0.016226966
0.20606095 -0.011207528 0.018904429
0.24244754 -0.01031222 0.015277393
0.25596237 -0.011641184 0.016544342
0.27952367 -0.014841152 0.018604798
0.28221363 -0.015151854 0.018089322
-0.17932746 -0.0099530481 0.013820201
0.14049494 -0.0090801213 0.010794831
0.19563705 -0.009803554 0.013552531
0.24101439 -0.0098268008 0.013452575
-0.032833017 -0.082220055 0.027214922
0.0097135911 -0.085169502 0.027602566
0.012631891 -0.085169502 0.026282359
0.029554877 -0.085169502 0.024806887
0.032904528 -0.085169509 0.027093302
0.080279171 -0.085169502 0.027131338
0.10296692 -0.085169502 0.021049097
-0.073923647 -0.071591318 0.024660181
-0.064503953 -0.070578009 0.026318818
-0.051288903 -0.072418377 0.025511201
0.15121362 -0.075610369 0.024500869
0.16827251 -0.070074074 0.026177371
0.21220411 -0.075966187 0.02028547
-0.16035587 -0.069844678 0.020264249
-0.15767772 -0.064450756 0.026735023
-0.14280498 -0.065248623 0.028926503
-0.10994378 -0.06681703 0.029158767
0.21958339 -0.067073852 0.029105779
-0.21004111 -0.053927682 0.024188073
-0.18950568 -0.056713253 0.026586419
0.3336693 -0.052588157 0.020644156
0.30878195 -0.041255623 0.028886223
-0.26314136 -0.038602632 0.021733813
-0.25876126 -0.035171717 0.023552969
-0.147003 -0.030876392 0.029467052
0.30994654 -0.031990353 0.023318313
-0.29555804 -0.022333443 0.028588103
-0.28119811 -0.024098631 0.025847053
-0.23560733 -0.022168592 0.024225593
-0.22824664 -0.020519109 0.024514878
-0.19461817 -0.026447954 0.029291693
0.24085182 -0.021544438 0.028906967
0.30446869 -0.0260513 0.022226941
-0.2136066 -0.015496576 0.020400045
-0.11792949 -0.012546729 0.020390809
-0.095029525 -0.014981002 0.022744866
-0.088514417 -0.014035251 0.021796597
-0.04532617 -0.019751841 0.027528338
-0.030203247 -0.015670517 0.02343633
-0.0048412401 -0.017711185 0.02548245
0.054123756 -0.015958507 0.023724809
0.10554541 -0.017950177 0.025721733
0.1255109 -0.014837881 0.022601373
0.15366691 -0.016805785 0.024574522
0.16997506 -0.016587466 0.024536723
0.20136584 -0.017078143 0.024847528
0.041504066 -0.085169502 0.030129394
-0.029118646 -0.070823252 0.032008104
0.033037893 -0.074327141 0.0375214
0.05717244 -0.075369336 0.038000599
0.067762718 -0.071343377 0.038000599
0.071644448 -0.073867612 0.039245035
-0.077646464 -0.061703671 0.033421539
-0.067091838 -0.064209737 0.032484628
-0.01764686 -0.06909138 0.035432097
0.020245695 -0.064155981 0.038000599
0.14398606 -0.06836126 0.030282233
0.16739874 -0.063180976 0.033033986
-0.147003 -0.050196815 0.030576982
-0.052077189 -0.059924278 0.034637555
-0.0091439802 -0.050798915 0.037992574
0.033661846 -0.051082432 0.038000599
0.043343082 -0.056797393 0.038000599
0.082653627 -0.057763904 0.038000599
0.15624681 -0.054291166 0.035366125
0.17091748 -0.05732746 0.034569591
0.23063061 -0.050878957 0.035948668
0.24527265 -0.056529742 0.034163412
0.30122378 -0.05821918 0.030593459
-0.20063807 -0.042943597 0.030229514
-0.19289702 -0.042608649 0.031426191
-0.18818088 -0.042723574 0.032066252
-0.17813951 -0.040491235 0.034119673
-0.13204072 -0.048326157 0.0366381
-0.12509301 -0.043756954 0.03791517
-0.086622097 -0.047428414 0.037166487
-0.051978398 -0.044862639 0.037839592
-0.019460874 -0.046335109 0.037453309
0.041516986 -0.041768715 0.037351273
0.093345836 -0.046379898 0.038000599
0.18588686 -0.042837605 0.037631072
0.20641962 -0.047749002 0.037082389
0.22375017 -0.047398131 0.037008863
0.27523977 -0.047023285 0.035811573
-0.1738714 -0.030097749 0.03216866
-0.16176176 -0.034596048 0.034498405
-0.077631742 -0.038234904 0.036425903
-0.029670622 -0.03767636 0.036279809
0.019901596 -0.039967954 0.03687977
0.047356896 -0.035589524 0.035733469
0.088546015 -0.034226779 0.035376541
0.12971921 -0.032788273 0.034999955
0.16789964 -0.037508439 0.036235832
0.18119299 -0.030158194 0.034311403
0.25780207 -0.03815081 0.035223953
0.26894242 -0.036641464 0.034356888
-0.29600912 -0.023495652 0.033909902
-0.14052764 -0.027011953 0.033709902
-0.011943672 -0.029942332 0.034254909
0.013032885 -0.023646357 0.031433158
0.029299973 -0.028159704 0.033788174
0.059190236 -0.024928322 0.032718591
0.15098603 -0.029972335 0.034262657
0.18118915 -0.026597828 0.033379201
0.018830691 -0.11626164 0.047772229
0.024994213 -0.11230675 0.043108776
0.0049222535 -0.07163009 0.046823751
0.022426046 -0.071699768 0.045161143
0.079213351 -0.071063489 0.048103403
0.0026389686 -0.067475118 0.043521166
0.02587942 -0.062896371 0.048782416
0.035404772 -0.06124071 0.049598232
0.11465231 -0.060319804 0.048746422
0.053068843 -0.059771761 0.041396804
-0.29475552 -0.022458062 0.042474441
0.020968076 -0.10337306 0.051864378
0.026510462 -0.085865952 0.054971442
0.057307757 -0.07216341 0.050879169
0.069835238 -0.072189167 0.050473355
-0.005642395 -0.068330906 0.055870112
0.040851653 -0.06006176 0.051473286
0.04075297 -0.059363578 0.055804297
-0.31795046 -0.021824487 0.052461967
0.043998118 -0.057601351 0.063350685
0.052845351 -0.055750661 0.066415019
-0.34129304 -0.019523766 0.061336376
-0.0067163948 -0.066712931 0.073812664
0.071307451 -0.067525074 0.070130415
0.05943751 -0.054273922 0.078940243
0.078149453 -0.054501478 0.074808888
-0.3394959 -0.01762905 0.071833163
-0.30643734 -0.019173875 0.072690524
-0.29752588 -0.018189711 0.070774339
-0.0207482 -0.073110007 0.08911591
0.020697013 -0.066636086 0.085311666
0.044827826 -0.067416862 0.083282664
0.082348421 -0.062908791 0.082618684
0.018686036 -0.058749832 0.080905408
-0.31078935 -0.016219674 0.088396803
0.10109414 -0.10055874 0.099041149
0.11038101 -0.10255332 0.093693465
0.057554252 -0.090082988 0.09534952
0.096982792 -0.098685421 0.090411484
0.024970677 -0.08420676 0.095598154
0.055425849 -0.080823183 0.096374094
0.063777417 -0.087404653 0.094940819
0.026732896 -0.07449919 0.099678256
0.03801633 -0.077273384 0.098206729
0.043217193 -0.074613035 0.098237857
0.056982294 -0.074247465 0.093927264
-0.014319956 -0.062522478 0.093607277
0.011681585 -0.06952785 0.092483111
0.059279852 -0.063497514 0.097590521
0.066483937 -0.069682263 0.098095782
0.071015507 -0.062562361 0.092511311
0.02705065 -0.055788234 0.090767942
0.041461319 -0.054059274 0.093061596
0.074920826 -0.054343209 0.091659725
-0.34458774 -0.016189476 0.095698446
0.065421879 -0.10226324 0.10487509
0.076256849 -0.10214965 0.1033584
0.091632843 -0.10369132 0.10320653
0.11785015 -0.1063062 0.10167798
0.024567273 -0.099675775 0.10497513
0.025865406 -0.072249629 0.10998049
0.035006806 -0.074249849 0.10891007
0.055796914 -0.074186042 0.10163027
0.064394981 -0.07161089 0.10841045
0.074118324 -0.073887095 0.10296543
0.10163889 -0.073158242 0.10591887
0.013940069 -0.061831713 0.10720459
0.038148217 -0.064016536 0.10622203
0.04724573 -0.066877186 0.10645925
0.056598611 -0.065311357 0.10894769
0.066980854 -0.060559563 0.10725135
0.11572666 -0.068206206 0.10621808
0.0095033217 -0.055697083 0.10832032
-0.3409138 -0.016227424 0.10089798
-0.33694404 -0.013291149 0.1066095
-0.32189405 -0.014964546 0.10762407
0.077678934 -0.11167702 0.11187107
0.11098272 -0.11045409 0.11515028
0.024631318 -0.10096958 0.11122879
0.035490096 -0.10073923 0.11611614
0.076077953 -0.10357198 0.11535318
0.086665183 -0.10539676 0.11374693
0.095013708 -0.1050375 0.11395167
0.10317017 -0.10449456 0.11697781
0.050569296 -0.099821731 0.11986777
0.051516615 -0.080054991 0.114001
0.097922802 -0.085059978 0.11926879
0.049442016 -0.075300358 0.11400101
0.061193906 -0.078902416 0.114001
0.0014554046 -0.064421408 0.11135293
0.035161909 -0.064490266 0.11345951
0.05990915 -0.061277933 0.11223781
0.07068491 -0.054185629 0.11277867
0.082509644 -0.10436598 0.12776594
0.095572032 -0.10462 0.12746985
0.062409353 -0.093273997 0.12581721
0.093815953 -0.095847443 0.12593481
0.034282908 -0.081415296 0.12582186
0.04991623 -0.080518231 0.12547114
0.055083781 -0.087180883 0.12685733
0.055772629 -0.074769273 0.12103684
0.07406313 -0.077567123 0.12345529
0.092931017 -0.07826069 0.12372834
0.0357485 -0.061133869 0.12617508
0.054248087 -0.069015481 0.1216319
-0.010125965 -0.055485051 0.12800691
0.015932783 -0.059705839 0.12494807
0.055340968 -0.058518451 0.1274779
0.065830208 -0.056671053 0.12374263
-0.35291627 -0.012961011 0.12493331
-0.33986053 -0.012179662 0.12148307
0.075492188 -0.096394315 0.13251747
0.11248399 -0.095283329 0.13176259
0.039689701 -0.086021319 0.13042212
0.042371705 -0.087305233 0.13118392
0.070208527 -0.088555515 0.13380913
0.084402785 -0.08037325 0.13235618
0.092418894 -0.089316577 0.13377163
0.11514099 -0.082422502 0.13139091
-0.010729381 -0.054754898 0.13289014
0.019180935 -0.051809158 0.13438565
0.038109779 -0.059296653 0.13456295
0.015275123 -0.050893746 0.1428494
0.050421543 -0.055335928 0.14832945
0.023394618 -0.049614202 0.14923251
-0.032286398 -0.061082263 0.15649264
-0.012001321 -0.051083311 0.15746072
-0.0095813451 -0.054591618 0.15381499
0.038120605 -0.056405105 0.15016221
0.030455839 -0.048939444 0.15558101
-0.023399256 -0.051502697 0.16279736
-0.019422887 -0.057350233 0.16061962
-0.0022384329 -0.05465427 0.16007718
0.044919796 -0.053403851 0.16215765
-0.0039610872 -0.048787355 0.16829637
0.035591461 -0.048758723 0.16664407
0.011379448 -0.053982463 0.17969686
0.024173584 -0.047075901 0.17311412
0.029703803 -0.050852861 0.18533063
-0.032478049 -0.049899086 0.18413885
-0.025634278 -0.048448287 0.18358232
-0.016990112 -0.046811037 0.18924737
-0.0061116545 -0.046810411 0.18291323
-0.0033098985 -0.051338293 0.19600439
0.0075208349 -0.05207669 0.19242918
0.021263622 -0.050346959 0.19327794
-0.028620061 -0.049061693 0.19875488
-0.021422274 -0.045582265 0.20013613
-0.0091746449 -0.043918725 0.20424527
0.0086364252 -0.049854562 0.20374033
-0.034872279 -0.045379918 0.21658313
-0.0202448 -0.043663993 0.2124173
-0.0063580219 -0.042894416 0.21245563
0.013918507 -0.046817359 0.2166205
-0.043646351 -0.044109788 0.22424622
-0.039148811 -0.043468356 0.22520778
-0.020512652 -0.047340531 0.22423659
-0.044637054 -0.044992395 0.23545934
-0.055351909 -0.043029077 0.24252774
-0.038530957 -0.040650431 0.24344307
-0.027551394 -0.040121254 0.24062294
-0.035511632 -0.043740913 0.25012207
-0.012659443 -0.039480023 0.25304058
-0.040762544 -0.037104655 0.26871219
-0.070013918 -0.03897224 0.27554289
-0.064552687 -0.039635401 0.27543068
-0.024931483 -0.037227854 0.27120683
-0.05636628 -0.036343396 0.28332809
-0.043940537 -0.037691005 0.28313908
-0.027978936 -0.037837278 0.28738239
-0.055666044 -0.036390923 0.2966975
-0.044896595 -0.034217227 0.29409501
-0.079703033 -0.034726635 0.30936447
-0.046246927 -0.033333901 0.3092708
-0.085848704 -0.033902697 0.31861174
-0.072544225 -0.032589771 0.31875852
-0.066776544 -0.032372393 0.3162722
-0.05141148 -0.036032103 0.31522918
