# .PCD v0.7 - Point Cloud Data file format
VERSION 0.7
FIELDS x y z
SIZE 4 4 4
TYPE F F F
COUNT 1 1 1
WIDTH 852
HEIGHT 1
VIEWPOINT 0 0 0 1 0 0 0
POINTS 852
DATA ascii
-0.11837489 -0.022435088 -0.31139642
-0.1115931 -0.022755459 -0.30811527
-0.10579713 -0.023046762 -0.29279086
-0.099177092 -0.023965515 -0.29309452
-0.1150818 -0.025301903 -0.27979371
-0.10421687 -0.026728308 -0.2722784
-0.10426033 -0.02592399 -0.26328236
-0.089200303 -0.028235592 -0.26776642
-0.091791779 -0.02778884 -0.25198096
-0.089498825 -0.029389571 -0.25443044
-0.093878642 -0.029650321 -0.24909148
-0.085293368 -0.026315641 -0.24588668
-0.070791408 -0.026391957 -0.23385407
-0.098030806 -0.031316474 -0.22984231
-0.087857112 -0.031006016 -0.22135007
-0.063363343 -0.033494525 -0.22800653
-0.07630071 -0.03425049 -0.21268456
-0.043571562 -0.032267909 -0.21288796
-0.060314186 -0.028240144 -0.2140379
-0.070920542 -0.033474926 -0.20434317
-0.040937573 -0.030736018 -0.20035228
-0.074154928 -0.03464701 -0.19486085
-0.062633567 -0.037722819 -0.18537872
-0.050570179 -0.0313913 -0.18720201
-0.078056991 -0.03753309 -0.17975736
-0.066743679 -0.038988121 -0.17038879
-0.049984954 -0.040611044 -0.16365434
-0.06707368 -0.038927224 -0.16026986
-0.05726099 -0.039704148 -0.16894501
-0.064256109 -0.040336676 -0.15966174
-0.055116121 -0.041702595 -0.15085267
-0.042635635 -0.04215629 -0.1523011
-0.042318586 -0.036694519 -0.15053084
-0.0286888 -0.03334251 -0.15676875
-0.060893238 -0.041606624 -0.14073668
-0.056509364 -0.042491436 -0.1419137
-0.043112159 -0.038505822 -0.14163136
-0.031530451 -0.036312319 -0.14275201
-0.0061324039 -0.04541612 -0.13687678
0.0056037721 -0.043171447 -0.13559555
-0.022788685 -0.036110383 -0.13587631
-0.006122414 -0.035988644 -0.13245955
0.0047717988 -0.039530072 -0.13975991
-0.026120327 -0.045806497 -0.12509072
-0.014109054 -0.046719123 -0.12193884
0.014153144 -0.043475471 -0.12345262
-0.037027743 -0.039672013 -0.12990476
-0.029854609 -0.038497493 -0.12962136
0.067219414 -0.080855168 -0.1106682
0.093727008 -0.070863947 -0.11143605
0.061549842 -0.065436475 -0.1116892
0.076280788 -0.066502571 -0.11148132
0.09334214 -0.061692078 -0.11010436
0.045620784 -0.059424955 -0.1110304
0.056115396 -0.058975108 -0.11327483
-0.051505119 -0.045091115 -0.11412746
-0.044462528 -0.044309482 -0.11195225
-0.033806007 -0.042010814 -0.11453369
-0.028655283 -0.046317723 -0.11903406
0.014971852 -0.046259835 -0.11758949
0.021094214 -0.041010708 -0.1131846
0.072668418 -0.085946336 -0.10140172
0.088996172 -0.08317703 -0.10740279
0.046475541 -0.07904014 -0.10218167
0.057476051 -0.079064488 -0.10322385
0.030094076 -0.050455585 -0.10174631
0.051989846 -0.050789412 -0.101816
0.064742647 -0.05106277 -0.10669207
0.079378873 -0.057277773 -0.10687009
0.081067495 -0.05091054 -0.10666878
0.092960514 -0.055052005 -0.10289185
-0.023425473 -0.042122845 -0.10413405
0.02551258 -0.045789085 -0.10768203
0.068628691 -0.049639959 -0.10407791
-0.34441468 -0.01922537 -0.10491601
0.051892325 -0.081980869 -0.095621556
0.073037423 -0.086073384 -0.094663873
0.081351303 -0.085625865 -0.09241195
0.042663347 -0.076908864 -0.095651187
0.083802797 -0.069560193 -0.095428206
0.01175903 -0.05424235 -0.099562645
0.023257313 -0.051106751 -0.092001557
0.052016679 -0.050453924 -0.095461085
0.064939439 -0.052981067 -0.095336057
0.084242076 -0.055181988 -0.092648849
0.092699468 -0.050130844 -0.097189941
-0.043542188 -0.04844467 -0.094120175
-0.023170639 -0.046849526 -0.092806928
-0.01307719 -0.041530278 -0.097309768
-0.0067966422 -0.049988642 -0.096827075
0.01190605 -0.048634097 -0.098500878
0.024513071 -0.040498715 -0.090620257
0.034728736 -0.045878489 -0.096073344
0.070585862 -0.046754427 -0.097142801
-0.32940048 -0.01868028 -0.097915225
0.047872789 -0.073768668 -0.086203404
0.05220791 -0.075856134 -0.087809205
0.073370926 -0.073205829 -0.085446827
0.083343685 -0.073141843 -0.085348129
0.092298254 -0.079366274 -0.084641606
0.048069581 -0.065128051 -0.082811743
0.078525156 -0.062043514 -0.085239485
0.085856274 -0.061248254 -0.080423146
0.091826886 -0.060290299 -0.086331114
-0.026666032 -0.050247181 -0.08480987
0.032282699 -0.051558036 -0.084065527
0.044411875 -0.058356293 -0.085479647
-0.044476151 -0.047970526 -0.085626528
-0.01374075 -0.0439579 -0.082233772
0.036243603 -0.042693622 -0.084138505
-0.34503269 -0.021365054 -0.081407771
-0.05068456 -0.050624073 -0.073855698
-0.033902623 -0.051092081 -0.075118728
0.0046943612 -0.053117409 -0.070194893
0.026644744 -0.040872063 -0.078189075
0.046832401 -0.045647472 -0.075815149
-0.33825794 -0.021288861 -0.077163339
-0.31043404 -0.02108339 -0.075441189
0.003019606 -0.053534739 -0.065586269
0.018896561 -0.053991713 -0.067595288
0.047146495 -0.054540712 -0.060893122
-0.027049167 -0.047894944 -0.06726224
-0.013012362 -0.046954226 -0.060911041
0.024530653 -0.040927324 -0.06720943
-0.32282537 -0.023232028 -0.062385947
-0.040539004 -0.085428596 -0.051898763
-0.038124681 -0.088199496 -0.051701769
-0.0027141878 -0.088335812 -0.059083298
-0.022748303 -0.079395369 -0.050046515
-0.02370337 -0.069451101 -0.053053007
-0.04141365 -0.051196281 -0.057308182
-0.02360747 -0.055099107 -0.054569744
0.0012358595 -0.054458968 -0.057051949
0.011956071 -0.054942563 -0.056072734
0.046772689 -0.055435162 -0.057102446
-0.017984774 -0.047798719 -0.059421025
-0.009641394 -0.047191992 -0.05599362
0.02598526 -0.042132169 -0.057965964
0.057179041 -0.045769662 -0.051519006
-0.32758975 -0.024531841 -0.055491809
-0.035843126 -0.087291546 -0.043626729
-0.022455037 -0.083587453 -0.045861363
-0.023629095 -0.07059136 -0.049318768
-0.0044274032 -0.055942316 -0.043070335
0.0069982032 -0.05665965 -0.040343001
0.033830985 -0.056903798 -0.046041284
0.056003407 -0.056581602 -0.045896221
0.002801043 -0.047540814 -0.042164657
-0.32479414 -0.025656778 -0.044638414
-0.3100071 -0.024600163 -0.040717095
-0.29225585 -0.026019203 -0.047334857
-0.036051363 -0.060920648 -0.031324498
-0.051720671 -0.055064097 -0.037835591
-0.046672612 -0.054109398 -0.034928221
-0.017252907 -0.053762451 -0.035197414
-0.0062957462 -0.059766233 -0.030820198
-0.16972661 -0.043299772 -0.030922845
-0.15541375 -0.043194149 -0.030957934
-0.14979734 -0.041445747 -0.031388734
-0.13338523 -0.042500261 -0.031188464
0.0030434425 -0.048338503 -0.035095315
0.066810355 -0.044521689 -0.030516887
0.11929246 -0.045698658 -0.030125843
0.14008148 -0.040771607 -0.031455912
0.2039257 -0.044490054 -0.0305274
0.22845452 -0.042910863 -0.031052049
0.23691179 -0.042145565 -0.0313063
0.24863529 -0.045223907 -0.030283589
0.26329619 -0.04249756 -0.030883648
-0.16140938 -0.033155903 -0.031702451
-0.13216355 -0.038652547 -0.031666916
-0.11292255 -0.034541644 -0.031841103
-0.054685589 -0.030158371 -0.031402931
-0.037254471 -0.03234905 -0.031621836
-0.010625607 -0.034370728 -0.031824
0.038680959 -0.039837487 -0.03154888
0.1518876 -0.033301692 -0.031717055
0.16580738 -0.031559534 -0.031542953
0.23689321 -0.031261008 -0.031513229
-0.3351796 -0.025714595 -0.038088355
-0.3267152 -0.025328647 -0.039022338
-0.31281802 -0.027122555 -0.033861846
-0.020897578 -0.027480219 -0.030695532
0.076459117 -0.029166088 -0.031255625
0.16770935 -0.026595125 -0.030401479
-0.068722822 -0.067017704 -0.025618218
-0.029973425 -0.067463234 -0.022865541
0.015500492 -0.066939585 -0.025811344
0.05623208 -0.064840272 -0.029650092
-0.20020889 -0.052758466 -0.021931784
-0.19285063 -0.056084212 -0.020474736
-0.18175448 -0.050505687 -0.026962746
-0.10249436 -0.059299614 -0.021510448
-0.095634148 -0.059670597 -0.020332269
-0.023436427 -0.051712088 -0.025426852
0.053983789 -0.059670597 -0.022196192
0.078037366 -0.059077781 -0.021444799
0.15127014 -0.053836085 -0.026324742
0.17061765 -0.054873317 -0.025494084
0.22590728 -0.055237941 -0.024835775
0.25369868 -0.056578532 -0.024128493
0.26791936 -0.05425854 -0.025586363
0.27680272 -0.050428532 -0.026989589
-0.22095412 -0.048338499 -0.021518912
-0.20006618 -0.048338499 -0.021885049
-0.18134075 -0.048338499 -0.028096922
-0.14756805 -0.046777561 -0.026397511
-0.071149133 -0.048338499 -0.025564216
-0.017260849 -0.048338503 -0.023420088
0.031880341 -0.048338499 -0.027599333
0.065349765 -0.048338495 -0.027587358
0.08546453 -0.048338499 -0.029368635
0.11278992 -0.048338499 -0.0284866
0.15181951 -0.049556136 -0.028553948
0.17592813 -0.048338499 -0.02556463
0.22631213 -0.048338499 -0.027469536
0.24616973 -0.048338495 -0.023258548
0.26978767 -0.048338503 -0.025407014
0.27179393 -0.048338503 -0.022959024
0.30134851 -0.042345114 -0.025372867
-0.193151 -0.033904914 -0.021130744
-0.059539098 -0.039875109 -0.02710944
0.28340122 -0.037614107 -0.024914766
0.2980608 -0.039008114 -0.026385937
-0.3137905 -0.027346469 -0.023065634
-0.30464289 -0.026151633 -0.025892053
-0.21367815 -0.021189239 -0.025922954
-0.026011426 -0.023524508 -0.029362403
-0.0059278421 -0.020000082 -0.027606413
0.059127331 -0.022141138 -0.028672958
0.12609883 -0.021868983 -0.028537441
0.16620471 -0.021279927 -0.028244069
0.17912059 -0.020764314 -0.027987171
0.21731624 -0.020253578 -0.027732562
-0.22616364 -0.017579606 -0.02377707
-0.21095492 -0.012168217 -0.020382084
-0.19393802 -0.01333639 -0.022042934
-0.17475747 -0.012968958 -0.022478206
-0.14450663 -0.018429093 -0.02682367
-0.13267188 -0.013787054 -0.023250833
-0.1227845 -0.014073925 -0.023481529
-0.089749396 -0.019254649 -0.027235037
-0.070977688 -0.013186355 -0.02276776
-0.063632257 -0.012018738 -0.021328585
-0.033129621 -0.013873252 -0.023320137
-0.024724955 -0.013500428 -0.023020336
0.033212483 -0.0158321 -0.024895377
0.052752204 -0.017782483 -0.026344931
0.064126007 -0.019859325 -0.027536165
0.073595479 -0.014614711 -0.023550589
0.089257807 -0.016119843 -0.025126718
0.10795516 -0.011969306 -0.021266632
0.1149369 -0.017610308 -0.026325399
0.13073185 -0.011227578 -0.020340566
0.15351781 -0.012227734 -0.021589288
0.16444746 -0.01281164 -0.022318441
0.2035144 -0.015708193 -0.024795752
0.24506988 -0.015735721 -0.024817614
0.26741993 -0.011788758 -0.020237345
-0.13869081 -0.064460985 -0.013312451
-0.12486783 -0.065140232 -0.011816062
-0.11731409 -0.061076611 -0.019291349
-0.063026428 -0.067545697 -0.016989926
-0.032848846 -0.067293547 -0.016558412
-0.024961293 -0.067041397 -0.010702358
-0.014487968 -0.067545697 -0.010505773
0.078184314 -0.065020673 -0.01235183
0.12382611 -0.062136523 -0.017967775
0.16435304 -0.06168858 -0.018527152
0.2020708 -0.065194458 -0.011653359
0.22854212 -0.065205 -0.011621722
-0.22488457 -0.054999083 -0.013523839
-0.15887178 -0.059670601 -0.019769939
-0.0084937736 -0.059670597 -0.013421915
0.011673834 -0.059670605 -0.012699657
0.023292091 -0.059670597 -0.014897589
0.048527554 -0.059670601 -0.013855092
0.064946696 -0.059670601 -0.010194384
0.15074037 -0.059670605 -0.016799262
0.1664765 -0.059670605 -0.019037481
0.18195371 -0.059670601 -0.012634244
0.23997903 -0.059670601 -0.018677229
0.24148512 -0.059670601 -0.010611726
-0.2719484 -0.041889753 -0.013604341
-0.25912163 -0.044008221 -0.015567451
-0.24030952 -0.048338495 -0.016140958
-0.23486206 -0.048338499 -0.014575243
-0.059539098 -0.040834874 -0.015741438
-0.025659094 -0.048338495 -0.019121299
0.019229241 -0.048338499 -0.018974015
0.058907062 -0.048338499 -0.01909519
0.065418541 -0.048338503 -0.018547926
0.13599645 -0.048338499 -0.010132128
0.17644501 -0.048338503 -0.014553806
0.18167783 -0.048338503 -0.013287282
0.24127924 -0.048338499 -0.017525988
0.27970591 -0.048338499 -0.011321314
0.29428402 -0.048338503 -0.018303517
0.3361136 -0.046795234 -0.013914188
0.26146775 -0.032951675 -0.015875874
0.33509645 -0.038353208 -0.015593586
0.34569269 -0.037233025 -0.010848857
-0.32779121 -0.027957048 -0.017955478
-0.28588226 -0.027028594 -0.015186524
-0.29338965 -0.018177457 -0.011296659
-0.25738719 -0.014546189 -0.016109621
-0.095086053 -0.010810401 -0.019819735
0.01967404 -0.01091666 -0.019952418
0.27098417 -0.010727457 -0.018325467
0.28537583 -0.011327904 -0.015959432
0.29392451 -0.012116795 -0.013871863
-0.25288683 -0.0091674887 -0.010790453
-0.20168161 -0.006492422 -0.011638641
-0.19677293 -0.0075983074 -0.013861944
-0.17952582 -0.0077049416 -0.014676968
-0.16363996 -0.0060625011 -0.011044028
-0.091437608 -0.0086388336 -0.016595433
-0.053982399 -0.0089929961 -0.017306268
-0.0028941438 -0.0061911284 -0.011425962
0.03458691 -0.0096125528 -0.01832398
0.045071498 -0.0092339888 -0.017789964
0.062676236 -0.0062475116 -0.011593344
0.13213623 -0.0082997428 -0.015914846
0.30173457 -0.091196753 -0.0064056371
-0.18676409 -0.063924685 -0.0091167418
-0.17357504 -0.066664159 -0.0062813843
-0.13635561 -0.066156521 -0.0087667992
-0.078778423 -0.067350283 -0.0069968514
-0.017126299 -0.067041397 -0.0090336064
-0.0033536013 -0.067545697 -0.004539615
0.016369076 -0.067545697 -0.007457627
0.033500906 -0.067545697 -0.0060154917
0.046623543 -0.067545697 -0.00088717695
0.094268657 -0.065760605 -0.0099547021
0.11534216 -0.065964028 -0.0093443505
0.13062163 -0.066986263 -0.0057455963
0.15708359 -0.067179359 -0.0038093941
0.18174471 -0.067247361 -0.0031274923
0.23853905 -0.066913225 -0.0064779888
0.31539136 -0.061918981 -0.0020602879
-0.24650995 -0.052754231 -0.0073259994
-0.19716626 -0.059670601 -0.00882921
-0.15138 -0.059670601 -0.0042042304
-0.12485071 -0.059670605 -0.0069735637
-0.059745036 -0.059670601 -0.0079095997
0.25142759 -0.059670605 -0.0087262373
0.28670138 -0.059670601 -0.0012301997
0.3179647 -0.059670601 -0.0034055146
0.33009964 -0.058474943 -0.00015268862
0.34968799 -0.050817885 -0.0013144965
-0.24569994 -0.048338499 -0.00015782076
-0.193151 -0.040405102 -0.0017282963
-0.18157622 -0.048338499 -0.0075605866
-0.17357439 -0.048338499 -0.0032412354
-0.15894899 -0.048338499 -0.0051596686
-0.14667501 -0.04094626 -0.0094751213
-0.089589402 -0.048338499 -0.0073224939
-0.0017193463 -0.048338495 -0.0021737488
0.074727207 -0.048338503 -0.0013710662
0.095117792 -0.048338499 -0.0019548093
0.11694813 -0.048338499 -0.0048587322
0.14100337 -0.048338499 -0.0022377539
0.15250652 -0.048338495 -0.0064182682
0.28069189 -0.042929884 -0.0050608609
0.35229447 -0.045709413 -0.0067096232
-0.31552422 -0.036036108 -0.0047572111
0.34958333 -0.03636099 -0.0088560972
-0.33884621 -0.024009774 -0.0024602108
-0.193151 -0.027738005 -0.0052820332
-0.33976492 -0.016772669 -0.000980451
-0.29393578 -0.01022743 -0.0014485293
-0.28207159 -0.011012351 -0.0057837013
-0.27181166 -0.010877417 -0.0087819984
0.29687917 -0.010090034 -0.0078690797
0.30268854 -0.011745566 -0.0094658211
0.31276101 -0.01272756 -0.0042873472
-0.2991859 -0.001930568 -0.0013009767
-0.28114986 -0.0073891869 -0.0023121203
-0.26706403 -0.0082006827 -0.00099719886
-0.23622827 -0.0035848019 -0.000964823
-0.2050288 -0.0042897793 -0.0034745417
-0.17625499 -0.0045126909 -0.0062720836
-0.15540612 -0.0047449153 -0.0071323253
-0.11846402 -0.0042972355 -0.0041349418
-0.09691751 -0.0040636635 -0.0017913127
-0.079457238 -0.0051571615 -0.0083562182
-0.053870484 -0.0050680768 -0.0080917645
-0.043290749 -0.0041498328 -0.0026559199
-0.022309339 -0.0040806988 -0.0019622401
0.0010175612 -0.0043936879 -0.0051027294
0.031689398 -0.005206055 -0.0085013825
0.12372918 -0.0039113252 -0.00019319037
0.14055496 -0.0039132978 -0.00028256266
0.17428434 -0.0044063893 -0.0052301744
0.24489513 -0.0043773144 -0.0049384413
0.2650142 -0.0046099378 -0.0044739866
-0.28716376 0.014132401 -0.0018634833
-0.26851815 0.027848121 -0.0012629583
-0.31548566 0.035060436 -0.001085722
-0.33047169 0.047473446 -0.00042113109
-0.32385898 0.041894294 -0.00071209564
-0.32375455 0.055065446 -0.0010882583
-0.31424463 0.051407006 -0.0016359868
-0.34123737 0.067877986 -0.00019190345
-0.33429101 0.074050903 -0.00086827518
-0.32805538 0.079031028 -0.0014554259
-0.31608874 0.077652395 -0.001149872
-0.20025674 -0.062940158 0.00019864054
-0.18457678 -0.065510407 0.003023617
-0.1401004 -0.067403793 0.0012871015
-0.13651569 -0.066926159 0.0060768835
-0.12516147 -0.067016654 0.0051694568
-0.097463384 -0.067386262 0.0014629725
-0.07554011 -0.067505002 0.0059367297
-0.023970453 -0.067545697 0.0074486821
-0.010747165 -0.067545697 0.0043765241
-0.0090055419 -0.067545697 0.0049264864
0.078259453 -0.06664139 0.0070591234
0.1309278 -0.067390092 0.001424538
0.15065722 -0.067516506 0.00015682726
0.18199484 -0.066480726 0.0075225881
0.28420657 -0.065434083 0.0073530832
0.29866603 -0.068999931 0.00089299196
-0.25275788 -0.052248128 0.0023807832
-0.21782629 -0.059075467 0.0060870484
-0.17127231 -0.059670597 0.00096281228
-0.1283273 -0.059670601 0.0098390924
-0.010182135 -0.059670597 0.0014754818
0.04338472 -0.059670605 0.0082913814
0.067732766 -0.059670597 0.0022711651
0.078835562 -0.059670605 0.0054022558
0.090809628 -0.059670601 0.00032497273
0.23877919 -0.059670605 0.0038362094
0.32701701 -0.057222355 0.0086979084
0.33205053 -0.057534747 0.0017686032
0.34285688 -0.053216524 0.002778532
-0.28696641 -0.043169118 0.0067504495
-0.25618708 -0.048338495 0.0076327575
-0.22135936 -0.048338499 0.0098934863
-0.19417694 -0.048338499 0.0052247206
-0.18459414 -0.048338499 0.0097273756
-0.14667501 -0.047657318 0.0023490326
-0.10937449 -0.048338499 0.0032229731
-0.082976453 -0.048338499 0.0089400234
-0.055984285 -0.048338499 0.0069424198
-0.048196383 -0.048338499 0.0012727464
-0.020679245 -0.048338499 0.0069068698
0.074854329 -0.048338499 0.00020448281
0.17736655 -0.048338499 0.007023152
0.24060038 -0.048338499 0.0060059959
0.2693525 -0.048338503 0.0056731589
0.30340219 -0.048338503 0.003971694
-0.33820015 -0.033473358 0.00017604756
-0.14667501 -0.030596558 0.0076437583
0.35168585 -0.033201899 0.0031190941
-0.193151 -0.029226789 0.0066945003
0.29254594 -0.02071465 0.0015402059
-0.30160928 -0.014081623 0.004641844
0.29711777 -0.01321107 0.0057932176
0.31436938 -0.013313003 0.0036019739
-0.2957831 -0.0031704935 0.0012146464
-0.26397368 -0.0080465758 0.0024983219
-0.25425377 -0.00082955416 0.0033791217
-0.2210093 -0.0054054693 0.0084535405
-0.18723509 -0.0055544544 0.0089529566
-0.16029494 -0.0040245443 0.0011270947
-0.15204248 -0.0040862849 0.001746631
-0.14042406 -0.0048832493 0.0072715604
-0.12553607 -0.0049699354 0.0075288983
-0.11554299 -0.0049588471 0.0074959816
-0.08956603 -0.0039427346 0.00030617302
-0.078761369 -0.0043478692 0.0043714931
-0.012717009 -0.0044615315 0.0055120392
-0.0017187552 -0.0050270795 0.0071230414
0.098334268 -0.0040632123 0.0015151071
0.12540305 -0.005423611 0.0088758636
0.17816043 -0.005251158 0.0083638476
0.21435328 -0.0039771358 0.00065136951
0.23654661 -0.0041083791 0.0019683349
0.25698218 -0.003980157 0.00068168738
0.26199061 -0.0043911366 0.0048056585
0.27314499 -0.0066702305 0.0049785576
-0.30405951 0.0050274651 0.00087651028
-0.29089811 0.0071205017 0.0017752829
-0.30395332 0.017053219 0.0011476927
-0.28309777 0.013444601 0.0010805216
-0.32110316 0.02620527 0.00027305356
-0.28232399 0.028354155 0.0028321878
-0.27108479 0.025052857 0.0019166784
-0.29239061 0.035171371 0.0023433773
-0.28203881 0.030063728 0.0029312694
-0.29192716 0.05489311 0.00048202663
-0.32037708 0.063162945 0.001259306
-0.32395631 0.087230362 0.00064075732
-0.15953577 -0.060977779 0.019143358
-0.14362051 -0.060980752 0.019139647
-0.11821102 -0.06533365 0.010964009
-0.09081386 -0.06555891 0.013559072
-0.088076785 -0.065393694 0.01721802
-0.072129488 -0.067545697 0.016986899
-0.014545207 -0.067545697 0.01092416
0.036500026 -0.067545697 0.018229604
0.069042943 -0.067313589 0.012828425
0.10031524 -0.060734011 0.019447763
0.12860453 -0.061400708 0.018615225
0.16096166 -0.062536523 0.016903043
0.18767461 -0.062203452 0.017571526
0.19512203 -0.063999802 0.01396631
0.23518723 -0.063783325 0.014400767
0.2411814 -0.063860536 0.014245809
0.25592345 -0.06541317 0.010725432
-0.17236543 -0.059670601 0.015890811
-0.14713418 -0.059670601 0.014936732
-0.11038896 -0.059670601 0.013108662
-0.10265532 -0.059670605 0.012857651
-0.088350236 -0.059670605 0.017467126
-0.054914299 -0.059670597 0.015045637
-0.035116293 -0.059670597 0.01520364
-0.027598584 -0.059670597 0.017820865
0.033078521 -0.059670605 0.010249242
0.059636556 -0.059670601 0.010671316
0.082884088 -0.059670605 0.012496641
0.10270482 -0.059670597 0.013179826
0.11711087 -0.059670601 0.015550768
0.19428276 -0.059670597 0.015039724
0.25376534 -0.059670597 0.016853811
0.29300714 -0.059670597 0.016714837
-0.2609894 -0.041406617 0.016760156
-0.24553087 -0.045830268 0.01769805
-0.18758532 -0.048338499 0.011455544
-0.12294628 -0.048338499 0.012340644
-0.071847059 -0.048338499 0.01775006
-0.063737646 -0.048338503 0.012398894
-0.043915682 -0.048338499 0.019321375
-0.032203011 -0.048338499 0.018884674
-0.014802873 -0.048338499 0.013907892
-0.0082529215 -0.048338495 0.014968354
0.0064668367 -0.048338499 0.015572727
0.04629102 -0.048338499 0.01815493
0.060885087 -0.048338499 0.015705414
0.16821785 -0.048338499 0.017508456
0.2303215 -0.048338499 0.012458812
0.24445972 -0.048338499 0.0174157
0.26680204 -0.048338499 0.019630024
0.27102083 -0.048338499 0.010786515
0.28721595 -0.048338495 0.01164002
-0.30229405 -0.03425236 0.010054439
-0.29854807 -0.033403415 0.010960294
-0.26700351 -0.035528757 0.017566379
-0.059539102 -0.033731088 0.019801248
0.26263866 -0.031075567 0.014482448
0.285844 -0.033274759 0.014634013
0.34012115 -0.032869119 0.012567856
-0.327517 -0.027999168 0.016190624
-0.30468222 -0.028918907 0.0174572
-0.29966205 -0.029537441 0.012548888
-0.26493451 -0.023174055 0.017433377
-0.059539095 -0.024360646 0.016593151
-0.28575754 -0.016995735 0.012077586
-0.25020733 -0.018978495 0.019419326
0.28951421 -0.014639078 0.018779883
0.31177449 -0.019180533 0.016720338
-0.21024433 -0.0062239524 0.010398388
-0.19011009 -0.0079943556 0.014879799
-0.11630633 -0.0097885299 0.018272322
-0.090944409 -0.0067659225 0.012564572
-0.061154366 -0.0062848926 0.011432719
-0.053425062 -0.0072559505 0.013548169
-0.031904198 -0.0086406982 0.016327681
0.042226519 -0.0064400211 0.011893053
0.055226363 -0.0089141196 0.016773993
0.086490542 -0.0084803272 0.016005781
0.24659987 -0.0065100174 0.012050889
0.25110221 -0.0080631701 0.015168026
0.27422994 -0.0089605395 0.014173064
-0.044834301 -0.067440614 0.022330007
-0.030279672 -0.067545697 0.020010022
-0.024964839 -0.064663388 0.029518645
-0.016445413 -0.066081546 0.027646387
0.0097015603 -0.067545697 0.020691646
0.016193915 -0.066271424 0.027191553
0.037305579 -0.067080319 0.025191754
0.073303372 -0.060819749 0.02304478
-0.18335101 -0.050927803 0.026211485
-0.17647867 -0.051164299 0.027249601
-0.1446121 -0.058547091 0.021978216
-0.12151632 -0.053490926 0.025979817
-0.096669495 -0.058005624 0.024257427
-0.083167128 -0.059670601 0.026504269
-0.076750927 -0.059670601 0.025361713
-0.0026592985 -0.059670597 0.026072033
0.031116832 -0.059670605 0.026045281
0.066681996 -0.055864237 0.028067231
0.072915971 -0.059670605 0.023329694
0.080812454 -0.057503875 0.023116
0.13456769 -0.056543935 0.023884704
0.1510396 -0.055705752 0.02455591
0.17355621 -0.053441849 0.026339529
0.18498603 -0.052324656 0.026898168
0.20656273 -0.054303944 0.025678325
0.22624302 -0.056325771 0.023828255
0.23133397 -0.057660151 0.022990858
-0.23333877 -0.046417505 0.020652354
-0.22934891 -0.047094699 0.021030322
-0.21349883 -0.048338499 0.022203732
-0.20414802 -0.040646929 0.027947916
-0.19817643 -0.048338495 0.022600271
-0.18815106 -0.048338499 0.025995106
-0.16876075 -0.048338499 0.020379707
-0.15528199 -0.048338499 0.026791729
-0.11971928 -0.048338499 0.024224762
-0.10473916 -0.048338499 0.023115652
-0.099117309 -0.046462473 0.029600609
-0.071002327 -0.048338499 0.021156015
-0.029684886 -0.048338499 0.024572872
-0.01476402 -0.048338503 0.025830811
0.055382222 -0.048338499 0.024740959
0.12718962 -0.048338499 0.022154441
0.15141933 -0.049611051 0.028255109
0.18219203 -0.047891743 0.029064549
0.19471425 -0.048338499 0.0230872
0.22385365 -0.048338499 0.022724049
0.29457477 -0.048338499 0.02277719
0.30196923 -0.048338499 0.020156473
-0.21807252 -0.035497159 0.027350388
0.30119088 -0.031954847 0.02521213
0.31305248 -0.039560098 0.022549195
-0.32212088 -0.026965143 0.025193641
-0.31238401 -0.027790651 0.026834661
-0.29069889 -0.028977681 0.020928364
-0.22161046 -0.025328172 0.026545523
-0.20119829 -0.02295452 0.027228938
-0.193151 -0.022311594 0.02304663
-0.18839593 -0.02587121 0.028734161
-0.14667501 -0.023198461 0.021783812
-0.11623985 -0.020150229 0.027409747
-0.040850885 -0.024212897 0.029338766
-0.031774014 -0.024441253 0.029414631
0.018941091 -0.025754537 0.029850904
0.08593823 -0.024019292 0.029274322
0.097649023 -0.025614578 0.029804233
0.26704824 -0.02400939 0.025266308
0.29623401 -0.028891819 0.025488289
-0.22032715 -0.018308619 0.024111096
-0.20342791 -0.015682811 0.023158532
-0.12353134 -0.018950839 0.026812011
-0.1060034 -0.01375607 0.022954464
-0.098261192 -0.014016086 0.023163542
-0.079788424 -0.013616642 0.022842349
-0.061000977 -0.019753879 0.027212096
-0.041014329 -0.014636243 0.023662211
0.050696038 -0.016584277 0.025228636
0.10065829 -0.016352767 0.025042515
0.13889697 -0.01557803 0.02441955
0.16698378 -0.014152774 0.023273356
0.20844959 -0.012623124 0.02181188
0.22759917 -0.011798664 0.020782378
0.25817269 -0.014668844 0.023688398
0.26543134 -0.017494638 0.025556214
0.27055892 -0.018385319 0.0200077
-0.022357102 -0.062750243 0.03523659
-0.008087053 -0.063325793 0.030016033
0.054051742 -0.063349262 0.030667206
-0.038553782 -0.057114985 0.031052701
-0.015061634 -0.053643566 0.03478536
-0.0031973301 -0.056290135 0.032021772
-0.18459755 -0.040128067 0.030280152
-0.036852039 -0.047236346 0.031052697
0.015221272 -0.042469531 0.031052699
0.039420515 -0.047430839 0.031052699
0.043198012 -0.045941532 0.031052697
0.058121528 -0.049609039 0.031052699
0.071282201 -0.049131069 0.038528174
0.13792889 -0.041700665 0.031091643
0.18569399 -0.041200053 0.03114159
0.26735333 -0.041677743 0.030644031
-0.18542615 -0.039119273 0.030296117
-0.1399439 -0.036626138 0.031597652
-0.12631939 -0.039322559 0.031328805
-0.072538391 -0.031425238 0.031257935
-0.05327918 -0.033144742 0.031430017
-0.031799227 -0.032555752 0.031371105
-0.028841542 -0.03223747 0.031339232
-0.009877447 -0.039029133 0.031358063
0.0075206337 -0.038692035 0.031391673
0.044656329 -0.035330895 0.031629629
0.066742465 -0.037350338 0.031525452
0.14005399 -0.039684217 0.031292833
0.15875617 -0.039335154 0.031327549
0.19526976 -0.036560934 0.031604156
0.20036031 -0.035126939 0.031278349
0.2436341 -0.031814486 0.031296875
-0.31534165 -0.026956594 0.03365048
-0.036950994 -0.026393984 0.030063381
0.049613904 -0.029609581 0.031076357
0.054711394 -0.026465567 0.030087162
0.077087834 -0.026924573 0.030239357
0.1291997 -0.027677033 0.030489495
0.13500848 -0.026950959 0.030248387
0.20854503 -0.027793191 0.030527879
0.21471852 -0.028527003 0.030771691
0.24256085 -0.029769495 0.031092331
-0.023879198 -0.092444286 0.044201307
-0.0052059465 -0.090999335 0.047616009
-0.044160217 -0.085525811 0.043427922
-0.025406785 -0.084694833 0.047374934
-0.012417625 -0.082631931 0.046565875
-0.0045547369 -0.083087951 0.046496287
-0.022131771 -0.078054123 0.049632527
-0.017484136 -0.065460272 0.049896263
-0.040471978 -0.054702293 0.043841857
-0.033144854 -0.054657612 0.045603469
-0.024436086 -0.057870563 0.049666494
-0.0046321568 -0.055994377 0.042577595
0.0091302749 -0.055827748 0.047886677
0.01289057 -0.046134684 0.042839788
-0.31154627 -0.026488766 0.040490344
-0.29170835 -0.023929477 0.040958166
-0.022188947 -0.091722362 0.054947235
-0.037888579 -0.084406622 0.055597451
-0.024032224 -0.086690873 0.057196859
-0.0072518121 -0.085466459 0.053634845
-0.017229943 -0.061967708 0.050174177
-0.016611785 -0.053622436 0.058943961
0.0054016104 -0.055258665 0.051569972
0.03920744 -0.056354783 0.053368084
0.04438116 -0.055478595 0.058469579
0.053309184 -0.055658057 0.051823437
-0.019788321 -0.048670597 0.054743096
0.015310975 -0.044481121 0.052300602
-0.33310735 -0.023359068 0.057361852
-0.32587573 -0.025038125 0.050555065
-0.046378732 -0.051603984 0.067265324
-0.030100826 -0.052394029 0.065345205
0.022116859 -0.05483941 0.060871795
0.053515181 -0.050163724 0.066592082
-0.027749674 -0.04838727 0.064321503
0.00012711994 -0.044753429 0.064623468
-0.32496321 -0.024058931 0.061521031
0.086639807 -0.071669839 0.079825357
0.07464277 -0.066540807 0.079140283
0.032681815 -0.053335521 0.075785697
-0.045356378 -0.048948858 0.079136297
-0.018082134 -0.045965414 0.072924353
-0.0039170426 -0.043902516 0.073941149
0.0045615411 -0.041900679 0.078088611
0.051075846 -0.049618501 0.070404172
0.018270994 -0.039724089 0.078660876
-0.33603206 -0.022400308 0.074299932
0.046400134 -0.073329471 0.085375868
0.054484501 -0.077015758 0.08907599
0.071421489 -0.073544189 0.080066085
0.046344347 -0.068174772 0.083856918
0.027319798 -0.052386619 0.083571739
0.057721846 -0.055055469 0.089361429
0.074498311 -0.054240052 0.084533863
0.09266343 -0.058628291 0.087585993
-0.0006709001 -0.042310826 0.080303416
0.028957592 -0.04112082 0.089700393
-0.35321146 -0.020215912 0.089754827
-0.3207548 -0.020974461 0.088800475
-0.32733265 -0.019513747 0.08947511
0.058822446 -0.084081382 0.096947506
0.043283757 -0.076256521 0.098885678
0.05600819 -0.077926286 0.090301722
0.083802797 -0.071349807 0.095563337
0.030823052 -0.060267545 0.092423342
0.083802789 -0.065152109 0.093595885
0.032636613 -0.057597462 0.09996146
0.078324959 -0.053740058 0.09775269
0.084952503 -0.052138649 0.09556812
-0.048362736 -0.047893532 0.09063834
-0.029945886 -0.048801281 0.095911622
-0.01627345 -0.043055993 0.090428136
-0.0021052014 -0.040607594 0.091781572
0.013366228 -0.048569635 0.094769195
0.046754569 -0.045800898 0.094315425
0.064879902 -0.045800898 0.094610088
0.073346406 -0.049121238 0.093211763
0.086043447 -0.049894348 0.092559054
0.0057112458 -0.038553357 0.096747443
-0.32719165 -0.020451505 0.095743358
-0.35113728 -0.019493289 0.09548182
-0.32894036 -0.018818771 0.09800116
0.04945372 -0.080163628 0.10389978
0.073848754 -0.08040753 0.10132162
0.056994691 -0.079711884 0.10125847
0.075658545 -0.076019272 0.10833672
0.033273194 -0.055680759 0.10123293
0.053973921 -0.05190191 0.1047876
0.084635377 -0.05377144 0.1072324
-0.047370464 -0.047260858 0.10244291
-0.035789873 -0.046661261 0.10940841
-0.027184751 -0.047992047 0.10357287
0.022285147 -0.046687264 0.10926428
-0.34894279 -0.018929278 0.1057536
0.057454798 -0.071380205 0.11441432
0.068726316 -0.077538952 0.11356728
0.070049703 -0.071416922 0.11087275
0.093297958 -0.074007228 0.11400004
0.059648223 -0.068130955 0.1116505
0.084110841 -0.066203833 0.11354284
0.088734716 -0.05508212 0.11095718
-0.051485665 -0.045415178 0.11704132
-0.041548111 -0.04540249 0.11941207
-0.033183895 -0.04615828 0.11845805
-0.026449209 -0.046976078 0.11376747
-0.054204598 -0.043499302 0.12486246
-0.039577596 -0.04507485 0.12584348
-0.0072775092 -0.04718731 0.12063117
-0.016121069 -0.036208369 0.12929264
-0.045188725 -0.043721922 0.13488561
0.0082165934 -0.044118103 0.13032684
-0.035527725 -0.038033005 0.1372465
-0.045521673 -0.042811409 0.14470688
-0.031613335 -0.035187088 0.14880368
-0.010187533 -0.035367522 0.14163515
-0.0562107 -0.041131027 0.15580371
-0.042586047 -0.041898139 0.15478891
-0.012105584 -0.042733986 0.15289046
-0.058407389 -0.036950186 0.16359013
-0.033028647 -0.040321328 0.17590654
-0.028239647 -0.040085517 0.17538562
-0.072593197 -0.037959903 0.17025958
-0.032248095 -0.032097384 0.17535213
-0.074834041 -0.037091538 0.18550414
-0.066412061 -0.034893095 0.18853515
-0.055330575 -0.033170275 0.18108119
-0.0295421 -0.032842159 0.18477906
-0.077977851 -0.036225051 0.19233295
-0.064448334 -0.031857908 0.19658519
-0.04314224 -0.038096167 0.19297668
-0.076645762 -0.032908432 0.20147419
-0.082904622 -0.032807179 0.22372924
-0.066505574 -0.033879541 0.2227017
-0.059944738 -0.034059618 0.22324006
-0.10039917 -0.03064597 0.23343951
-0.097039133 -0.030940721 0.23412713
-0.089822814 -0.031664148 0.23120418
-0.072280765 -0.026165463 0.23670265
-0.073142022 -0.031380497 0.24294588
-0.10207255 -0.027923761 0.24986929
-0.089392848 -0.02628625 0.24933255
-0.089927353 -0.029380016 0.25426283
-0.074040033 -0.025977176 0.2529121
-0.10008201 -0.022912145 0.27862209
-0.097936101 -0.027278738 0.27083564
-0.11199725 -0.025351392 0.28141072
-0.10156691 -0.022093045 0.29570866
-0.10906412 -0.02154731 0.30986217
-0.12113879 -0.021942105 0.31628209
-0.11750375 -0.019845294 0.31612244
