# .PCD v0.7 - Point Cloud Data file format
VERSION 0.7
FIELDS x y z
SIZE 4 4 4
TYPE F F F
COUNT 1 1 1
WIDTH 820
HEIGHT 1
VIEWPOINT 0 0 0 1 0 0 0
POINTS 820
DATA ascii
-0.04590616 -0.025504855 -0.38010308
-0.060207874 -0.025207186 -0.37407041
-0.057451949 -0.024574019 -0.36926806
-0.046772096 -0.025647368 -0.3627196
-0.039680641 -0.024228554 -0.36998662
-0.05480928 -0.024720669 -0.34657741
-0.032093402 -0.023838067 -0.33070946
-0.03685483 -0.023825098 -0.32940519
-0.020942716 -0.025959637 -0.3241044
-0.044849541 -0.024272742 -0.31483468
-0.026299834 -0.026010938 -0.31837338
-0.013968304 -0.023601869 -0.30258277
-0.016110707 -0.023516834 -0.29733497
-0.0085222479 -0.026048649 -0.29971343
-0.044866499 -0.024986301 -0.28757605
-0.043721348 -0.025037864 -0.27997711
-0.032141831 -0.023858137 -0.26832131
-0.015797714 -0.026428249 -0.26747152
-0.036824729 -0.025185876 -0.2575376
-0.024136949 -0.025987847 -0.25156912
-0.0061138347 -0.023141462 -0.25833654
0.0057695173 -0.026541632 -0.25308684
-0.022987306 -0.026001351 -0.24676022
-0.018616259 -0.022972751 -0.24086434
-0.0070206868 -0.026629914 -0.24287371
-0.026814129 -0.024169322 -0.23023641
-0.018323487 -0.022977838 -0.23745061
0.016971864 -0.023272034 -0.23298056
-0.029924577 -0.024649272 -0.22711945
-0.018535353 -0.023238514 -0.22525072
-0.001612342 -0.022851985 -0.22826134
0.00040833745 -0.026737597 -0.22973983
-0.017470961 -0.024372449 -0.21498454
0.015068537 -0.022776673 -0.21984799
-0.016186936 -0.024215722 -0.20512266
-0.0025147889 -0.022592459 -0.20129837
0.0069736456 -0.026935741 -0.20557112
0.031508882 -0.024209464 -0.20590901
0.01577195 -0.022491176 -0.19077563
0.029166166 -0.022639031 -0.19041795
-0.012912014 -0.025832642 -0.1842874
0.029825425 -0.02262548 -0.18874544
0.035318341 -0.022735601 -0.18330203
-0.017599681 -0.025432877 -0.1794847
-0.0011394673 -0.02237823 -0.17334357
0.0063910424 -0.026896125 -0.16280024
0.02788241 -0.022207677 -0.16132197
0.036720939 -0.022253959 -0.16250199
0.047028381 -0.026196893 -0.16627876
0.073962212 -0.071080185 -0.151821
0.069138855 -0.06199228 -0.15790686
0.084641039 -0.065589517 -0.1542962
0.090442576 -0.068255387 -0.15641613
0.080685429 -0.057638422 -0.1525439
-0.0061999434 -0.023380226 -0.15924889
0.00071021589 -0.022684038 -0.15199345
0.016913574 -0.024774205 -0.15502769
0.025533935 -0.023877161 -0.15415619
0.043137681 -0.022434715 -0.15812737
0.081585735 -0.081350669 -0.1440371
0.0479462 -0.079012327 -0.14285763
0.054474294 -0.071896762 -0.14473346
0.05600474 -0.066050753 -0.14315212
0.038161937 -0.05017063 -0.14818664
0.024481624 -0.041291833 -0.14018223
0.038063973 -0.047139037 -0.14160295
0.040429328 -0.048844174 -0.14075154
0.055351179 -0.048790924 -0.14783272
0.061843544 -0.047299262 -0.14235578
0.023832751 -0.033623371 -0.14198378
0.037797339 -0.033371717 -0.14201573
0.053162657 -0.033877954 -0.14101198
0.01653658 -0.022053035 -0.14525545
0.029741615 -0.070269436 -0.13193941
0.044571698 -0.078566566 -0.13354956
0.072660998 -0.070757002 -0.13841978
0.04376249 -0.067512989 -0.13166754
0.065035447 -0.064784952 -0.13640663
0.073552079 -0.063079208 -0.13470611
0.026213337 -0.054623254 -0.13466159
0.05531653 -0.054344606 -0.13291436
0.074079439 -0.052036762 -0.13353962
0.08380723 -0.053309031 -0.13306761
0.028245067 -0.042163949 -0.13997245
0.034722112 -0.040597651 -0.13965818
0.057042554 -0.044997975 -0.13752362
0.05074431 -0.033800963 -0.13968346
-0.003630809 -0.024792897 -0.13806018
0.029548256 -0.027467702 -0.13462259
0.03971839 -0.0274677 -0.13428351
0.043142557 -0.024691273 -0.13689111
0.055186585 -0.025764521 -0.13817015
0.039285168 -0.063183881 -0.12511021
0.049883239 -0.061314516 -0.12385023
0.082308166 -0.06350375 -0.12387899
0.043438047 -0.051740497 -0.12996577
0.07227841 -0.057902571 -0.12805851
-0.0061343731 -0.02388557 -0.12899725
0.0021916996 -0.024380609 -0.12735283
0.019512726 -0.0274677 -0.12832205
0.035021767 -0.0274677 -0.12807477
0.043186817 -0.021780543 -0.12141286
-0.0010052333 -0.026151158 -0.11105029
0.0048990189 -0.026557224 -0.11496897
0.03884555 -0.021742713 -0.11822223
0.050459746 -0.021695651 -0.11425256
0.0062962165 -0.026680768 -0.10695283
0.017528489 -0.027325749 -0.1048245
0.028315745 -0.0274677 -0.10433119
0.043357119 -0.025996074 -0.10272717
0.06731385 -0.026838128 -0.10690602
0.072610155 -0.025257807 -0.10396219
0.0042052642 -0.024678556 -0.098570578
0.01036238 -0.02693036 -0.09785337
0.025000203 -0.021484258 -0.096419826
0.034199134 -0.021510771 -0.098658465
0.063421838 -0.021779139 -0.098004721
0.071743086 -0.022055574 -0.092902683
-0.30379364 0.090722963 -0.096286267
-0.29389459 0.090189382 -0.095905401
-0.0010298565 -0.026222097 -0.087370291
0.0066945213 -0.026708264 -0.084239572
0.021034911 -0.021300545 -0.080920778
0.044193491 -0.021361489 -0.086067036
0.054617479 -0.021317421 -0.08235012
-0.013444042 -0.024559075 -0.077606007
-0.0015159392 -0.023315411 -0.074827656
0.016753342 -0.021254575 -0.077041566
0.028107174 -0.0274677 -0.074116006
0.041616399 -0.021187313 -0.071374059
0.06257356 -0.0274677 -0.078000419
-0.28876957 0.091277212 -0.073303007
0.0036002696 -0.02651337 -0.068917565
0.015611806 -0.025309205 -0.065117195
0.04283784 -0.02115475 -0.068627439
0.058814052 -0.027467702 -0.064199813
0.069707833 -0.021312673 -0.069499165
-0.29668489 0.089604072 -0.062287226
-0.2803171 0.091220126 -0.065445602
-0.27895582 0.090380669 -0.067891598
0.0035136922 -0.022701055 -0.053553097
0.015420619 -0.024028117 -0.052878551
0.080904968 -0.02134438 -0.054734495
-0.27348185 0.089779928 -0.052117873
-0.30463964 0.090496555 -0.052789304
-0.28363997 0.091599509 -0.051983323
-0.014976605 -0.025363168 -0.04544773
-0.0039061124 -0.024227008 -0.04414035
0.07546331 -0.02427052 -0.044235259
0.033463139 -0.091827944 -0.036344722
0.048855044 -0.092389002 -0.033475205
0.060360685 -0.090538472 -0.037416875
-0.040130194 -0.081957012 -0.034720555
-0.029302977 -0.087025195 -0.032082517
0.0048128082 -0.087314524 -0.035738055
0.092888623 -0.080967188 -0.03686668
0.11405211 -0.088280745 -0.03194657
0.13689259 -0.081320137 -0.036696877
0.1553549 -0.085071251 -0.034070507
0.1802814 -0.088070258 -0.03101011
0.1970612 -0.081506565 -0.03429221
0.20053123 -0.080496624 -0.034402192
0.21100336 -0.08799617 -0.030162843
0.2255532 -0.085897624 -0.031483255
-0.055103753 -0.072883964 -0.033498086
-0.047564007 -0.078882113 -0.034746684
-0.023354903 -0.077928297 -0.035711206
-0.0027042483 -0.077928305 -0.031753212
0.044574395 -0.077928297 -0.033114344
0.068506405 -0.076369129 -0.037259482
0.094822913 -0.077928297 -0.035958111
0.10683656 -0.077075839 -0.036390327
0.11265087 -0.07792829 -0.036480792
0.13247462 -0.070283055 -0.036443189
0.14461917 -0.075667486 -0.036670715
0.17581721 -0.07385724 -0.035148788
0.20579441 -0.077614456 -0.034309167
0.22830413 -0.077928297 -0.032858878
-0.018126557 -0.066038147 -0.036010437
0.028572913 -0.062770575 -0.03538499
0.031909771 -0.061203048 -0.035013203
0.051032599 -0.062113896 -0.035247296
0.068077862 -0.066632167 -0.03612414
0.076520488 -0.06899365 -0.036576159
0.086865678 -0.069462001 -0.036665805
0.10315783 -0.065198801 -0.03584978
0.13684113 -0.062614456 -0.035271965
0.17560273 -0.062415428 -0.033445463
0.18819797 -0.06994684 -0.03405229
0.22792171 -0.062008325 -0.031257939
-0.040287778 -0.055176307 -0.031559717
-0.023288839 -0.053058837 -0.032737397
-0.018395128 -0.052108765 -0.032675929
0.0059037451 -0.053297993 -0.032981567
0.043614052 -0.054664135 -0.033332672
0.074087471 -0.052729785 -0.032835536
0.10148834 -0.059379641 -0.03454458
0.17697072 -0.055914532 -0.032216717
0.18106349 -0.058414821 -0.032560188
0.041282762 -0.048180152 -0.031175056
0.130282 -0.045959864 -0.031141749
0.14176692 -0.045535043 -0.030986618
0.18537194 -0.047914844 -0.030381426
-0.011415549 -0.024869416 -0.035828292
-0.0033397973 -0.023319434 -0.033632044
0.047986913 -0.022970721 -0.033249255
0.056038998 -0.027467702 -0.031851601
0.076527759 -0.020728244 -0.03265512
0.087970041 -0.021051358 -0.032314651
-0.29818636 0.089838527 -0.038532265
-0.27062327 0.08927758 -0.03652405
-0.29900628 0.091038428 -0.035933968
-0.28139326 0.09183 -0.036807086
0.22382745 -0.090157844 -0.021951426
-0.042134568 -0.088384777 -0.020577326
-0.025847565 -0.08947131 -0.027462417
0.093980037 -0.089815155 -0.027739499
0.13182783 -0.089875929 -0.026869345
0.16386725 -0.089763746 -0.027521715
0.23677926 -0.088026382 -0.028481157
0.25534797 -0.088152401 -0.023861332
0.28088301 -0.08010605 -0.023273468
-0.10431407 -0.074994765 -0.021661589
-0.088094711 -0.070858687 -0.028219659
-0.073301837 -0.079945944 -0.029990394
-0.040923283 -0.077928297 -0.023615751
-0.037133452 -0.077928297 -0.024223279
0.017572958 -0.077928297 -0.023483044
0.022280511 -0.077928297 -0.024446368
0.032806344 -0.077928297 -0.028813973
0.080981977 -0.077928297 -0.022779563
0.099845469 -0.07792829 -0.027218526
0.10603315 -0.077928297 -0.026829816
0.12721911 -0.077928297 -0.024995215
0.13288215 -0.077928297 -0.020813901
-0.11346293 -0.061147619 -0.023839107
-0.075928494 -0.063580617 -0.029663488
0.25758016 -0.063544542 -0.026104579
-0.088113934 -0.059198357 -0.027612727
-0.052725151 -0.050840076 -0.029154053
0.2431598 -0.056179427 -0.027494527
-0.14340475 -0.04200086 -0.022419436
-0.127538 -0.049695723 -0.023428213
-0.11055723 -0.049499169 -0.024291102
-0.10432529 -0.046578724 -0.024496125
-0.082826875 -0.044383552 -0.026064258
-0.061121121 -0.047924675 -0.027513294
-0.035946615 -0.04479757 -0.028609274
0.079812832 -0.041780837 -0.028620698
0.18317918 -0.041754987 -0.02879562
0.23867483 -0.040796541 -0.022167806
0.24723929 -0.04670497 -0.022517469
-0.17113201 -0.036103752 -0.020983996
-0.13084044 -0.034797367 -0.020435741
-0.12680899 -0.034024715 -0.020178437
-0.10390518 -0.032273192 -0.020108506
-0.086101942 -0.033632249 -0.020921746
-0.04055962 -0.03470818 -0.022786491
-0.032314688 -0.039737448 -0.026630053
-0.024058148 -0.033070408 -0.022796942
0.028092667 -0.033381429 -0.023275089
0.040078159 -0.03227267 -0.022342272
0.055696413 -0.035835288 -0.025339561
0.12742375 -0.037911382 -0.027164262
0.15867683 -0.030131279 -0.021307183
0.17720571 -0.030252703 -0.021881849
0.2351172 -0.03920937 -0.021698246
-0.017179737 -0.024717106 -0.026745645
-0.0086010462 -0.023810713 -0.02206308
0.0030489292 -0.022599945 -0.020215103
0.030568752 -0.0274677 -0.026735909
0.046112575 -0.02059113 -0.021081597
-0.28015944 0.088797107 -0.020013995
-0.29849741 0.090102188 -0.021603037
0.0075056506 -0.090622529 -0.01618276
0.14273414 -0.090631381 -0.015554713
0.18053517 -0.090440914 -0.015770089
0.22363369 -0.090553135 -0.014113097
-0.089737475 -0.083225749 -0.019184601
-0.075245485 -0.086298987 -0.017050605
0.29308006 -0.086553484 -0.011172087
-0.12230702 -0.070816748 -0.013262759
-0.09811376 -0.077928297 -0.013644816
0.0073892521 -0.07792829 -0.011201142
0.043213569 -0.077928297 -0.010132194
0.065910414 -0.077928297 -0.011701006
0.21463269 -0.077928297 -0.011477877
0.24654503 -0.077928297 -0.019712305
0.25944614 -0.077928297 -0.015332578
0.2606703 -0.077928297 -0.014558072
0.27643901 -0.077031367 -0.013853156
0.2971819 -0.077928297 -0.015628427
-0.15324785 -0.058897741 -0.012879924
-0.15016335 -0.030350395 -0.017289316
-0.096090451 -0.03165869 -0.019782402
-0.23143362 -0.028779048 -0.01227819
-0.16849062 -0.021230988 -0.010126583
-0.15598729 -0.025046002 -0.013124783
-0.13113123 -0.029045217 -0.016926058
-0.10363286 -0.027847387 -0.017278824
-0.01555778 -0.027036756 -0.016173672
-0.0043550394 -0.02336053 -0.019395648
0.0019437158 -0.0288208 -0.018581785
0.014649122 -0.027307065 -0.016737813
0.053206496 -0.023995955 -0.017017007
0.084630355 -0.027913984 -0.017708525
0.096117921 -0.020934993 -0.016266689
0.14076033 -0.023127584 -0.010100313
0.16240601 -0.024510905 -0.012201082
0.19791272 -0.028786235 -0.01424643
0.21472593 -0.026970385 -0.013620378
0.22014149 -0.018503193 -0.011224144
-0.27953359 0.092152901 -0.015545852
-0.26643059 0.092196129 -0.012701268
-0.2559588 0.090015948 -0.010877213
-0.037218202 -0.090045698 -0.0019131029
-0.013222395 -0.0911493 -0.0028365497
0.0089559453 -0.0911493 -0.001717487
0.052835654 -0.0911493 -0.00024765983
0.082391582 -0.0911493 -0.002986449
0.11645049 -0.0911493 -0.0058639366
0.12479912 -0.0911493 -0.0084708398
0.19357683 -0.090912744 -0.0080782874
0.20804417 -0.0911493 -0.00038448899
-0.10228267 -0.078582168 -0.0017733047
-0.084308103 -0.077928297 -0.0016727512
-0.026897764 -0.077928305 -0.0049415296
-0.019351717 -0.077928305 -0.0050236145
-0.0053454149 -0.077928297 -0.0031142782
0.014631182 -0.07792829 -0.0023713892
0.034201231 -0.077928297 -0.0070479526
0.097817726 -0.077928305 -0.0089008482
0.11407238 -0.077928297 -0.0055953721
0.13414958 -0.077928297 -0.0032191989
0.1962418 -0.077928297 -0.0092847208
0.2278156 -0.07792829 -0.0086686304
0.30497095 -0.077928297 -0.0065326239
0.27643901 -0.061443299 -0.002933709
-0.15324831 -0.058897562 -0.0037738888
-0.22519842 -0.03118097 -0.0033047299
0.20045182 -0.0395579 -0.0037145733
-0.24528781 -0.026036762 -0.0038429967
-0.12716971 -0.021463737 -0.0082479864
-0.098225869 -0.021355413 -0.0065713818
-0.077537969 -0.02275137 -0.008389012
-0.055858366 -0.02153728 -0.004989746
-0.029200962 -0.022120228 -0.0090914303
0.033893205 -0.020358648 -0.0014660093
0.061404649 -0.02044775 -0.0089902021
0.092803895 -0.020115864 -0.0013788606
0.10847469 -0.020744545 -0.0062647895
0.1102103 -0.023032699 -0.0087152505
0.12304887 -0.021747639 -0.0083289519
0.24126817 -0.029925486 -0.0099388361
-0.2632879 -0.018867288 -0.0023162195
-0.22153075 -0.013182539 -0.0027675065
-0.20991561 -0.015417022 -0.0065290742
-0.17322047 -0.012914224 -0.0022654978
-0.12979624 -0.013408758 -0.001239153
0.15629871 -0.017216399 -0.0078293858
0.17849664 -0.015734823 -0.00057311088
0.21300536 -0.016778529 -0.0049553895
0.23290998 -0.019515617 -0.00031387815
-0.25484335 -0.00040480588 -5.3489672e-05
-0.24257402 -0.0010573515 -0.0011772942
-0.23679408 -0.001067345 -0.0015581425
-0.16589285 -0.0068145427 -0.0017277957
-0.12368771 -0.0063020978 -0.00083476078
-0.10110784 -0.0079926215 -0.00030154537
-0.24251473 0.0065641105 -0.0014125896
-0.20539549 0.009289139 -0.0019452383
-0.19451201 0.0032628863 -0.0021037871
-0.16506042 0.0072224978 -0.0010340831
-0.15461332 0.0028205414 -0.00074055418
-0.20948707 0.0150649 -0.0018638652
-0.18252677 0.013083714 -0.0014837667
-0.1652554 0.011421089 -0.00060485932
-0.25613153 0.020471811 -0.00083419116
-0.24564947 0.026738903 -0.0014523906
-0.20351562 0.026584834 -0.0017358086
-0.19546735 0.030467618 -0.0012346565
-0.25152549 0.046521399 -0.0012644278
-0.2344521 0.04956767 -0.0013719398
-0.22256662 0.048922099 -0.001508278
-0.20627481 0.04540268 -0.001008004
-0.23449297 0.056645092 -0.001327596
-0.2547746 0.063839287 -0.0011102725
-0.2648986 0.079625502 -0.00093041232
-0.25252908 0.073207133 -0.0010488579
-0.23870292 0.071029142 -0.0011847402
-0.28669924 0.088787273 -0.0040355106
-0.27823269 0.088560805 -0.0071342746
-0.25449517 0.08764115 -0.00092445489
-0.21947145 0.089428462 -0.0003579896
-0.024705855 -0.0911493 0.0036367234
0.059858855 -0.0911493 0.0054841335
0.074998014 -0.0911493 0.00016763061
0.10831954 -0.0911493 0.0025082035
0.23201679 -0.090861112 0.007137571
0.24551119 -0.090153575 0.0063302196
-0.06827838 -0.08695589 0.0042797839
-0.037347328 -0.08978124 0.0052519664
0.30718094 -0.080123551 0.0053484053
-0.10405301 -0.077824689 0.0041747214
-0.093864456 -0.077928297 0.0088033732
-0.08082065 -0.077928297 0.0040942719
-0.066041037 -0.077928297 0.005907706
-0.03334742 -0.077928297 0.0018640866
-0.0037620226 -0.077928297 0.0035389522
0.0083717294 -0.077928297 0.0020907638
0.021214116 -0.077928297 0.0017012719
0.048022032 -0.077928297 0.0072801332
0.059490513 -0.077928297 0.001329749
0.093381688 -0.077928305 0.0056783217
0.12039822 -0.077928297 0.0084178364
0.14422271 -0.077928297 0.0039292178
0.16352864 -0.077928305 0.0068104072
0.19539684 -0.077928297 0.0036100387
0.26493791 -0.07792829 0.0040997532
-0.12621307 -0.069312043 0.0057525048
-0.16363493 -0.054896437 0.0017129818
0.27643901 -0.059936523 0.0019004885
-0.20951784 -0.037221435 0.0039579561
0.22794881 -0.034067824 0.0065562492
-0.10571959 -0.022271574 0.0099012153
-0.090644121 -0.021925429 0.0072816052
-0.08721178 -0.021655396 0.0057538832
-0.049525041 -0.020346832 0.0004416497
-0.025470277 -0.021300631 0.0064721047
-0.016009703 -0.02060847 0.0032317389
0.066788562 -0.020371379 0.0025492501
0.089377448 -0.020378495 0.00064707617
0.10360248 -0.020024257 0.0037953248
0.23412548 -0.022204235 0.00061583502
-0.21212579 -0.013683712 0.0023466034
-0.18013841 -0.010412244 0.0023489844
-0.16096032 -0.018524906 0.0056856833
-0.15619071 -0.012505998 0.0017194874
-0.1258432 -0.010679948 0.0010709029
-0.11518875 -0.016976854 0.0015857569
-0.097975984 -0.019905668 0.0016030341
-0.080243215 -0.01124481 0.00024027427
0.12847565 -0.019087715 0.0065156533
0.16018578 -0.016965086 0.0046870909
0.18032521 -0.015663004 0.006261271
0.20799299 -0.015007244 0.0062469724
-0.18223253 -0.0043078065 0.0022486644
-0.16989957 -0.0075666113 0.0018967588
-0.15205778 -0.0098194554 0.0014563729
-0.11962354 -0.0051900344 0.00040668869
-0.17917538 0.0092662228 0.0015179119
-0.25557101 0.015212055 0.00065987848
-0.24752402 0.012839093 0.0012884543
-0.19132107 0.018461607 0.0016021047
-0.25209475 0.022444945 0.0012229239
-0.24940479 0.025082238 0.001380361
-0.21299192 0.029231802 0.0017371671
-0.20766787 0.022736318 0.0018367548
-0.26053917 0.0369315 0.0010703529
-0.21166542 0.032804914 0.0017297983
-0.25125757 0.047871955 0.0012552738
-0.24358925 0.041022833 0.0013513484
-0.23550755 0.046604481 0.0013785975
-0.22724819 0.045635134 0.0014766355
-0.2022122 0.046568617 0.00012662308
-0.25596881 0.052336928 0.0011942257
-0.23125708 0.053888071 0.0013808074
-0.27920979 0.065925002 0.0005775959
-0.230804 0.064183548 0.0011688607
-0.287182 0.077786624 0.0003504465
-0.25483134 0.075070702 0.0010215595
-0.23602004 0.072136223 0.0010262202
-0.28476208 0.081454083 0.00065421045
-0.27258909 0.088283211 0.0048205797
-0.29787922 0.090821907 0.0040475596
-0.26795596 0.092259631 0.0085189948
0.0085944869 -0.090567283 0.016975179
0.010627734 -0.090963349 0.011305051
0.028432334 -0.09047351 0.018317956
0.032779761 -0.090364493 0.019878726
0.067771405 -0.090687901 0.015248489
0.10423583 -0.090423092 0.01903788
0.1352355 -0.09056142 0.017057696
0.14341524 -0.090655088 0.015169295
0.15738854 -0.090883613 0.010950338
0.19762595 -0.090527251 0.014283854
0.23378614 -0.090440229 0.014088372
-0.092339292 -0.082356997 0.019226372
-0.063248329 -0.086813949 0.016462393
-0.042987239 -0.088843949 0.010206958
0.25732368 -0.089303866 0.010370541
0.26631245 -0.088537909 0.0183235
0.29763615 -0.083750613 0.013240852
-0.11573696 -0.073347658 0.015011088
-0.031328224 -0.077928297 0.014504515
-0.023184747 -0.077928297 0.015031436
-0.017254923 -0.077928297 0.014718664
0.063187607 -0.077928297 0.016307127
0.087043591 -0.077928297 0.014533115
0.10051847 -0.077928297 0.018079512
0.15336397 -0.077928297 0.013816871
0.21031585 -0.077928297 0.015105728
0.22466151 -0.077928297 0.019484783
-0.12672877 -0.069091514 0.016522013
0.29514265 -0.065582454 0.01144555
-0.17135806 -0.051358633 0.019086197
0.26722622 -0.051567554 0.017605748
0.2751559 -0.053729225 0.015658086
-0.19169712 -0.044086255 0.013910739
-0.22073515 -0.032544389 0.017713413
-0.21381354 -0.03556655 0.016163133
-0.18560098 -0.032331277 0.019124165
-0.15218653 -0.032932512 0.01917604
-0.084358014 -0.031687275 0.019616744
0.22395624 -0.038457826 0.01311986
-0.23293854 -0.026093934 0.015033162
-0.17079869 -0.022073166 0.011304193
-0.16068074 -0.026999369 0.01503081
-0.13251895 -0.02723157 0.015114652
-0.11391013 -0.029321628 0.0179084
-0.10630669 -0.029414035 0.018220913
-0.071015947 -0.028915729 0.016521253
-0.054298826 -0.027200684 0.014614493
-0.038918197 -0.024932703 0.013841067
-0.021959607 -0.029851705 0.019761376
0.042345051 -0.027467698 0.018479967
0.058990818 -0.027467698 0.017563198
0.072409995 -0.020478008 0.011545753
0.098779164 -0.028227791 0.017884053
0.11517742 -0.02639018 0.014797354
0.12725957 -0.028007936 0.017908573
0.17322478 -0.026428442 0.017148603
0.19202749 -0.025901875 0.013954964
0.20560616 -0.024433024 0.014056057
0.21967362 -0.02995668 0.018222515
0.15887667 -0.019677011 0.0108847
0.17903501 -0.018325754 0.012283329
0.2052888 -0.016658451 0.012010948
-0.27595723 0.088776104 0.018867811
-0.25888389 0.091248631 0.012969748
0.021204529 -0.091491461 0.027836192
0.058764875 -0.090060718 0.024227994
0.065612428 -0.09027601 0.021145495
0.077421606 -0.09164127 0.029492877
-0.04036776 -0.088239193 0.025613876
0.090031356 -0.089963496 0.025616258
0.28662115 -0.081028916 0.020552922
-0.086905152 -0.07487753 0.027616024
-0.07684353 -0.078621611 0.029418867
-0.049503025 -0.077928297 0.029329518
-0.031849913 -0.077928297 0.026929244
0.088685393 -0.077928297 0.021052906
0.17856775 -0.077928297 0.025555771
0.19219595 -0.077928297 0.02432343
0.20446455 -0.077928297 0.028156241
0.22624882 -0.077928297 0.027722403
0.24959865 -0.077043205 0.029859925
0.25177526 -0.07828062 0.029642146
0.27205509 -0.077928297 0.021186717
0.28245199 -0.070747569 0.021197572
-0.085290201 -0.060622253 0.028084921
0.25154409 -0.067462467 0.02791195
0.27496925 -0.063756093 0.021599837
-0.12778302 -0.050831515 0.023472782
-0.11337423 -0.056978595 0.024072139
0.27205664 -0.059387993 0.020816632
-0.14114535 -0.040276274 0.022218082
-0.064255424 -0.041791853 0.025009481
-0.05386031 -0.046976663 0.027973389
-0.04215559 -0.044821844 0.028097102
-0.01242866 -0.04381315 0.029432025
0.039430227 -0.045018282 0.029913113
0.18080598 -0.044326503 0.029674303
0.22110866 -0.040834587 0.024911698
-0.050061513 -0.034992386 0.022176882
-0.02790565 -0.035108455 0.02418788
0.051694579 -0.030708406 0.020802654
0.071866356 -0.039642349 0.02755684
0.094481364 -0.036501538 0.025807213
0.10320306 -0.035012111 0.024163317
0.11767493 -0.036865156 0.026115008
0.13199918 -0.033120371 0.023683462
0.15393178 -0.036285795 0.026293809
0.1659275 -0.03631454 0.026243571
0.17571932 -0.036608487 0.026384003
0.19162953 -0.032931939 0.024157805
0.23331255 -0.036114141 0.020272575
-0.016229015 -0.025345551 0.022314738
0.002121248 -0.022728257 0.027493063
0.012871743 -0.021603772 0.02418326
0.027292075 -0.027467698 0.024304625
0.031325825 -0.020666458 0.027432421
0.06488388 -0.0274677 0.02803931
0.084392972 -0.020691495 0.021168752
0.09857069 -0.022028912 0.028812721
-0.2879785 0.088851854 0.022953006
-0.27884275 0.092018381 0.024403332
0.0018169219 -0.087389544 0.03497418
0.016431635 -0.081821799 0.036694124
0.06582655 -0.081765346 0.036708284
0.16282798 -0.088202693 0.031357899
-0.028764779 -0.075701199 0.036453679
-0.0021567703 -0.073992863 0.037081439
0.0097545199 -0.073896334 0.03707419
0.11610752 -0.072730228 0.036986675
0.1362377 -0.070113651 0.0363243
0.14469308 -0.077308603 0.036607012
0.17161284 -0.077928305 0.033190105
0.19208029 -0.077928297 0.033370133
0.20259234 -0.076221332 0.034475353
0.22440922 -0.077928297 0.032909993
0.23710133 -0.076309577 0.031958781
-0.051674858 -0.063817248 0.032281961
-0.031206449 -0.067818247 0.03531494
-0.0016865376 -0.067574963 0.036304537
0.019935573 -0.064972319 0.035806391
0.034039609 -0.065320939 0.035873123
0.042857815 -0.065783761 0.035961702
0.069518 -0.06003727 0.034713678
0.078675754 -0.069452271 0.036663853
0.088222317 -0.062733702 0.035377923
0.13630877 -0.060654745 0.03502911
0.16687536 -0.068364412 0.034734089
0.18333764 -0.060085416 0.032739971
0.19707336 -0.067516074 0.033351105
0.22148636 -0.067090534 0.032214977
-0.048593063 -0.05583781 0.030888492
0.015766259 -0.052874595 0.032784138
0.022943994 -0.056973919 0.033926498
0.034213342 -0.057376817 0.034030031
0.055421244 -0.057663169 0.034103613
0.070167579 -0.052002531 0.032649018
0.14454223 -0.057620138 0.034037624
0.15908386 -0.050393254 0.031854574
0.19498001 -0.051852833 0.030673806
0.033763912 -0.045765676 0.030211471
0.14264756 -0.044099554 0.030500736
0.16885741 -0.049402229 0.031292282
0.17816509 -0.046585485 0.030312411
-0.014346801 -0.025436113 0.034767013
-0.00077620987 -0.023075305 0.038213931
0.01891339 -0.027260682 0.034075983
0.038295265 -0.020811126 0.039638337
0.058641933 -0.027467698 0.035248742
0.06157659 -0.020702086 0.030446034
0.093375176 -0.026758717 0.034131095
-0.29890019 0.089920335 0.039424378
-0.29477739 0.091418959 0.030163012
-0.27101564 0.09188614 0.031546578
-0.00923225 -0.02400027 0.049870785
0.01150362 -0.026891705 0.047179267
0.031267583 -0.027467702 0.049067315
0.045791954 -0.0274677 0.047001246
0.077842295 -0.027237382 0.047912665
-0.29473931 0.089342482 0.042925879
-0.27947927 0.089174986 0.040610194
-0.014489044 -0.025361877 0.057117198
0.0024481188 -0.026427768 0.056565233
0.010256876 -0.021964483 0.057676613
0.03402625 -0.027467702 0.059008565
-0.28275251 0.089402325 0.053002421
-0.29402876 0.091438383 0.057284705
-0.0049759457 -0.024927543 0.062964156
0.024733556 -0.0274677 0.066416368
0.038423579 -0.021136042 0.06704817
0.066750072 -0.023247138 0.06506256
-0.29891831 0.091279119 0.063489072
-0.28882694 0.091386557 0.066016316
-0.27990973 0.091294624 0.063060455
-0.016262887 -0.025179029 0.075764701
0.0047212951 -0.026592597 0.078853525
0.038096905 -0.021281276 0.079299971
0.051612396 -0.0274677 0.071059175
-0.3030338 0.091010131 0.073323026
-0.28510854 0.090051487 0.079703875
0.0052287388 -0.022537127 0.086176395
0.075696476 -0.026873287 0.080117755
-0.30145344 0.089996614 0.080888279
-0.2934792 0.089917988 0.081099883
-0.015304824 -0.025184609 0.096049726
-0.0017718351 -0.026158072 0.09111172
0.015571245 -0.027192552 0.09006606
0.040465768 -0.021415118 0.090590589
0.055761836 -0.021494228 0.097263224
0.073633105 -0.026517419 0.096197896
-0.012902787 -0.025333289 0.10302533
-0.0020157457 -0.026100807 0.10414009
0.00051326712 -0.023100831 0.10230514
0.017690632 -0.021628827 0.10861375
0.036995262 -0.021610603 0.10707906
0.044486247 -0.021564271 0.10317123
0.054971583 -0.021579705 0.10447299
0.068436101 -0.024527675 0.10254363
0.0055826823 -0.026611701 0.11299293
0.020121323 -0.021738576 0.11787275
0.043413796 -0.021655308 0.1108498
0.05453369 -0.021924954 0.11894138
0.064328708 -0.025449436 0.11529144
0.039540477 -0.070982561 0.12641264
0.061621279 -0.078018166 0.1296355
0.018845756 -0.06637428 0.12968674
0.034810103 -0.063884281 0.12501785
0.042707145 -0.069779709 0.12591444
0.059236277 -0.067777708 0.12736139
0.063366614 -0.054279558 0.12670472
0.0029888072 -0.022728436 0.12422568
0.028367475 -0.0274677 0.12412263
0.036914922 -0.021833526 0.12588191
0.074122466 -0.080919102 0.13470715
0.033293314 -0.073205926 0.13215806
0.04394155 -0.077181645 0.13317555
0.053306937 -0.072938144 0.13739574
0.067434683 -0.079029664 0.13090725
0.073145814 -0.073526457 0.13063285
0.091900721 -0.078887045 0.13862188
0.043447725 -0.067139879 0.13146062
0.055350713 -0.063134953 0.13814023
0.070058294 -0.061345842 0.13792074
0.080603972 -0.064462699 0.13691254
0.03593526 -0.052784495 0.13394971
0.045912847 -0.054868519 0.13548568
0.052462041 -0.055519007 0.13956434
0.090185091 -0.051575832 0.13107516
0.036483247 -0.049096629 0.1387133
0.056131452 -0.049398091 0.13207343
0.062355638 -0.045145847 0.13982229
0.045355625 -0.032156773 0.13925761
0.01167978 -0.026960565 0.13999723
0.022256035 -0.024712184 0.13799036
0.021618083 -0.075868137 0.14177635
0.034374259 -0.076370813 0.14709038
0.052568614 -0.071931265 0.1461696
0.055381857 -0.068127304 0.14102654
0.067084827 -0.068276942 0.14292045
0.036996428 -0.05011683 0.14656639
0.04385167 -0.05276129 0.14670247
0.05705981 -0.050394587 0.14288679
0.080883637 -0.053731646 0.14927705
0.020418646 -0.041513644 0.14078206
0.035716087 -0.045194477 0.14096321
0.04700302 -0.047576044 0.14016268
0.069734916 -0.047431909 0.14365788
0.046176873 -0.034045458 0.14194611
0.054579243 -0.033650655 0.14050084
-0.015364618 -0.02503689 0.14077167
0.028564317 -0.022034243 0.14330311
0.033047885 -0.022010513 0.14084753
0.039038479 -0.075679243 0.15278132
0.046441033 -0.075657144 0.15229467
0.063723743 -0.070042595 0.15725343
0.071798667 -0.072272122 0.15070936
0.081207447 -0.07446447 0.15462396
0.025369398 -0.061852008 0.15196587
0.044310436 -0.068292916 0.15232825
0.079020619 -0.06793122 0.15360774
0.087025285 -0.06614247 0.15387979
0.091735236 -0.060313746 0.15438879
0.057440281 -0.055460937 0.15067174
0.068812266 -0.059059918 0.15723673
0.079093069 -0.05986432 0.15341467
-0.00012315996 -0.022767091 0.15290332
0.039142188 -0.022159686 0.1546647
0.003897348 -0.026686128 0.16043593
0.011646772 -0.022216756 0.16226524
0.02859606 -0.022253549 0.16608743
0.036282573 -0.027252318 0.16686442
-0.018384812 -0.024494886 0.17637028
0.036166932 -0.026886432 0.17960902
-0.022845663 -0.024757842 0.18819903
-0.019014716 -0.025403345 0.18448967
-0.0037178611 -0.024361281 0.18242653
0.0031773024 -0.022397613 0.1810551
0.021523453 -0.027079554 0.18803209
0.036665931 -0.026568912 0.18904924
0.041701935 -0.026028389 0.18042663
-0.023735605 -0.024606969 0.19835006
-0.01595718 -0.025077743 0.19839121
-0.0056051067 -0.02654307 0.1979572
0.0068925465 -0.027036902 0.19323103
0.010823786 -0.022520602 0.19383276
-0.024307119 -0.02459015 0.20266639
-0.016961334 -0.023594305 0.2038886
-0.0022270782 -0.026819818 0.21970966
0.011397404 -0.022768341 0.21957146
0.021467872 -0.02676202 0.21412805
-0.030858304 -0.02515297 0.22559601
-0.026579561 -0.024233161 0.22663844
0.0015613534 -0.022855625 0.22863969
0.010857961 -0.026779886 0.22458385
-0.029202027 -0.025399137 0.23527853
-0.00047589187 -0.026664466 0.2386605
0.010321096 -0.026727971 0.23091677
-0.0094606448 -0.023038575 0.24764711
0.013541577 -0.023297967 0.24291918
-0.023609713 -0.024269542 0.25374219
-0.0033179559 -0.026501479 0.25854158
-0.032132417 -0.024037452 0.26140425
-0.028222723 -0.023395251 0.26996613
-0.0021552211 -0.023275241 0.26943552
-0.016711472 -0.023334987 0.27844253
-0.020002972 -0.026309572 0.28194714
-0.042620592 -0.02535037 0.29911587
-0.033697356 -0.023520513 0.29780293
-0.0099822907 -0.023560464 0.29527301
-0.041956715 -0.024080733 0.30855483
-0.015854742 -0.026136376 0.30307505
-0.046964433 -0.025254689 0.31285661
-0.037859276 -0.023722287 0.31876135
-0.022838172 -0.02489059 0.31554043
-0.01861761 -0.025996804 0.31942281
-0.043287054 -0.025658969 0.32431266
-0.047553115 -0.024687326 0.33395764
-0.02529344 -0.025866875 0.33461633
-0.032937292 -0.02582542 0.34100217
-0.05744575 -0.025197128 0.35969913
-0.046915658 -0.024108041 0.35884199
-0.031026475 -0.025702469 0.35507834
-0.05671281 -0.024611825 0.36261064
-0.046889838 -0.024898335 0.36580321
-0.051308479 -0.025552776 0.37425748
