# .PCD v0.7 - Point Cloud Data file format
VERSION 0.7
FIELDS x y z
SIZE 4 4 4
TYPE F F F
COUNT 1 1 1
WIDTH 954
HEIGHT 1
VIEWPOINT 0 0 0 1 0 0 0
POINTS 954
DATA ascii
-0.4173345 -0.007442344 -0.21508121
-0.39455658 -0.0073517635 -0.21523809
-0.38678274 -0.0075963372 -0.21481448
-0.37312219 -0.0081542609 -0.21384805
-0.36913586 -0.0095544318 -0.2114228
-0.32236433 -0.0062676007 -0.217116
-0.31840962 -0.0080492897 -0.21402989
-0.29649255 -0.0047418154 -0.21688624
-0.42947429 0.0071230847 -0.218687
-0.29661626 0.0053377147 -0.218687
-0.25806427 0.0091104116 -0.218687
-0.37426853 0.014864028 -0.218687
-0.25921983 0.018585656 -0.21474095
-0.22255115 -0.01241839 -0.20646206
-0.19430971 0.018296953 -0.20347102
-0.38783148 0.026224464 -0.20150959
-0.28156155 0.02255005 -0.20787413
-0.36560169 0.038823962 -0.200257
-0.31042975 0.034027576 -0.200257
-0.25878185 -0.033126127 -0.19943124
-0.25081408 -0.025146402 -0.19992101
-0.239059 -0.024995428 -0.19361861
-0.34084049 -0.016681749 -0.199921
-0.19241527 0.00087765814 -0.199921
-0.22060087 0.027932689 -0.19631977
-0.43151474 0.03368238 -0.199921
-0.29718736 0.034805179 -0.199921
-0.28695071 0.031285565 -0.199921
-0.27963731 0.035549678 -0.19992098
-0.44142386 0.040373538 -0.195115
-0.26285189 0.045119047 -0.19717675
-0.24958585 0.040142179 -0.199921
-0.22837101 0.041390635 -0.19428965
-0.39608282 -0.038681425 -0.18745741
-0.37087607 -0.037560329 -0.1898738
-0.43258399 -0.023603871 -0.18457058
-0.220144 0.0074322261 -0.18168956
-0.43885145 0.049366377 -0.1806391
-0.34174639 -0.045893371 -0.17191285
-0.23295489 -0.037540734 -0.17829114
-0.20047683 -0.0086172009 -0.17670184
0.26600805 -0.00068517402 -0.172015
-0.220144 0.0090099284 -0.17161946
0.19534558 0.006857147 -0.17081299
0.2299377 0.0079321386 -0.17081299
0.11803164 0.012074957 -0.17081299
0.18633015 0.011863753 -0.17059299
0.26852265 0.010128267 -0.17059299
0.27612495 0.016057007 -0.172015
-0.23821667 0.030362301 -0.1713046
-0.43710721 0.049724452 -0.1797002
-0.38934371 0.053684063 -0.17871533
-0.36357999 0.05412136 -0.17857088
-0.32422474 0.054813433 -0.1770792
-0.24225724 0.056839637 -0.17191416
-0.44033015 -0.047185577 -0.16912763
-0.39526737 -0.048010744 -0.16734907
-0.26066765 -0.049602602 -0.16145197
-0.42952901 -0.034750096 -0.16215234
-0.220144 -0.0035299696 -0.1623114
-0.030568378 -0.0060130209 -0.16306598
0.017324869 -0.0073097614 -0.16081987
0.09742327 -0.0062296591 -0.16269074
0.11611619 -0.0032618158 -0.16783136
0.16270784 -0.00553106 -0.16390078
0.38558298 0.00018215243 -0.16530012
0.15349597 0.018647611 -0.16952538
0.20704328 0.019758958 -0.16760051
0.27691013 0.019551873 -0.16795918
-0.027938157 0.022505842 -0.16284288
0.10467778 0.022383882 -0.16305411
0.28341269 0.02313094 -0.1617602
-0.35808936 0.058768436 -0.16775657
-0.30418932 0.059048887 -0.16715212
-0.36574256 0.060549498 -0.16102424
-0.43628514 -0.044796199 -0.15070273
-0.33336884 -0.049602602 -0.15253729
-0.43203422 -0.034230798 -0.15930694
0.10966305 -0.010290304 -0.15421814
0.20359421 -0.010881967 -0.15114415
0.10926797 -0.0088703567 -0.15811677
0.14264597 -0.008457588 -0.15883173
0.19212343 -0.0088680703 -0.15812072
0.23233873 -0.0086642392 -0.15847379
0.36492336 -0.0095466711 -0.15694532
-0.42953014 0.01183857 -0.15790404
-0.220144 0.018073704 -0.15898329
0.12854666 0.025821909 -0.15709941
0.13787566 0.02435036 -0.15964815
0.34991679 0.024874425 -0.15874048
-0.43137184 0.047576152 -0.15422745
-0.33561015 0.0608855 -0.15103944
-0.31788352 -0.049602602 -0.14735985
-0.25304258 -0.049602602 -0.1483182
-0.239059 -0.039316792 -0.14873461
-0.20891809 -0.010837599 -0.14661327
-0.026460165 -0.011761757 -0.14657205
-0.0038088819 -0.011977881 -0.14544965
0.1287639 -0.013055664 -0.14217505
0.26701373 -0.011141299 -0.14979671
0.32363221 -0.012136687 -0.1469505
-0.43038511 0.0080225486 -0.14453135
0.040344987 0.0051912041 -0.141394
0.069079921 0.0098015135 -0.141394
0.11011107 0.0099581005 -0.141394
-0.0041192546 0.028423 -0.14502788
0.056034662 0.027821455 -0.14815249
0.22116445 0.029749213 -0.14046109
0.30348223 0.028210796 -0.14845523
0.38597319 0.028883005 -0.14157899
-0.435357 0.055743199 -0.14167319
-0.38037151 0.060549501 -0.14952531
-0.40545738 -0.049602602 -0.13762039
-0.33718508 -0.049602602 -0.1328744
-0.29791069 -0.049602602 -0.13655154
-0.42968917 -0.037409972 -0.13766123
-0.22750473 -0.0194149 -0.1378313
-0.010992909 -0.013105163 -0.13959186
0.0022260263 -0.013071273 -0.13976833
0.012149163 -0.014011392 -0.13488355
0.058447804 -0.014267245 -0.13587944
0.063548133 -0.01386561 -0.13796641
0.17976761 -0.014889354 -0.13264684
0.20303506 -0.01491675 -0.13250449
0.22505854 -0.015280524 -0.13061427
0.24165145 -0.013863689 -0.13797639
0.25805259 -0.01539292 -0.13003023
0.37822291 -0.014508983 -0.1322974
0.39250505 -0.00084646698 -0.13393795
-0.031431008 0.017771987 -0.13412812
0.27297321 0.03070694 -0.13548456
0.29263467 0.031442616 -0.13166207
0.3320083 0.031444151 -0.13165441
0.38339627 0.03068004 -0.1333008
-0.33224458 0.060549501 -0.13142854
-0.24396329 0.060549501 -0.13152705
-0.24446815 -0.043243717 -0.12511599
-0.37455511 -0.039663337 -0.12354057
-0.42952901 -0.01023121 -0.12189384
-0.032480098 -0.011084115 -0.12985457
0.096710667 -0.017060969 -0.12136275
0.3146393 -0.016083928 -0.12643985
0.36951739 -0.015810139 -0.12553659
0.37820619 -0.016805924 -0.1203623
0.39424267 -0.00084646698 -0.12492284
-0.17895401 0.001740646 -0.127194
-0.42952901 0.016868841 -0.1216931
-0.220144 0.011962146 -0.12909803
-0.022678904 0.018640235 -0.12401743
-0.0330224 0.024771992 -0.12566829
-0.445499 0.038040683 -0.12066413
-0.224389 0.030362301 -0.12784423
0.12481637 0.032751225 -0.12486208
0.16302252 0.033161409 -0.12273069
0.30556199 0.032041483 -0.12855038
-0.23521405 0.044336095 -0.12659398
-0.43318009 0.05398405 -0.12633878
-0.41865459 0.051213738 -0.12380612
-0.39390543 0.059032138 -0.12724634
-0.38258952 0.052593581 -0.12441327
-0.36963889 0.059082825 -0.12726864
-0.33804524 0.050090749 -0.12331198
-0.2564916 0.057765726 -0.12668909
-0.41505823 -0.025239132 -0.11719369
-0.35123792 -0.020195417 -0.11497438
-0.29187 -0.024514889 -0.11687501
-0.24409014 -0.022345543 -0.11592046
-0.441751 -0.014257737 -0.1139678
-0.4049229 -0.014180942 -0.11356253
-0.21678647 -0.013569457 -0.11143136
0.04854928 -0.018781658 -0.11242172
0.11412107 -0.017782895 -0.11761148
0.18589027 -0.017534582 -0.11890175
0.20036653 -0.018555159 -0.11359865
0.24052513 -0.018928675 -0.11165779
0.26520669 -0.017618915 -0.11846354
0.33063874 -0.0174773 -0.11919972
0.3771717 -0.018461466 -0.11175997
-0.43810159 -0.0028479346 -0.113214
-0.3797965 -0.0080952831 -0.113214
0.39705646 -0.00084646698 -0.11096725
-0.43859303 0.0029877266 -0.113214
-0.37164742 0.0092635341 -0.113214
-0.29536632 0.0085528018 -0.113214
-0.23381978 0.004708373 -0.113214
0.012957336 0.00198899 -0.11717305
0.10113746 0.0019889898 -0.11762072
0.120577 0.0081998492 -0.11948502
-0.37227222 0.019818485 -0.113214
-0.36968452 0.016189918 -0.113214
-0.220144 0.011070069 -0.11575577
-0.033485785 0.019474503 -0.11430324
0.0069619655 0.019090472 -0.11582238
0.099528089 0.019220449 -0.11432981
0.39545411 0.0172102 -0.1171613
-0.43116722 0.021406066 -0.113214
-0.42397463 0.028042719 -0.11361051
-0.41659486 0.021936193 -0.113214
-0.35711777 0.028065026 -0.11362032
-0.28162184 0.029698692 -0.11433916
-0.23439384 0.020625964 -0.113214
-0.43960968 0.031555552 -0.1151562
-0.38204831 0.036674328 -0.11740854
-0.30620673 0.038602512 -0.11825698
-0.03087154 0.034617655 -0.11284046
0.041522749 0.034323327 -0.11669314
0.089478627 0.034970433 -0.11333068
0.36389178 0.034085833 -0.11560406
0.39107689 0.03225011 -0.11022649
-0.41152683 0.042289186 -0.11987917
0.004995265 -0.020523479 -0.1010452
0.019243186 -0.020561609 -0.10317276
0.040242869 -0.020178672 -0.10516258
0.25333807 -0.020416494 -0.10392682
0.34618336 -0.020273414 -0.10234533
-0.39966911 -0.010183237 -0.100081
-0.31459686 -0.016194699 -0.10768212
-0.27297324 -0.016194699 -0.10346691
-0.0036949208 -0.019869551 -0.10444313
0.16933295 -0.019377787 -0.10932413
0.23127726 -0.019488396 -0.10874937
0.24546121 -0.019526608 -0.10855082
-0.0047482615 0.0017043699 -0.10521655
-0.20231548 0.016221633 -0.10692643
-0.19909269 0.017658914 -0.10917665
0.074175708 0.01989512 -0.10658245
-0.42278406 0.020254489 -0.100081
-0.014802461 0.020145228 -0.1064922
0.059717797 0.020060327 -0.10468535
0.16487211 0.036703505 -0.10432532
0.29867655 0.035652023 -0.10978944
-0.40584287 -0.021607568 -0.096955933
-0.34939277 -0.021206623 -0.097187422
0.046852402 -0.022403698 -0.093600929
0.068601266 -0.022253744 -0.094380111
0.190706 -0.022701502 -0.09205348
0.25323409 -0.022832943 -0.091370493
0.29471749 -0.022013677 -0.095627688
-0.42952901 -0.014000256 -0.090472959
-0.033811331 -0.00013777179 -0.091243446
-0.3967486 0.027128413 -0.098861344
-0.38838789 0.027141601 -0.097896107
-0.27953699 0.0275294 -0.09272556
0.40130723 0.027781121 -0.097532496
0.038874406 0.039331358 -0.090670504
0.062000833 0.038952034 -0.092641532
0.12901957 0.038852856 -0.093156889
0.13072862 0.037662484 -0.099342272
0.17966771 0.037857346 -0.098329753
0.25318888 0.037992798 -0.097625919
0.26059824 0.038183648 -0.096634209
0.2866255 0.038152598 -0.0967957
0.30451274 0.03882733 -0.093290143
0.35025012 0.037521794 -0.098269701
-0.30434892 -0.045819271 -0.082977593
-0.2681894 -0.045760028 -0.083011791
-0.24358048 -0.048046157 -0.081691928
-0.23767927 -0.047537372 -0.081985667
-0.4405362 -0.037880793 -0.082754768
0.033979982 -0.024852093 -0.080878615
0.12393498 -0.024021605 -0.085193977
0.19706851 -0.024084989 -0.084864631
0.26636022 -0.024525031 -0.082578093
0.31660885 -0.024822909 -0.081030563
0.34390363 -0.023446023 -0.08586023
0.36471429 -0.023306858 -0.086583078
0.39829481 -0.019187301 -0.084374622
-0.33055967 0.027141601 -0.08794421
0.083103016 0.020679399 -0.080447048
0.090322554 0.020679399 -0.086404875
0.19694391 0.039750881 -0.08849059
0.34872982 0.039685655 -0.086506709
0.38194746 0.039022535 -0.089952156
0.055040546 0.041315921 -0.080358341
0.28551942 0.04088819 -0.082581028
-0.42361146 -0.058418851 -0.075703375
-0.40660074 -0.059531499 -0.074443951
-0.33325946 -0.051996499 -0.079411246
-0.220144 -0.03694205 -0.072439402
-0.032480098 -0.023562105 -0.075444981
0.01456343 -0.024831213 -0.078661688
0.097981632 -0.02535324 -0.07827457
0.10140178 -0.025429199 -0.077879868
0.16933113 -0.025329612 -0.078397334
0.17032422 -0.025466267 -0.075361989
0.34332216 -0.025309997 -0.07617487
-0.032480098 -0.011627897 -0.079764605
-0.22014402 -0.0031178875 -0.071629643
0.078220502 0.00198899 -0.078815423
-0.24932608 0.027141601 -0.07903409
-0.22522762 0.02057701 -0.0749254
-0.031637665 0.022859843 -0.074882485
0.0062249554 0.042451054 -0.072137162
0.061237935 0.042650871 -0.073421687
0.18049029 0.042297337 -0.075258739
0.38493064 0.041555919 -0.076788358
-0.39467978 -0.059531499 -0.066150993
-0.32001513 -0.059531499 -0.06784042
-0.14364678 -0.026793148 -0.061774764
-0.12788551 -0.026012436 -0.061242789
0.021178685 -0.028086731 -0.062282518
0.11891148 -0.026881581 -0.068009138
0.2786305 -0.027456105 -0.065023206
0.37547773 -0.026748233 -0.068701267
-0.21688366 -0.014076855 -0.061751422
-0.20896563 -0.012551706 -0.062097885
-0.072293751 -0.013017681 -0.061992072
-0.17371753 -0.0047079558 -0.063879728
-0.093032807 -0.0019411643 -0.064508252
0.40873206 -0.0093904445 -0.068366423
0.12057699 0.0088784946 -0.068186492
-0.4335357 0.028562073 -0.062750399
-0.39461419 0.025995515 -0.06423223
-0.27858111 0.02071508 -0.067269154
-0.25872585 0.024830312 -0.063403845
-0.42623103 0.03165739 -0.060963299
-0.3712585 0.030811075 -0.061451964
-0.32525265 0.030370712 -0.061705921
-0.30655554 0.030829778 -0.06144084
0.3856039 0.03159475 -0.069798298
0.036623225 0.04448453 -0.063893668
0.060178578 0.043642547 -0.068268768
0.18198341 0.043692704 -0.06800814
0.31708482 0.044481091 -0.063912429
-0.41793796 -0.051001798 -0.050486919
-0.35179931 -0.051460169 -0.054832548
-0.2744965 -0.056197118 -0.057567526
-0.25321203 -0.054432929 -0.056548934
-0.23339158 -0.052098803 -0.055201277
-0.42952901 -0.041636448 -0.052967399
0.077725694 -0.032785468 -0.054867987
0.094699293 -0.031469312 -0.057147671
0.3125906 -0.033389527 -0.053821709
-0.42952901 -0.02879649 -0.058031
0.40261751 -0.020596629 -0.052383624
-0.43564001 -0.004915827 -0.050794967
-0.20580153 0.004446221 -0.05189731
0.082293026 0.005013614 -0.052088734
-0.42952901 0.024392746 -0.056452461
-0.25122401 0.038291585 -0.05713281
-0.28849971 0.04613369 -0.052605353
-0.25563315 0.049481459 -0.050672449
-0.2308042 0.040269889 -0.055990648
-0.22478592 0.043357849 -0.054207824
0.038311336 0.04595387 -0.056258723
0.11715471 0.045630369 -0.057939678
0.14551023 0.04598717 -0.056085672
0.24761154 0.045341503 -0.05944068
0.25036839 0.04555041 -0.058355168
-0.35079235 -0.051001802 -0.047991529
-0.4398998 -0.046195399 -0.042286754
0.029349249 -0.041155357 -0.041146051
0.26711369 -0.040666729 -0.041992381
-0.21935433 -0.038703345 -0.043893907
0.0067778705 -0.039227631 -0.043709666
0.14969853 -0.038878232 -0.04509015
0.23877725 -0.039128993 -0.043880511
0.38126275 -0.03943437 -0.042627878
-0.4349767 -0.014185507 -0.048949108
0.41492611 -0.019975698 -0.040632941
-0.43038768 -0.0077823885 -0.04882355
-0.43563998 0.011400341 -0.040981591
-0.21610637 0.019714616 -0.041047994
0.12057701 0.010601145 -0.049741514
0.030855121 0.020679399 -0.048488099
0.078938246 0.020679399 -0.046638347
0.3965894 0.033205267 -0.043763384
-0.032480098 0.042213786 -0.044104777
-0.0063928519 0.047598913 -0.045388293
0.007572148 0.047533602 -0.045727685
0.15146928 0.047258534 -0.049479458
0.19277112 0.048568811 -0.042670995
-0.42792282 -0.058187321 -0.030636635
-0.34390634 -0.059531499 -0.036963694
-0.3325507 -0.059531495 -0.034127735
-0.26993543 -0.059531502 -0.033706009
-0.25690156 -0.059531499 -0.033342678
-0.441751 -0.049090594 -0.034039531
-0.13091485 -0.045988601 -0.031215308
-0.12133048 -0.045966305 -0.031314027
0.13441142 -0.045988597 -0.030190118
0.15028344 -0.042412542 -0.038968544
0.19152737 -0.045255717 -0.032544926
0.416475 -0.0025770015 -0.033697955
-0.064322405 0.033837825 -0.036469001
-0.043672748 0.030475352 -0.036469001
0.40796426 0.038280539 -0.033042282
-0.11631788 0.0409321 -0.033465967
-0.095524386 0.040752187 -0.036469001
0.039063528 0.049967293 -0.033081662
-0.40097952 0.051518701 -0.032826491
-0.29604384 0.051518701 -0.036490671
0.13226937 0.050387092 -0.030900203
0.18515226 0.050076794 -0.03483529
0.20540985 0.050059047 -0.032604709
-0.28632551 -0.05798411 -0.024127092
-0.27595699 -0.051561799 -0.020359635
-0.23002318 -0.051001798 -0.029289529
-0.4306742 -0.046195399 -0.025098506
-0.038969915 -0.045988601 -0.020574525
0.38418818 -0.045988601 -0.02667582
0.41535398 -0.016184475 -0.025020499
0.38998678 -0.0066840621 -0.025020503
0.39742824 0.01463332 -0.025020501
0.4014771 0.01304529 -0.025020503
0.40259808 0.034070399 -0.025020503
-0.15357323 0.042591464 -0.025020501
-0.39136145 0.052972939 -0.026126314
-0.37817124 0.053046729 -0.024138179
-0.36210138 0.051518701 -0.028883815
-0.30519181 0.053731412 -0.023742827
-0.25658923 0.057170372 -0.021757081
-0.1947498 0.051865868 -0.024820037
-0.096575297 0.053727403 -0.02374514
-0.05695346 0.052486893 -0.024461443
0.01447521 0.051341198 -0.025942765
0.05554527 0.057508554 -0.020997049
0.090031967 0.057612769 -0.020617442
0.25538468 0.052577786 -0.025505502
0.33996546 0.052928776 -0.02420629
-0.12923986 -0.050692327 -0.014485702
-0.011909932 -0.054440536 -0.012321756
0.27087766 -0.053270254 -0.012997391
0.29923123 -0.057976186 -0.010280522
0.30493695 -0.051172309 -0.014208597
0.34190866 -0.051572286 -0.013977679
-0.43569839 -0.046195399 -0.016651196
-0.36511815 -0.04800427 -0.018365078
-0.30039394 -0.049619012 -0.019297374
-0.08859846 -0.04845478 -0.015777506
-0.014297223 -0.049164698 -0.015367649
0.28215179 -0.045988601 -0.019339368
0.40785179 -0.030898143 -0.013622014
-0.42952901 0.035811119 -0.013113577
-0.42952901 0.044788443 -0.01714588
0.38558301 0.046305805 -0.010095831
-0.41551983 0.058071196 -0.018947635
-0.23496801 0.0598385 -0.011240516
-0.20912865 0.05818402 -0.018536657
-0.10472976 0.057982288 -0.019271474
-0.034569964 0.05827567 -0.018202823
-0.010204129 0.058045186 -0.019042354
0.090110525 0.059168115 -0.01495209
0.16832051 0.059184562 -0.014892179
0.18736109 0.059478015 -0.01382328
0.38424379 0.0598385 -0.012501814
-0.16352001 -0.0608855 -0.0019506947
-0.015114784 -0.060885504 -0.0018343795
0.091087364 -0.060885504 -0.0048658568
0.13525534 -0.0608855 -0.0068506198
0.3266592 -0.0608855 -0.0084527014
0.44310671 0.0072382735 -0.0036933599
-0.016419679 0.046453983 -0.00072312134
0.16584904 0.04837732 -0.0026750618
0.25609279 0.046773225 -0.0014491801
-0.31468171 0.0598385 -0.0029011727
-0.25840816 0.0598385 -0.0010279382
-0.23042387 0.0598385 -0.0041884938
-0.2009615 0.0598385 -0.0075709098
-0.034239873 0.0598385 -0.0063327635
-0.020726457 0.0598385 -0.0011200062
0.12399404 0.055103816 -0.0045699161
0.21322355 0.0598385 -0.005727842
0.23638257 0.059838496 -0.0088007152
0.25146204 0.051902585 -0.00028447079
0.26161358 0.059838504 -0.0094163977
-0.26018891 -0.0600738 0.0017652526
0.04305502 -0.060885496 0.0022875199
0.15728296 -0.060885504 0.0072769178
0.16434196 -0.060088247 0.009061167
0.34800783 -0.059318613 0.0095055001
-0.40288317 -0.046195399 0.0023797497
-0.30804574 -0.046195399 0.0019193981
-0.28654385 -0.046195399 0.0057987892
0.39877522 -0.037546571 0.0057566101
-0.42952901 -0.017086342 0.00955474
0.43761301 -0.0079539744 0.008258828
0.44162703 0.013449853 0.0048741177
0.41841301 0.029030532 0.0073331925
0.39558882 0.0397017 0.0082019158
0.04471872 0.047238246 0.0020213688
0.30308327 0.04943018 0.0027537667
-0.43829113 0.059838504 0.0018328289
-0.33831981 0.0598385 0.0097055016
-0.30264059 0.0598385 0.00016749057
-0.13505563 0.055842482 0.0018184767
0.016486928 0.051629215 0.001243036
0.13981463 0.059838496 0.0096140075
0.2376723 0.050903037 0.0021418708
0.24723101 0.0598385 4.0052226e-05
0.39605761 0.050950654 0.0086008897
-0.18000543 -0.059784014 0.013628334
-0.10805617 -0.054762367 0.012135951
0.049029782 -0.056152627 0.011333313
0.071933538 -0.058095261 0.010211775
0.084739462 -0.055955224 0.011447283
0.10767686 -0.054921128 0.012044295
0.13017383 -0.056009777 0.011415785
0.15467212 -0.052687168 0.013334023
0.20940977 -0.05248747 0.013449317
-0.43296832 -0.046195399 0.014478159
-0.41394526 -0.046195399 0.015468717
-0.34665251 -0.048138008 0.018442294
-0.33454105 -0.046195399 0.015362665
0.21296781 -0.047281522 0.016454857
0.32584321 -0.045988601 0.018637046
-0.42952901 -0.01060518 0.019858178
0.41860116 -0.0089293402 0.0141107
-0.32319611 0.058594856 0.017040189
-0.18881167 0.057870641 0.019678157
-0.15614919 0.059328232 0.014368856
-0.11672649 0.059838504 0.010655837
0.099317789 0.058473483 0.01748229
0.26888651 0.058896784 0.015940404
-0.42264676 -0.059531499 0.026186941
-0.37340358 -0.059531502 0.026750797
-0.26417419 -0.059531499 0.028258208
-0.19167364 -0.046666265 0.023783047
-0.11969402 -0.045988601 0.021275803
0.099659108 -0.045988601 0.02550555
0.34799704 -0.045988601 0.020101681
0.39314115 -0.022171201 0.025020503
-0.42952901 0.0054397988 0.025049593
-0.43564004 0.023899071 0.024294313
0.41615209 0.026593324 0.025020501
0.39088243 0.034075234 0.029699847
-0.15664406 0.048534811 0.025020499
-0.032797419 0.043025501 0.028737407
-0.36560455 0.051518701 0.026832361
-0.31590196 0.051518701 0.025905401
-0.28851852 0.055045366 0.022984114
-0.2705487 0.051518701 0.027216742
-0.26592958 0.052069277 0.024722818
-0.25337854 0.05391473 0.023636971
-0.23178431 0.057573833 0.020759286
-0.098960571 0.053778153 0.023715835
-0.076857083 0.051016625 0.025020501
-0.0075459955 0.054236192 0.023451352
0.098289907 0.056428816 0.022185275
0.15782319 0.057489701 0.021065731
0.16070533 0.050756194 0.028982408
0.17229688 0.050665274 0.029454807
0.18227375 0.051349312 0.025900632
0.22354385 0.051142886 0.026973188
0.28177816 0.055409964 0.022773586
0.3446095 0.051470321 0.025271894
-0.39331198 -0.059531495 0.037778024
-0.35637134 -0.059531499 0.030845728
-0.28852242 -0.059531499 0.036708102
-0.22063282 -0.051001798 0.033780377
-0.42952901 -0.043084204 0.036421668
-0.099175364 -0.043705143 0.035230897
-0.069169044 -0.044048522 0.034636084
0.077652693 -0.044496916 0.033859361
0.24078734 -0.042383891 0.038242787
0.27509362 -0.042277709 0.039202079
0.37355691 -0.045788851 0.031621411
0.39236358 -0.040458027 0.031488545
-0.42952901 -0.0018608391 0.037088625
0.40141729 0.0172102 0.039629783
-0.10967676 0.025306519 0.03707454
-0.096211702 0.028276645 0.036469001
-0.043171212 0.021321602 0.039906114
-0.21302184 0.03182634 0.036469001
-0.2033186 0.031826392 0.036469001
-0.16254206 0.038457431 0.036469001
-0.18742134 0.0409321 0.032259256
-0.11278583 0.040454417 0.036469001
-0.034650799 0.040579095 0.03698647
0.021818437 0.049460001 0.035717785
0.27701241 0.049066022 0.039468952
-0.43461975 0.051518701 0.032380033
-0.3836779 0.051518701 0.037420422
-0.36096624 0.051518701 0.036196046
-0.34856662 0.051518701 0.03363879
-0.33715892 0.051518701 0.032895565
0.0073255179 0.050254263 0.031590637
0.086397991 0.050485156 0.030390676
0.2229782 0.050058711 0.032606442
0.26428267 0.050275285 0.031481158
0.29398915 0.050071549 0.032539744
-0.41928995 -0.051001798 0.046740662
-0.37696323 -0.051333405 0.044918094
-0.33354747 -0.055864975 0.041911133
-0.32029817 -0.054569982 0.042658743
-0.22724649 -0.051001798 0.048300453
-0.220144 -0.042781949 0.045077972
0.12846783 -0.040954269 0.040719006
0.248914 -0.040522225 0.041469507
0.29332623 -0.04024972 0.042714663
0.30902299 -0.041403282 0.040438727
-0.094949074 -0.037973143 0.04515877
0.12283701 -0.036507927 0.048420407
0.25592387 -0.039294876 0.044368505
0.33054894 -0.035647579 0.049910598
0.38852572 -0.037797146 0.041398678
-0.42952901 -0.028932519 0.042344473
0.39475316 -0.00084646698 0.047260247
-0.055680044 0.007458088 0.04975716
-0.01826529 0.0095873075 0.048244189
0.06166131 0.0098915221 0.048622545
-0.19121873 0.010462997 0.047621951
-0.059424389 0.017065408 0.042930454
0.060595676 0.014638505 0.045249391
-0.16744953 0.020405509 0.040557068
-0.032519914 0.027489882 0.044809811
-0.42952901 0.031889949 0.044767559
-0.0014042081 0.047476564 0.046023861
0.031239208 0.048331361 0.043904833
0.052543297 0.047732584 0.047016189
0.090518005 0.047212716 0.049717516
0.15701731 0.047543302 0.047999717
0.30479443 0.048819013 0.04137148
0.36983815 0.047327466 0.046798766
0.3783654 0.047065403 0.04816046
0.38946378 0.045143209 0.047611922
-0.3525613 0.051518701 0.047973931
-0.33011702 0.051518701 0.042664498
-0.28102434 0.051518701 0.049222253
-0.25873247 -0.051001798 0.050685253
-0.24175769 -0.051001795 0.051743306
-0.220144 -0.050186999 0.057112563
-0.071848273 -0.030798526 0.057585444
0.089899212 -0.030371901 0.058324397
0.23008265 -0.031917464 0.056371439
0.25222901 -0.03084662 0.057502143
-0.43564001 -0.026233111 0.058465224
-0.11912134 -0.02946889 0.059888493
0.002289772 -0.029806972 0.059302907
0.082683757 -0.029843096 0.059240334
-0.19975661 0.0052529559 0.051324069
-0.084918767 0.003653791 0.052460387
-0.013500856 0.0017043701 0.058517281
0.040136453 0.0063442388 0.051143207
0.085757539 0.0071621444 0.050562009
0.0047843 0.012768464 0.058419514
0.120577 0.01072135 0.053560995
0.083886802 0.020679399 0.05052375
0.10957362 0.020679399 0.057644755
0.41252208 0.025573492 0.051396921
-0.29702383 0.0365678 0.058128063
-0.31688827 0.043356989 0.054208543
-0.010863108 0.046617389 0.050488085
0.17345577 0.046514727 0.05334441
0.258488 0.046933219 0.051169835
0.30301163 0.046275362 0.054588627
-0.42703143 -0.059531499 0.062091496
-0.41181123 -0.059531502 0.067346916
-0.43258399 -0.046633925 0.064166397
-0.17818362 -0.02107132 0.060162518
0.20539966 -0.026985539 0.067468911
0.34464422 -0.027394749 0.065342084
-0.16589174 -0.018637748 0.060715355
-0.220144 -0.0038199937 0.067251913
-0.17333171 -0.0086338362 0.062987894
-0.086360171 -0.0024622488 0.064389877
-0.06336616 0.00170437 0.061280262
0.056399789 0.00198899 0.066126227
-0.41167951 0.025316292 0.064624377
-0.32876936 0.020765312 0.064483494
-0.28327757 0.02695304 0.063442126
-0.2228917 0.024208365 0.063392624
-0.034650799 0.024328165 0.06879691
0.050484754 0.020679399 0.067430802
-0.35101157 0.0363442 0.066130288
0.39294603 0.031888437 0.065050714
0.01152283 0.043812826 0.065060884
0.086945549 0.043487616 0.069073826
0.12246519 0.043614347 0.068415284
0.2485982 0.044722896 0.062655099
-0.33874977 -0.051174536 0.079885796
-0.30437678 -0.058691919 0.075545721
-0.42952901 -0.035208751 0.071425535
0.04712595 -0.025237817 0.078874327
0.24330664 -0.026098978 0.072074987
0.35676068 -0.025290951 0.07627365
-0.032480098 -0.013565565 0.073216483
0.016717702 0.00198899 0.074876569
0.063211381 0.00198899 0.074566543
0.39845401 0.0172102 0.071092851
-0.27791965 0.020578563 0.074839316
-0.26462358 0.027141601 0.075479396
0.031667981 0.020679399 0.071083553
0.078459769 0.020679399 0.075289451
0.1131853 0.020679399 0.079460159
0.38865694 0.031103685 0.077736646
0.34547338 0.042385094 0.072480053
-0.29640546 -0.040696386 0.085935228
-0.2736806 -0.047855295 0.081802122
-0.25915301 -0.048295025 0.081548251
-0.43859547 -0.039356872 0.08670859
-0.42952901 -0.024703749 0.084480263
0.17216997 -0.023586968 0.087452449
0.27042794 -0.023384545 0.088504277
0.39770043 -0.019922253 0.081659921
0.07771793 0.00198899 0.088675588
-0.42444369 0.022877 0.084445611
-0.36369437 0.027141601 0.089940235
-0.22873969 0.027141601 0.084070727
-0.0047794962 0.02165477 0.088914357
0.039931931 0.020679399 0.084253997
0.38558301 0.031340171 0.08260791
-0.0236012 0.040009864 0.084821597
-0.016159231 0.04062089 0.081646413
0.065940894 0.040662978 0.083751142
-0.30663276 -0.02886075 0.092768401
-0.26016963 -0.028434722 0.093014359
0.016722739 -0.021776821 0.094532982
0.036053464 -0.023072917 0.090123549
0.16683644 -0.022119427 0.095078051
0.1749351 -0.02162819 0.097630605
0.2405753 -0.022918649 0.09092515
0.28602433 -0.021443548 0.098590076
-0.3334859 -0.017686635 0.09921965
0.40229064 -0.014232961 0.093917184
-0.220144 -0.0073777223 0.091753021
-0.44528484 0.0099937953 0.098155819
0.096734539 0.00198899 0.097555518
-0.220144 0.017880496 0.098172083
-0.030841753 0.020894099 0.097772747
0.092180662 0.020668903 0.097696908
0.045828409 0.03857008 0.094626233
0.11806138 0.038423866 0.095385998
0.31101269 0.038548868 0.094736762
0.38857377 0.030220529 0.092013367
-0.015742783 -0.020132205 0.10307961
0.23553692 -0.020666277 0.10262889
-0.34177437 -0.016194699 0.10780581
-0.33161041 -0.016194699 0.10504907
0.054806583 -0.019467715 0.10885684
0.3950617 -0.016063487 0.10661213
-0.4212316 -0.0080920402 0.100081
-0.220144 -0.0038488349 0.10737653
0.38590592 -0.00084646698 0.10244659
-0.43405217 0.0076805754 0.100081
-0.19613367 8.3600171e-06 0.10859022
0.03223329 0.00198899 0.10888936
-0.19717911 0.016307499 0.10981696
-0.34908843 0.0275294 0.1013623
0.11957178 0.036521409 0.10527151
0.18662879 0.03572163 0.10942732
0.19961241 0.036660545 0.10454855
0.20770811 0.03668052 0.10444475
0.26392025 0.036773954 0.10395926
0.34528521 0.035382669 0.1088656
-0.39117298 -0.023622869 0.11648251
-0.25767636 -0.014771902 0.113214
-0.21781868 -0.012996634 0.113214
-0.028909495 -0.018118776 0.11354118
0.27381802 -0.018007634 0.11644369
0.3122634 -0.017892549 0.11704188
0.33405405 -0.017281249 0.11789299
0.37578994 -0.017046375 0.11911289
-0.43658543 -0.0091781709 0.11802
-0.40693727 -0.0025959308 0.113214
-0.2529 -0.0065315329 0.113214
-0.4346897 0.0035410775 0.11802
-0.3738322 0.0045360234 0.113214
-0.3303858 0.0049302708 0.113214
0.014603874 0.00198899 0.11957598
0.080451541 0.00198899 0.11348291
-0.29817387 0.015169075 0.11321399
0.0385972 0.018873235 0.11831696
0.067450702 0.019293694 0.11348873
0.38620299 0.012832553 0.11778282
-0.44465563 0.027163018 0.11322343
-0.4181509 0.023269746 0.113214
-0.364867 0.02887452 0.11397652
-0.34099138 0.026925229 0.113214
-0.32041922 0.027279261 0.11057
-0.27549732 0.027141601 0.11079053
-0.26593 0.027551552 0.11339438
-0.2380397 0.026946189 0.113214
-0.21647424 0.026176345 0.11500043
-0.20525673 0.023225842 0.11379394
-0.19389051 0.020236209 0.11414602
0.3862623 0.028996596 0.11179893
-0.34821659 0.037935648 0.11796355
-0.30798036 0.036541577 0.11735014
-0.23024923 0.035650045 0.11695784
0.023450909 0.03462743 0.11511298
-0.35534737 -0.045902409 0.12628585
-0.26999009 -0.044692662 0.12575355
-0.42952898 -0.039968573 0.12894909
-0.40630507 -0.03627044 0.12204764
-0.28960034 -0.034068212 0.12107863
-0.25650984 -0.03676245 0.12226412
-0.239059 -0.031760175 0.12709069
-0.239059 -0.026354793 0.12359735
0.078139663 -0.015610154 0.12890145
0.33025366 -0.016112735 0.12629023
0.3920185 -0.014369292 0.12106846
-0.42952901 -0.0022422536 0.12540182
-0.026440879 0.00170437 0.12309462
0.024420787 0.00198899 0.1239844
0.10404868 0.00198899 0.12212431
-0.0047882842 0.018459147 0.12612574
0.08158838 0.01836215 0.12418585
-0.42952901 0.024222035 0.12012511
-0.43532044 0.036141694 0.1238537
-0.016938329 0.03283266 0.12211505
0.018460816 0.033166979 0.12270175
0.020887595 0.032182146 0.12781912
0.037107125 0.032650035 0.12538788
0.081880227 0.032635767 0.12546203
0.17649323 0.032907356 0.1240508
0.28606194 0.032995254 0.12359411
0.35392338 0.031961545 0.1267761
-0.42952901 0.041921526 0.12867858
-0.239059 0.047198601 0.12936191
-0.23758698 -0.046406265 0.13313578
-0.43429655 -0.034645386 0.13306527
0.010753242 -0.014311662 0.1333237
0.023186475 -0.013845634 0.13807021
0.079843685 -0.01481 0.1330592
0.30204839 -0.014158848 0.13644284
-0.42959797 0.0098508578 0.13738413
-0.033873916 0.00016664938 0.13170379
-0.023121443 0.017306019 0.13955423
-0.010033397 0.017766614 0.13419081
0.00264645 0.018006193 0.13139971
-0.43564001 0.022039557 0.13152276
-0.0330224 0.027151719 0.13338888
0.0094198212 0.0294578 0.13965045
0.16303204 0.031114375 0.13336748
0.18135074 0.031211374 0.13286343
0.20969467 0.030869991 0.13463731
0.27025902 0.030969732 0.13411905
-0.239059 0.049897663 0.13745263
-0.40124872 0.060549501 0.13301283
-0.27985758 0.060549501 0.13518088
-0.25345919 0.060549501 0.13679925
-0.32564291 -0.049602602 0.14618894
-0.2610448 -0.049602602 0.14135122
-0.43564001 -0.033518232 0.14753225
-0.239059 -0.029490119 0.14494103
-0.21434012 -0.014668116 0.14431937
0.060405273 -0.012831487 0.14333992
0.076829836 -0.011731723 0.14905474
0.10089174 -0.012004225 0.14763871
0.17215462 -0.012852125 0.14323269
0.27050075 -0.011617921 0.14732033
0.047837172 0.00198899 0.14101973
0.38558301 0.0056409277 0.14571565
0.24912712 0.028578365 0.14421977
0.28736082 0.029414544 0.14220014
0.37369275 0.027594922 0.14933157
-0.23801266 0.058090631 0.14642835
-0.34249666 0.060885504 0.14616744
-0.24728891 0.060549498 0.14070027
-0.38767454 -0.049602602 0.15493414
-0.34411857 -0.049602605 0.1520911
-0.28760064 -0.049602605 0.15179929
-0.25433275 -0.049602602 0.15443973
-0.43163043 -0.035615325 0.15750292
-0.23501542 -0.0194149 0.15641741
-0.220144 -0.015699003 0.15387064
-0.032410894 -0.010821267 0.15145904
-0.027398897 -0.010206547 0.15465322
0.035010312 -0.010869192 0.15121047
0.056229968 -0.010452372 0.15337612
0.15742764 -0.010061141 0.15540877
0.20471473 -0.010174469 0.15481995
0.25149584 -0.010649674 0.15235102
0.19026563 -0.0081975535 0.15928213
0.28222793 -0.0098293424 0.15645571
-0.00073444005 0.0017043699 0.15313838
0.0030710532 0.0017043699 0.15030292
-0.032480098 0.024065748 0.15254433
0.24114881 0.024797853 0.15887308
0.36978227 0.026335562 0.15587506
-0.41352195 0.060549501 0.15311077
-0.37854263 0.060549498 0.15531757
-0.20143858 -0.0088701807 0.16662839
-0.19711012 -0.0077316202 0.16860379
-0.012904602 -0.0027047601 0.16879624
0.11162277 -0.0051078815 0.16463378
0.19563022 -0.006671147 0.16192603
0.26069042 -0.0029575492 0.16835837
0.30410123 -0.0047529768 0.16524851
0.31760123 -0.0024964581 0.16915703
0.32675502 -0.0021258323 0.169799
-0.02837652 0.0017043701 0.16063128
-0.18543981 0.018013449 0.16704088
-0.17822999 0.010180752 0.16710287
-0.010617281 0.015360633 0.16220734
0.31972077 0.020051692 0.1670935
0.32021523 0.023260944 0.16153504
-0.42952901 0.051734708 0.16785143
-0.34949738 0.058660004 0.16799025
-0.39590478 -0.042179897 0.17991683
-0.36422205 -0.043441638 0.17719728
-0.33824095 -0.045963921 0.17176077
-0.27688575 -0.045839898 0.17202809
-0.24806592 -0.043196734 0.17772514
-0.22066747 -0.01710145 0.17982049
0.018856844 -0.0015207987 0.17084698
0.14576551 0.0054029399 0.17070299
0.1720511 0.0027324352 0.17059299
0.25400263 0.0051792944 0.17059299
0.33914912 0.0054214923 0.17037401
-0.0070010684 0.016696485 0.172015
0.048834905 0.0146593 0.17145932
-0.21656913 0.026201306 0.17815405
-0.20523056 0.020814167 0.17126884
-0.445499 0.054988988 0.17191997
-0.43324435 0.052396812 0.17269281
-0.41857755 0.054929197 0.17603205
-0.32388094 0.056163576 0.17416914
-0.36787331 -0.040641457 0.18323277
-0.42785996 -0.039517052 0.18565629
-0.21871901 -0.015819881 0.18945217
-0.17895401 -0.0050931717 0.18751125
-0.19896564 0.021571118 0.18493363
-0.34260294 0.049609646 0.18829529
-0.40496641 -0.03642597 0.1923188
-0.36375284 -0.03372895 0.19707218
-0.31935185 -0.030891761 0.199921
-0.26413527 -0.036619797 0.191901
-0.25001046 -0.036828633 0.19145088
-0.24110059 -0.03692957 0.19123335
-0.23075777 -0.03457848 0.19003662
-0.441751 -0.020787539 0.19528143
-0.28720301 -0.024045743 0.199921
-0.239059 -0.023972789 0.19082901
-0.44057044 -0.019686719 0.199921
-0.220144 -0.0030129387 0.19936417
-0.220144 0.0068597239 0.19591765
-0.1924215 0.017914668 0.199921
-0.441751 0.02714321 0.1958382
-0.25965953 0.032727465 0.199921
-0.24055366 0.039503049 0.199921
-0.43177053 0.044578739 0.19834128
-0.3580977 0.042341374 0.199921
-0.23380931 0.046948656 0.19323313
-0.38860747 -0.014694526 0.20251949
-0.31601182 -0.010619633 0.20957774
-0.18144572 -0.0014548231 0.20105627
-0.4338997 0.018237494 0.20701861
-0.220144 0.019051589 0.20668325
-0.19337216 0.016307499 0.2031569
-0.36805761 0.025363874 0.20300025
-0.31398001 0.022868624 0.20732233
-0.25505084 0.023319606 0.20654117
-0.21327832 0.023475053 0.20314394
-0.41873914 -0.0063246535 0.21701717
-0.26797205 -0.004315434 0.218687
-0.25254205 -0.0027034977 0.218687
-0.43114704 0.0087517947 0.21140586
-0.42596579 0.0073092487 0.218687
-0.27942407 0.0012864693 0.218687
-0.42203104 0.015925722 0.218687
-0.40428793 0.01143606 0.218041
-0.38461056 0.019320399 0.21346828
