# .PCD v0.7 - Point Cloud Data file format
VERSION 0.7
FIELDS x y z
SIZE 4 4 4
TYPE F F F
COUNT 1 1 1
WIDTH 867
HEIGHT 1
VIEWPOINT 0 0 0 1 0 0 0
POINTS 867
DATA ascii
0.041299835 0.0073351529 -0.40019354
0.082632586 0.0072446475 -0.40138513
0.093545258 0.00010762554 -0.40375996
0.1337336 0.0016754039 -0.40487599
0.031505875 0.00099898851 -0.39202461
0.041707583 0.00053176581 -0.39817598
0.10947052 0.00064615876 -0.39666963
0.11297654 0.0010233071 -0.39170414
0.13306212 0.0079654604 -0.391895
0.14344835 0.0043303743 -0.39395884
0.15095218 0.00048093297 -0.39884484
0.034438364 0.0018916456 -0.38027203
0.086668611 0.0018126246 -0.38131222
0.13539115 0.0060647856 -0.3863889
0.14330375 0.0084380787 -0.38567257
0.049878906 0.0024658716 -0.37271181
0.056021683 0.0023556151 -0.37416339
0.072056577 0.0025445549 -0.37167582
0.092627622 0.0093312263 -0.37391353
0.14769028 0.009110909 -0.37681419
0.15326132 0.0025984952 -0.37096536
0.047332257 0.0030159703 -0.36546928
0.075116865 0.0031281295 -0.36399254
0.15704267 0.0041458146 -0.36577398
0.074436389 0.010190629 -0.36259878
0.094501346 0.010108573 -0.36367908
0.081742585 0.0036213745 -0.35749853
0.024051793 0.011053461 -0.35123885
0.11615847 0.010636695 -0.35672593
0.14734513 0.011137178 -0.35013664
0.022563564 0.0069666523 -0.34387624
0.12823555 0.0047866791 -0.34215611
0.1520575 0.0048198947 -0.34417456
0.099665493 0.011692019 -0.34283167
0.10426669 0.01177057 -0.34179747
0.081463307 0.0056416872 -0.33089942
0.14301667 0.0049635773 -0.33982709
0.032166246 0.01236912 -0.33391708
0.056433197 0.012504585 -0.33213356
0.080930956 0.012392401 -0.33361056
0.029640535 0.0061880723 -0.32370591
0.046410143 0.0061178752 -0.32463011
0.13185155 0.006100012 -0.32486501
0.14253376 0.0059674229 -0.32661059
0.10327564 0.012739881 -0.3290357
0.014743917 0.0096140737 -0.31248999
0.025140807 0.0071252836 -0.31136677
0.038890295 0.0069071325 -0.31423885
0.10982527 0.0070015411 -0.31299567
0.12986487 0.0067388401 -0.31645429
0.1335029 0.0071000624 -0.3116985
0.14409858 0.0068464912 -0.31503692
0.051079586 0.013888005 -0.31391963
0.13317259 0.013484095 -0.31923747
0.14044552 0.014076851 -0.31143335
0.021203347 0.007188437 -0.30214852
0.036289684 0.0068363589 -0.30012053
0.090216354 0.0071157953 -0.3017301
0.12928396 0.0068509025 -0.30020431
0.13063417 0.014456919 -0.30642942
0.12636738 0.0066073309 -0.29880136
0.14290784 0.0057699517 -0.29403046
0.049431942 0.013260957 -0.29705611
0.057395503 0.013699466 -0.29958192
0.012121348 0.0095778657 -0.28458232
0.067645453 0.004898401 -0.28895798
0.07784427 0.0038759636 -0.28306875
0.11706173 0.0043656547 -0.28588936
0.1353451 0.0043438291 -0.28576365
0.14102785 0.0064254077 -0.2849144
0.025318068 0.011491614 -0.28686473
0.033379026 0.011676861 -0.28793177
0.047264099 0.011956776 -0.28954408
0.09680111 0.011113998 -0.28468969
0.12889323 0.010302895 -0.28001776
0.014388522 0.0091360994 -0.27329704
0.10093986 0.0026332997 -0.27591106
0.11442643 0.0085665751 -0.27001661
0.12352163 0.002374497 -0.27442032
0.017405517 0.0073911757 -0.26324636
0.023341095 0.0010660014 -0.26688343
0.063717157 0.0015676608 -0.26977301
0.074378878 0.00041583087 -0.26313847
0.1064263 0.0076438077 -0.26470149
0.11734128 0.0074014673 -0.2633056
0.12073337 0.001368918 -0.26862824
0.13621452 0.0066532958 -0.26171225
0.078401387 -0.0017097653 -0.25089511
0.082571924 -0.00039704004 -0.25845635
0.098619483 -0.0009037581 -0.25553769
0.11670917 -0.00048295967 -0.25796145
0.12794527 -0.00087215751 -0.25571972
0.13432111 -0.00085476181 -0.25262639
0.11581233 0.005803166 -0.25409943
0.13454658 0.0054504904 -0.2539165
0.014135096 -0.0025143572 -0.24626069
0.0099727772 0.00348616 -0.24874699
0.043670919 0.0040207379 -0.24383271
0.068150587 0.0036642719 -0.24177948
0.10882768 0.0042576245 -0.24519716
0.13273002 0.0032197072 -0.2449912
0.011775846 -0.004671826 -0.23383372
0.03854008 -0.0050181407 -0.23183894
0.041924767 -0.0050417725 -0.23170283
0.069114067 -0.0044455612 -0.23513699
0.011364259 0.0029154969 -0.23746656
0.064414524 0.0027289265 -0.23639192
0.070097521 0.0024006199 -0.23450087
0.086902589 0.0017041549 -0.23048924
0.12481356 0.0017638691 -0.2308332
0.06132194 -0.0069480184 -0.22072291
0.10252346 -0.0062152636 -0.22494356
0.12843394 -0.0063742278 -0.2249272
0.035512123 0.00025605946 -0.22214825
0.051035002 0.00085266447 -0.22558469
0.060790114 0.0010760988 -0.22687167
0.11645158 0.00089223636 -0.22581261
0.1205283 0.00071505085 -0.22479203
0.011617305 -0.0085856179 -0.21129037
0.031536914 -0.00047919014 -0.21791324
0.051382791 -0.00033951725 -0.21871775
0.084643781 -0.0080452748 -0.21440274
0.098974101 -0.0016503063 -0.21116765
0.10343502 -0.00080700149 -0.21602505
0.11826207 -0.001029646 -0.21474263
0.12913877 -0.0029723039 -0.21040945
0.10820217 -0.010138135 -0.20234793
0.042101275 -0.0032622602 -0.20188284
0.068803743 -0.0026759272 -0.2052601
0.11188847 -0.0023500733 -0.20713702
0.11235611 -0.011905381 -0.19216865
0.072371885 -0.0049316906 -0.19226696
0.10978521 -0.013183222 -0.18480831
0.11973761 -0.012254506 -0.18325531
0.015661906 -0.006080261 -0.18565124
0.035464153 -0.015638143 -0.17066802
0.045803133 -0.015340557 -0.17238213
0.11793999 -0.013707593 -0.17401874
0.073570386 -0.0086353887 -0.17093375
0.08941637 -0.0084976954 -0.17172688
0.11575171 -0.01507422 -0.16579552
0.05245512 -0.00969755 -0.16422595
0.011042557 -0.013828414 -0.15626109
0.11475681 -0.013476548 -0.15735024
0.038093694 -0.007500669 -0.15619169
0.088557906 -0.0079230117 -0.15773626
0.029520888 -0.011791747 -0.14644349
0.052817285 -0.0055044605 -0.14889131
0.062952131 -0.0033656959 -0.14106961
0.084903538 -0.0045908946 -0.1455503
0.036991186 -0.0075761476 -0.13102652
0.047198445 -0.0091099264 -0.13663575
0.055030424 -0.0040606703 -0.13513081
0.07443051 -0.00882087 -0.13557863
0.1039962 -0.0030180085 -0.13979806
0.121101 -0.0091135567 -0.13806279
0.12696147 -0.028317794 -0.12068033
0.14824314 -0.026628785 -0.12168176
0.15419911 -0.020770432 -0.12450355
0.18993196 -0.023787374 -0.12017351
0.0086763809 -0.010652001 -0.12222032
0.034971759 -0.011968951 -0.12309586
0.20537314 -0.015037473 -0.12251229
-0.001393798 -0.0086923558 -0.122245
0.038016267 -0.00030140253 -0.12986311
0.048692234 -0.0061044502 -0.12564436
0.067628242 -0.00014093565 -0.12927626
0.076371789 -0.0071910699 -0.12568732
0.098768033 -0.004567923 -0.12002509
0.10865048 -0.0016002399 -0.12813775
0.11487842 -0.0050380873 -0.12174454
0.16133909 -0.00086792669 -0.12794523
-0.054027468 0.005794914 -0.12093844
0.078345761 0.0019014406 -0.12665303
0.12092674 0.0060851299 -0.12801801
0.15904403 0.0092820823 -0.12717789
0.18094361 0.0027072071 -0.12665445
0.20792331 0.0017766403 -0.12448287
-0.023315068 0.012856035 -0.12036051
0.011428112 0.01738568 -0.12013384
0.13657357 0.014077745 -0.12652691
0.14297953 0.01349573 -0.1267347
0.17795795 0.010119934 -0.12590955
0.11757845 0.028777946 -0.12149139
-0.26433474 -0.042087238 -0.11304501
-0.22159906 -0.043477207 -0.11018223
-0.23589575 -0.031133242 -0.113045
0.11774308 -0.032017544 -0.11660039
0.15012619 -0.033682823 -0.11294564
0.1867639 -0.030056916 -0.11324218
-0.282754 -0.028052283 -0.11284468
-0.26946756 -0.029817041 -0.11304501
-0.24983719 -0.020667648 -0.11304501
-0.0010750183 -0.020181717 -0.11714924
0.0032914213 -0.023726435 -0.11203321
0.06423907 -0.027124133 -0.11652366
0.1546153 -0.029167667 -0.11963891
0.18985562 -0.029934689 -0.11221276
0.19675188 -0.022952281 -0.11998297
0.20525548 -0.027072925 -0.11367932
-0.23716366 -0.019525895 -0.113045
-0.20937313 -0.018028099 -0.11190993
-0.07438498 -0.011873938 -0.11629022
-0.03645815 -0.013741019 -0.11871131
-0.2233748 -0.0030305809 -0.113045
-0.21360689 -0.0090999827 -0.113045
-0.12733693 -0.0064016301 -0.1149307
0.054762464 -0.0034100069 -0.11579044
0.075780943 -0.0033355227 -0.1148968
0.089183256 -0.0031885356 -0.11291307
0.090133294 -0.0040996256 -0.11831247
0.10548299 -0.0034596012 -0.11587727
0.12584987 -0.0027608513 -0.11330689
-0.23647387 0.0066176234 -0.11499007
-0.22618122 0.0082652923 -0.113045
-0.21464849 0.0025312155 -0.113045
-0.20997629 0.0053904615 -0.11591256
-0.08530277 0.00097289158 -0.11996143
0.11623675 0.0036377865 -0.11545702
-0.25713098 0.012535792 -0.113045
-0.23525658 0.015540143 -0.11304501
-0.19020724 0.011285411 -0.11201978
-0.17901254 0.011596802 -0.11194674
-0.16162127 0.011005228 -0.11401263
-0.077194698 0.017306078 -0.11389389
-0.050560039 0.018955979 -0.11461677
-0.045776267 0.020533936 -0.1120785
0.042597018 0.027407169 -0.11109065
0.066572994 0.025276348 -0.11452548
0.073695734 0.028597044 -0.11482072
0.19812176 0.023872724 -0.11834969
-0.23839787 0.035293579 -0.113045
0.074480891 0.036629323 -0.11251117
0.1331683 0.032565117 -0.11388279
-0.26620212 0.0402142 -0.11304501
-0.24576487 0.044820637 -0.113045
0.11404047 0.044305857 -0.11321019
0.12272738 0.041519277 -0.11655542
-0.27334499 0.050975438 -0.11304499
-0.22267079 0.053938322 -0.11303225
-0.28266954 0.069498338 -0.113045
-0.24362031 0.063185908 -0.11304499
-0.23598962 0.07214772 -0.11044646
-0.27247861 -0.030220587 -0.107828
-0.26508626 -0.030802559 -0.107828
0.14878358 -0.031614643 -0.10373145
-0.25607377 -0.0262543 -0.10835327
0.19396277 -0.029516947 -0.10909387
-0.25504765 -0.019401301 -0.10220732
-0.24594066 -0.019401301 -0.10797859
-0.2386416 -0.019401301 -0.10015598
-0.214064 -0.010933233 -0.107828
-0.056475185 -0.012181985 -0.1028915
-0.030343562 -0.019840933 -0.10684162
-0.014928902 -0.017127348 -0.10238489
0.23640667 -0.017557668 -0.10721328
-0.25012979 -0.0073460229 -0.10782799
-0.24206854 -0.0069785891 -0.10782799
-0.19850777 -0.0033374571 -0.10997891
-0.15860018 -0.0037525357 -0.10635585
-0.083740272 -0.0025756313 -0.10115059
0.071036458 -0.0030207797 -0.10590075
0.10684437 -0.0030207799 -0.10410465
0.12588239 -0.0021973457 -0.10536893
-0.26488957 0.0053686881 -0.10782799
-0.22251204 0.0056246445 -0.107828
-0.21718065 0.0079351822 -0.10605431
-0.098656699 0.0018823748 -0.10136482
0.11181716 0.00393584 -0.10237162
-0.2582137 0.014939912 -0.107828
-0.22115141 0.012442384 -0.10782799
-0.011353249 0.013000591 -0.10002016
-0.27869689 0.025966845 -0.107828
-0.26697385 0.024030332 -0.107828
0.029355239 0.025603304 -0.10764863
0.036999568 0.022787638 -0.10269946
0.054244589 0.023975812 -0.10241558
0.070803732 0.029356277 -0.10952775
0.16755739 0.027652118 -0.10223337
0.1882702 0.028886478 -0.10849875
0.2093924 0.025049025 -0.1077657
-0.27008313 0.038219102 -0.10058884
-0.26079923 0.030378595 -0.107828
-0.25062412 0.035487089 -0.107828
-0.24205932 0.035094101 -0.10735123
-0.2361785 0.035399545 -0.107828
0.071780674 0.030805912 -0.10583001
0.09592209 0.032377411 -0.10103551
0.12587112 0.038348094 -0.10271655
0.13636053 0.033527441 -0.10120742
0.15427595 0.031329237 -0.10346869
-0.28097293 0.049307037 -0.107828
0.12497373 0.044086102 -0.10766484
0.1524179 -0.02188199 -0.096741974
0.11283676 -0.013501454 -0.094093382
0.16372505 -0.01142702 -0.094144851
0.17494002 -0.012903761 -0.095122434
0.012966201 -0.00064547197 -0.097092099
0.045385651 -0.0030207799 -0.098907165
0.057364449 -0.0030207797 -0.0968275
0.070215896 -0.0074341083 -0.094948038
0.082447603 -0.0050049266 -0.092126124
0.12577721 -0.0030207799 -0.092674904
0.14292347 -0.0059335511 -0.092723951
-0.054210991 0.002811864 -0.09974125
-0.026133876 0.0077453731 -0.099265099
0.031672459 0.0088074934 -0.097118981
0.048136503 0.0066249035 -0.095983237
0.12214126 0.0069776755 -0.092902817
0.14433339 0.0094534112 -0.093265705
0.15790603 0.0093969228 -0.09366376
0.1676013 0.0032687096 -0.093502797
0.20922719 0.0027056925 -0.096616969
0.010047704 0.010683401 -0.09845899
0.033340618 0.014430743 -0.098714843
0.044114031 0.01003222 -0.096830487
0.064158514 0.011873646 -0.096298032
0.1381247 0.013336614 -0.094059885
0.20151526 0.016590945 -0.09865877
0.21468776 0.011806008 -0.098741554
0.22016776 0.011320911 -0.099253029
0.091086 0.023896679 -0.099956989
0.12959872 0.024557795 -0.099660873
-0.25680396 0.038219102 -0.095318511
-0.23429886 0.0332628 -0.091594771
-0.22894797 0.0332628 -0.092755683
-0.22507004 -0.024358001 -0.083337136
0.042558163 -0.0030207799 -0.086741135
0.065666884 0.00393584 -0.080254324
-0.281124 0.034967847 -0.080404051
-0.26460275 0.0332628 -0.084395722
-0.2261458 -0.024358001 -0.070578188
-0.25938582 -0.019401301 -0.075429305
-0.24414274 -0.019401301 -0.075279132
-0.23445925 -0.019401301 -0.074838504
0.058823146 -0.0030207797 -0.077168651
0.067607395 -0.0030207802 -0.074941672
0.077725455 -0.0030207797 -0.075470969
0.01215 0.0069001555 -0.073756456
0.054479729 0.00393584 -0.076500125
0.09529528 0.00393584 -0.074085653
-0.27374417 0.038219102 -0.076218396
-0.26536211 0.038219102 -0.075279757
-0.25856921 0.0332628 -0.079580382
-0.22327667 -0.024358001 -0.061111212
-0.21932235 -0.022693666 -0.068829589
-0.25311273 -0.019401301 -0.060766071
-0.23131612 -0.019401301 -0.069187425
0.081702009 -0.0030207799 -0.06513042
0.10270568 -0.0030207797 -0.067166463
0.11254171 -0.0030207799 -0.063490562
0.049947999 0.00393584 -0.061734311
0.073916301 0.00393584 -0.068106286
-0.27900514 0.033262804 -0.066071853
-0.24214625 0.0332628 -0.069068506
0.10786034 0.00393584 -0.059743743
0.012150001 0.010845218 -0.051951945
0.012149999 0.029610183 -0.057911079
-0.27660051 0.038219102 -0.055886425
-0.22119451 0.038159981 -0.058049217
0.01215 0.05149553 -0.053457107
-0.27901632 -0.024358001 -0.047341481
-0.26509833 -0.024358001 -0.04438848
-0.23340407 -0.024358001 -0.041410081
-0.22135705 -0.019439172 -0.04175448
0.01215 -0.011006254 -0.043358456
0.083111398 -0.0030207799 -0.049308278
0.096364677 -0.0030207799 -0.044893585
0.1137464 -0.0030207802 -0.048841923
0.047971435 0.00393584 -0.042143762
0.058851961 0.00393584 -0.049400777
0.069185883 0.00393584 -0.048775159
0.12583384 0.0037125691 -0.045631461
-0.23116338 -0.024358001 -0.037474316
0.01215 -0.010090429 -0.031593326
0.01215 -0.0023307703 -0.03601484
0.055455849 -0.0030207799 -0.036503017
0.079816729 -0.0030207799 -0.032015562
0.055033702 0.00393584 -0.036597244
0.01215 0.026755251 -0.033237636
-0.26335025 0.0332628 -0.037197582
-0.25009736 0.038219102 -0.032867067
-0.24594449 0.0332628 -0.03722154
0.012149999 0.035329707 -0.038662516
0.01215 0.04032398 -0.039767411
0.01215 0.057336964 -0.038249258
-0.26539186 -0.024358001 -0.023836564
-0.27097988 -0.019401301 -0.02016204
0.02931964 -0.011648819 -0.020854738
0.047932439 -0.0030207799 -0.024023674
0.056777209 -0.0030207802 -0.02515769
0.10418092 -0.0030207799 -0.02972883
-0.26912823 0.0332628 -0.027106235
-0.25380456 0.0332628 -0.023361195
-0.22451857 0.035740949 -0.024303582
0.012150001 0.036968023 -0.028457886
-0.27007508 -0.024358001 -0.015427433
-0.23553029 -0.024358001 -0.01305542
-0.26118436 -0.019401301 -0.012657048
-0.2442072 -0.019401301 -0.010955014
-0.23466906 -0.019401301 -0.01617498
0.03380198 -0.013862209 -0.019268017
0.056127474 -0.0030207799 -0.0140482
0.1077795 -0.0046076346 -0.012113638
0.07231161 0.00393584 -0.012657907
0.10613254 0.00393584 -0.017174281
0.12585279 0.0014065731 -0.010401852
0.06326697 0.0165562 -0.01720126
0.075881198 0.018327763 -0.014930323
0.012150001 0.02959531 -0.010899343
-0.2593509 0.0332628 -0.017886218
-0.24012679 0.0332628 -0.019235268
-0.23667568 0.0332628 -0.019901142
0.01215 -0.042113084 -0.0069487491
-0.27392656 -0.024358001 -0.0015686899
0.078588709 -0.022668894 -0.0045235693
-0.26915815 -0.019401301 -0.00065030903
-0.25609651 -0.019401301 -0.0085993707
0.0095973741 -0.010954398 -0.00042256821
0.025211288 -0.019587405 -0.00081074884
0.0025933133 -0.0063184109 -0.0051845773
0.044465572 -0.0030207799 -0.0058122538
0.051660329 -0.0030207799 -0.0042327195
0.12167086 -9.5697156e-05 -0.00053194934
0.094514981 0.00393584 -0.0012489239
0.0089435494 0.010523992 -0.0031176799
0.017442957 0.010243459 -0.0052171489
0.10855148 0.011910128 -0.004128878
0.012149999 0.020790096 -0.0072422503
0.044599254 0.023820421 -0.00083206099
-0.27387786 0.035740949 -0.0040882081
-0.26047391 0.038219102 -0.0024910429
-0.25571585 0.035740949 -0.0029373378
0.01215 0.037397675 -0.0041845934
0.01215 0.056894735 -0.0093167294
0.01215 -0.051033914 0.0066116517
0.01215 -0.046492953 0.0050454838
0.047748741 -0.0220202 0.008835284
0.053773835 -0.023151813 0.0059101926
0.060933836 -0.023743419 0.0014172131
0.020129791 -0.011165111 0.0088571813
0.096884251 -0.016643953 0.0061153197
0.005723523 -0.0070455424 0.006846963
0.12089667 -0.0039722454 0.0026512758
0.12584694 0.002117645 0.0011736993
0.019207802 0.011413727 0.0069608106
0.023082823 0.015276233 0.0078303795
0.09261217 0.017698236 0.0076170005
0.035787906 0.023919411 8.0618789e-05
0.072146639 0.02354471 0.0029263103
-0.26447302 0.0332628 0.0054400414
-0.22833285 0.038219102 0.0069718063
-0.26965401 -0.024358001 0.016245345
-0.22855192 -0.024358001 0.010215625
-0.22875848 -0.019401301 0.010617405
0.022177473 -0.012293343 0.010879144
0.084416136 -0.01723858 0.013174033
0.01215 -0.0025481898 0.016644027
0.068874165 -0.0030207799 0.015587015
0.087784179 -0.0073134615 0.019447772
0.11447636 -0.0030207799 0.019199736
0.12587641 -0.0014688536 0.019782001
0.018255349 0.0025227012 0.012077889
0.066760585 0.00393584 0.015407927
0.029431431 0.017608756 0.01602516
0.012149999 0.020007391 0.01984854
-0.27046886 0.0332628 0.019591201
-0.26638585 0.0332628 0.018083265
-0.23601405 0.038219102 0.017320022
0.012149999 0.036100823 0.012199474
0.01215 -0.041813791 0.023440279
-0.27720225 -0.024358001 0.02631391
0.012149999 -0.020749398 0.023062836
-0.25696206 -0.019401301 0.024608735
0.053887572 -0.0094504906 0.021765646
0.082770482 -0.0046960451 0.021678437
0.12814339 -0.0020938334 0.025082733
0.1199397 0.00393584 0.023710717
0.01215 0.016675157 0.023372877
-0.24810033 0.0332628 0.028517362
-0.23971799 0.0332628 0.029492456
0.01215 -0.035902016 0.03784959
0.01215 -0.02239948 0.03890688
-0.25521833 -0.019401301 0.034218475
-0.24866956 -0.019401301 0.031657308
-0.23776688 -0.019401301 0.031673055
0.046819508 -0.0030207799 0.035968836
0.071337327 -0.0030207802 0.03153488
-0.24182954 0.0332628 0.039544996
-0.23113799 0.038219102 0.03369835
-0.22420138 0.038219102 0.036993042
-0.27276289 -0.024358001 0.046340015
-0.27485424 -0.019401301 0.045798078
0.051639192 -0.0030207802 0.049536332
0.076665014 -0.0030207799 0.042665716
0.10566396 -0.0030207797 0.049943849
0.12083036 -0.0030207797 0.049719561
0.098549709 0.00393584 0.040194236
0.12586072 0.00044072329 0.049866978
0.01215 0.012975643 0.049275123
-0.27616295 0.038219102 0.044686966
-0.24796177 0.0332628 0.042216599
0.012150001 -0.044764698 0.054073319
-0.22160861 -0.024353322 0.058836091
0.01215 -0.014772568 0.057094231
0.01215 -0.00017192333 0.057369813
0.069389492 -0.0030207802 0.054345764
0.093812399 -0.0030207797 0.050602145
0.103057 -0.0030207797 0.055025637
0.12781709 -0.0023517157 0.055682581
0.063998714 0.00393584 0.053693846
-0.25408724 0.038219102 0.050688311
-0.22625338 0.033262804 0.056810897
0.012150001 0.040593985 0.050800912
-0.23748389 -0.024358001 0.065549582
-0.24943282 -0.019401301 0.068529531
0.072759584 -0.0030207802 0.061763048
0.085039183 -0.0030207799 0.061874777
0.056702174 0.00393584 0.069904804
-0.22181152 0.0332628 0.06235994
-0.281124 -0.022257883 0.076695733
-0.27338347 -0.019401301 0.079763107
0.065155245 -0.0030207799 0.076547138
0.074030668 -0.0030207799 0.070826747
0.10983704 -0.0030207799 0.077874035
0.12588298 -0.002269513 0.070186727
0.055507265 0.00393584 0.075476445
0.11114897 0.00393584 0.070271417
0.12717938 0.0036518583 0.079187468
-0.27002463 0.0332628 0.074640796
-0.2624048 0.038219102 0.074686795
-0.24423358 0.035740949 0.074570566
-0.23491083 0.038219102 0.072150528
-0.281124 -0.022370592 0.08379136
-0.28097007 -0.019401301 0.087158933
0.09616901 -0.0030207799 0.086937808
0.12346992 -0.0030207799 0.080454059
0.096737169 0.00393584 0.083396681
0.1838201 0.003781761 0.089843094
0.20102227 0.0059330598 0.088708609
-0.2523703 0.0332628 0.088623427
-0.24157697 0.038219102 0.080721505
-0.24837682 -0.024358001 0.099991858
0.11700013 -0.022310566 0.096852437
0.14579472 -0.027773889 0.0999268
-0.23119701 -0.019401301 0.091229111
0.065351129 -0.016339945 0.097544767
0.13471973 -0.01048684 0.099584036
-0.054002479 -0.0023870321 0.099866942
-0.045543417 -0.0023798929 0.099516898
0.045705471 -0.0059830579 0.096051678
0.06596522 -0.0047653737 0.094981477
0.10377836 -0.0073311469 0.093298204
0.13936779 -0.007175046 0.096563518
0.14770214 -9.210789e-05 0.09244898
0.15362862 -0.0045466367 0.092826009
0.18534046 -0.0037638689 0.093345277
0.19096448 -0.0066709816 0.094218075
-0.035803992 0.0052365884 0.099197984
0.0075800754 0.002857931 0.097416259
0.045919761 0.0075201048 0.096192189
0.059953921 0.00393584 0.096914127
0.0662359 0.0048482819 0.099322714
0.0751274 0.0085141659 0.0948634
0.093357518 0.0026649821 0.093494669
0.12585495 0.0011434248 0.099617228
0.13673592 0.0032764904 0.092195615
0.1523114 0.0047208397 0.091278493
0.16709264 0.0067616729 0.090278342
0.23044553 0.0014334386 0.09841305
0.074863806 0.01659764 0.096336856
0.095605895 0.010032287 0.093988955
0.14195742 0.017776281 0.093779072
0.15488838 0.017473206 0.093130514
0.23311853 0.012677047 0.098189592
0.25597799 0.013475796 0.098520413
0.11174507 0.021047911 0.096757449
0.18765095 0.021405287 0.094316661
0.19148885 0.020101622 0.093181908
-0.26389962 0.038219102 0.095753416
-0.25856707 0.038219102 0.095275894
-0.24722813 0.0332628 0.093617454
-0.23019493 0.0332628 0.094196767
-0.2265458 0.038219102 0.094107479
-0.26818681 -0.05700212 0.10819137
-0.22121051 -0.0422513 0.10941085
-0.26509693 -0.034807336 0.107828
-0.25613007 -0.035955101 0.10782799
0.079571232 -0.030555353 0.1067877
0.096870467 -0.030490201 0.10401471
0.10564575 -0.03315853 0.10805328
0.11243459 -0.033997823 0.1099541
0.15157256 -0.030849742 0.10289446
-0.281124 -0.020460747 0.10124224
-0.27825975 -0.027563669 0.107828
-0.26884192 -0.023274843 0.10704496
0.15909734 -0.027532803 0.10043991
0.16174021 -0.02879044 0.10151548
-0.27440208 -0.014673736 0.107828
-0.23634885 -0.019401301 0.10794739
-0.07249099 -0.014011426 0.10631233
-0.035863966 -0.017741168 0.10505177
0.0662359 -0.011676207 0.10849892
0.076253012 -0.010039254 0.10099123
0.11681616 -0.012198483 0.10245674
0.16124386 -0.013992928 0.10599047
0.19462714 -0.01355234 0.10411111
-0.24008429 -0.0026570261 0.107828
-0.14555807 -0.0060286722 0.10898029
-0.13766305 -0.0064050118 0.10750747
-0.083682664 -0.0080711795 0.10301861
0.044958983 -0.0030207799 0.10288142
0.066145033 -0.0029641865 0.10502853
0.11621925 -0.0030207797 0.10520089
0.20865728 -0.0058668032 0.10825978
0.21961825 -0.00743361 0.10753968
-0.27058682 0.0052940417 0.10642593
-0.2468684 0.0062512369 0.10774711
-0.22501323 0.0047971099 0.10526598
-0.21545365 0.0080425059 0.107828
0.20144799 0.0050066775 0.10262868
-0.26799691 0.011139411 0.107828
-0.23039241 0.017342463 0.10782801
-0.19916491 0.010412145 0.10844618
-0.17320666 0.011518604 0.10832238
-0.071830131 0.018613733 0.10965221
-0.066731498 0.014988288 0.10505599
0.010945853 0.01999595 0.10240428
0.0662359 0.0153355 0.10245565
0.201666 0.014520233 0.10877849
0.21578798 0.013688967 0.10289969
0.23389673 0.019278422 0.10534834
-0.26400894 0.023607422 0.10782799
-0.25388873 0.026708174 0.107828
-0.24214903 0.023193242 0.10782799
-0.23960768 0.026804039 0.10782801
-0.049417473 0.020161763 0.10849392
-0.032014269 0.021909691 0.10980545
0.053588733 0.028065994 0.10927573
0.1377075 0.028069466 0.10633229
0.15045525 0.026932733 0.10221937
0.18389906 0.027394926 0.10250784
0.20339307 0.020614106 0.10899907
0.24534613 0.02047772 0.10668594
-0.25371599 0.035027057 0.10698222
-0.24450482 0.033950672 0.109045
-0.23002675 0.052130759 0.10782799
-0.23210512 0.068693116 0.107828
-0.25012365 -0.056238502 0.11297227
-0.25156891 -0.040109538 0.11304599
-0.24292994 -0.043650206 0.113046
-0.22226439 -0.044765789 0.11083363
0.098613128 -0.031001423 0.11639846
-0.282754 -0.022719296 0.11205025
-0.24232507 -0.023084778 0.113046
0.045456141 -0.02770976 0.11043362
0.094381638 -0.028789284 0.11876298
0.17531848 -0.027186725 0.11772691
-0.21520308 -0.014157686 0.11304599
-0.094116904 -0.010904065 0.11498263
-0.055237658 -0.01757545 0.1114547
0.025422517 -0.019885799 0.11911651
0.095640838 -0.014151805 0.11282825
0.11814305 -0.013972208 0.11417501
-0.2505686 -0.000528306 0.11081909
-0.21460778 -0.0021858688 0.11212425
-0.20868857 -0.0089006722 0.113046
-0.084119119 -0.005480912 0.11900838
-0.079592727 -0.0038120709 0.11965217
0.0662359 -0.000498707 0.11134478
0.074728377 -0.0033201841 0.11546195
0.12733549 -0.0011343297 0.11317485
0.21337026 -0.0054043746 0.11512771
0.24183662 -0.00743361 0.11374161
0.25135171 -0.007254343 0.11392501
-0.27289599 0.0047475379 0.11304599
-0.25748831 0.0022860083 0.11393686
-0.21336219 0.0079989713 0.11477147
-0.15727022 0.0042562559 0.1173035
-0.14122508 0.0076599615 0.11700011
0.09379416 0.00393584 0.11376221
-0.22031185 0.010640915 0.11102587
-0.21612731 0.011456364 0.11304601
-0.12492669 0.011738057 0.11544569
-0.11575418 0.014050672 0.11396288
-0.061439715 0.012062076 0.11880857
-0.059610259 0.017167488 0.11519247
-0.028544478 0.019017559 0.11664489
-0.00057933421 0.016508082 0.11992025
0.0039042579 0.017229114 0.1198379
0.23457271 0.014975647 0.1156489
0.24305244 0.019628638 0.11565265
-0.28213733 0.029082036 0.113046
-0.21554399 0.024295798 0.113046
0.0028953704 0.024364304 0.11194586
0.010919228 0.022338204 0.11661576
0.031567488 0.022585209 0.1179675
0.098283768 0.025881076 0.11941861
0.17711541 0.028622072 0.11519655
0.2032049 0.0254582 0.11524816
0.21733871 0.021556592 0.11132197
0.22189721 0.020344028 0.11392517
0.23330389 0.021481894 0.11188935
-0.2618086 0.035258479 0.113046
-0.26572165 0.064876229 0.113046
-0.25742805 0.06292738 0.113046
0.17294279 -0.024990957 0.12044111
0.034802631 -0.017921293 0.1209331
0.064741068 -0.011576386 0.12480271
0.071544752 -0.012949044 0.12489824
0.18531665 -0.010486686 0.12237716
0.063873708 -0.0056075118 0.12382698
0.078998491 -0.0082657831 0.12632447
0.088021167 -0.0028011061 0.12474855
0.10144464 -0.0063800304 0.12543851
0.12429146 -0.0017196873 0.12217303
0.15101007 -0.0093009733 0.12778217
0.23475516 -0.00019131124 0.12151311
-0.033244327 0.0045154803 0.12167316
0.016321084 0.0068030255 0.12352499
0.045492113 0.0043631596 0.12455894
0.058772057 0.005589908 0.12412456
0.07511431 0.004718869 0.12678605
0.084466867 0.002894182 0.12517688
0.11233933 0.0073461188 0.12795754
0.12059818 0.005441864 0.12805721
0.13999356 0.0018781613 0.12837823
0.20666599 0.0012929689 0.12618677
0.020014515 0.015353607 0.12138179
0.074192345 0.016394418 0.12452378
0.095276736 0.011128892 0.126719
0.11686046 0.017543895 0.12602125
0.18375681 0.016423667 0.1293589
0.20659146 0.014007051 0.12765794
0.05948481 0.021020669 0.12085377
0.073881477 0.020464234 0.1227449
0.11873554 0.025698937 0.12016194
0.038391188 -0.0095661785 0.13830431
0.06445232 -0.0079004811 0.13221264
0.10322949 -0.0097050406 0.13881214
0.16150916 0.0098052491 0.13006654
0.1961062 0.013647834 0.13109846
0.075571656 -0.011544584 0.14553958
0.090962097 -0.010935538 0.14331222
0.027742643 -0.015166829 0.15878657
0.10226031 -0.014101751 0.15489145
0.11459747 -0.014847788 0.15687153
0.025110245 -0.0075877816 0.15651026
0.064916201 -0.0079023624 0.15766074
0.028052012 -0.016440878 0.16344592
0.031634767 -0.016571201 0.16392252
0.082452767 -0.0160763 0.16211262
0.11688957 -0.013024024 0.16945896
0.12064165 -0.0144106 0.16899833
0.010056094 -0.009724115 0.16466272
0.048595015 -0.0088893529 0.16947094
0.050321188 -0.015428791 0.1718739
0.11757639 -0.010240842 0.17246264
0.099839054 -0.0086719031 0.17072344
0.035288319 -0.013058476 0.18552685
0.097409554 -0.013672508 0.18199003
0.10008385 -0.012740303 0.18735951
0.11980262 -0.01303568 0.18565816
0.0062716561 -0.0063279797 0.18701719
0.020498797 -0.0057003833 0.18783931
0.05774837 -0.0056926133 0.18788406
0.070605218 -0.005526708 0.18883967
0.10490203 -0.0056295143 0.18824752
0.016730921 -0.011544997 0.19424444
0.023614148 -0.010555746 0.1999425
0.044746354 -0.011791074 0.19282705
0.034702174 -0.0044066356 0.19529127
0.04256507 -0.0046632341 0.19381326
0.095123336 -0.0036576109 0.19960563
0.098124959 -0.010178318 0.20211647
0.0089281192 -0.0090228766 0.2087718
0.022502743 -0.003164317 0.202447
0.044577524 -0.0027076704 0.20507726
0.058207598 -0.0031684069 0.20242342
0.12610829 -0.0045802454 0.20554546
0.035209499 -0.0078583565 0.2154794
0.057369635 -0.0014296023 0.21243891
0.066310659 -0.00085382187 0.21575537
0.069321491 0.00045770034 0.22330971
0.058206029 -0.0044785393 0.23494706
0.07721974 -0.0042534517 0.23624355
0.080851048 -0.0039788168 0.23782542
0.038263887 0.0020172964 0.23229292
0.073040277 -0.0034271218 0.24100319
0.12978971 -0.0028860983 0.24411947
0.01357264 0.005000093 0.24947377
0.077635452 0.0036777426 0.24185707
0.0800163 0.0034585185 0.24059434
0.13432562 0.0050264429 0.24985698
0.020264866 -0.0012958853 0.25327903
0.055812217 -0.00088434108 0.25564954
0.075923368 -0.00057707308 0.25741941
0.12395236 -0.00060972059 0.25723132
0.068717726 0.0057734931 0.25392854
0.080009848 0.0063301483 0.25713485
0.12691973 0.0062076962 0.25642955
0.07503856 -2.1119136e-05 0.26062167
0.13619101 -0.00012550247 0.26061201
0.050318666 0.0081177 0.26743108
0.12373625 0.0095601398 0.27573952
0.01563409 0.004821918 0.28782022
0.11697197 0.0043458436 0.28577524
0.024800045 0.011425059 0.28648138
0.10892303 0.011772297 0.28848147
0.14302973 0.011008009 0.28558221
0.079362899 0.0051147165 0.29020393
0.030348537 0.013433223 0.29804838
0.05325371 0.012619808 0.29336309
0.07109955 0.01288487 0.29488987
0.13367571 0.012097382 0.29035395
0.013952971 0.009140295 0.30850226
0.092194587 0.0075745564 0.30545148
0.13379864 0.0075750984 0.30544421
0.018050741 0.014282199 0.3087298
0.03273816 0.014405882 0.3071014
0.10008045 0.014254163 0.30909887
0.11595994 0.014242617 0.30925086
0.14482512 0.010518823 0.30311555
0.079654172 0.006984733 0.31321704
0.085208595 0.0067607835 0.31616551
0.12821634 0.0065332265 0.31916139
0.13716711 0.0065132491 0.31942433
0.04803656 0.013826287 0.31473219
0.12250255 0.013708823 0.31627873
0.036200218 0.012774403 0.32858115
0.062759988 0.013153418 0.32359111
0.10270994 0.012845159 0.32764959
0.062303271 0.005417238 0.33385453
0.071481876 0.012525564 0.33185735
0.14222091 0.012461966 0.33269468
0.069384351 0.0047798618 0.34224609
0.086572275 0.0048536374 0.34127471
0.1144615 0.0041939183 0.34996036
0.038641945 0.011349785 0.34733748
0.064138159 0.011418713 0.34642994
0.11559229 0.01171883 0.34247869
0.061811816 0.0041103424 0.3510609
0.10970921 0.0037384061 0.35595757
0.13559011 0.0036271084 0.35742283
0.15554929 0.0096790679 0.35720393
0.024345629 0.011138314 0.35012168
0.068453901 0.010868143 0.3536787
0.096087396 0.011052054 0.35125735
0.041358188 0.0029120615 0.36683735
0.093186356 0.0029928675 0.36577332
0.038128011 0.010305649 0.3610844
0.055831648 0.010348694 0.36051768
0.15252219 0.010272822 0.36151659
0.056034803 0.0022308293 0.3758063
0.081869379 0.0093614962 0.37351498
0.11532623 0.0026147012 0.3707521
0.13573866 0.0091041392 0.3769033
0.05680906 0.0087914728 0.38101983
0.12382949 0.0049546328 0.38573998
0.029372988 0.0076348674 0.39624751
0.1019066 0.0005553306 0.39786547
0.13353351 0.0080405697 0.3909061
0.14229637 0.0077815242 0.39431667
0.038054917 0.0003028377 0.40118998
0.063489504 0.00019807112 0.40256923
0.13174531 0.0071831476 0.4021948
0.1434384 0.0068848673 0.40487599
