# .PCD v0.7 - Point Cloud Data file format
VERSION 0.7
FIELDS x y z
SIZE 4 4 4
TYPE F F F
COUNT 1 1 1
WIDTH 873
HEIGHT 1
VIEWPOINT 0 0 0 1 0 0 0
POINTS 873
DATA ascii
-0.026863877 -0.034365103 -0.36032727
-0.016551225 -0.034383025 -0.36032736
0.033650801 -0.025411244 -0.36278495
0.042197753 -0.028533351 -0.36431843
-0.042049881 -0.033048786 -0.35611671
-0.037784569 -0.033307005 -0.35513216
0.023821108 -0.039455235 -0.35336959
0.047870558 -0.039295103 -0.35697582
0.035416055 -0.021404013 -0.35270557
0.043328784 -0.021402501 -0.3527354
0.075264096 -0.024192926 -0.35513684
0.056833901 -0.053896651 -0.34753203
0.027278373 -0.040113062 -0.34578311
0.066218078 -0.04028238 -0.34963271
-0.042169675 -0.033892196 -0.34008271
-0.013707333 -0.035544164 -0.34726572
0.0040339874 -0.037856389 -0.34132981
-0.019219229 -0.027875472 -0.34092337
0.017736804 -0.022211805 -0.34330767
-0.0088358484 -0.026238086 -0.3309634
0.030846559 -0.02247999 -0.33146515
0.074139014 -0.024931839 -0.33663586
0.028384143 -0.041402619 -0.32205349
0.040767021 -0.042046502 -0.32400727
-0.015587569 -0.036504425 -0.32684985
-0.015369564 -0.027478604 -0.32897472
0.021843603 -0.02286185 -0.32465288
0.0310985 -0.022905955 -0.32305643
0.08676035 -0.029849172 -0.32723114
0.080506794 -0.040886864 -0.31346607
-0.044943742 -0.035845 -0.31707436
-0.023068218 -0.029950157 -0.31974775
-0.041623395 -0.036760643 -0.30157712
-0.036640901 -0.036696021 -0.30672216
-0.013578005 -0.037800521 -0.30282414
0.0028702614 -0.03953978 -0.30498791
0.022357121 -0.023783332 -0.30573779
0.048095882 -0.024033129 -0.30080542
0.073236778 -0.02619439 -0.30857351
0.0141865 -0.041646786 -0.29364434
0.040885925 -0.043449294 -0.29631555
-0.043452349 -0.036862381 -0.29814845
-0.01313618 -0.028585022 -0.29783741
0.030277068 -0.02456487 -0.29030871
0.062440835 -0.024921458 -0.29613745
0.020261684 -0.042554673 -0.2866258
0.085957475 -0.031860549 -0.28051326
0.072444342 -0.027093904 -0.28805968
0.0088689262 -0.04189124 -0.27460402
0.044985585 -0.044626102 -0.27308467
0.074162111 -0.043511733 -0.27241004
-0.036163829 -0.035621252 -0.27508807
0.091289148 -0.037128042 -0.27330315
0.03463703 -0.025245406 -0.27687448
0.05869104 -0.025096133 -0.27982116
0.069564402 -0.027048461 -0.27893594
-0.040599123 -0.038762949 -0.26284492
-0.024370963 -0.039114274 -0.26851109
-0.01826793 -0.03977026 -0.26029938
0.050746527 -0.025974205 -0.26248762
-0.0088435235 -0.040600039 -0.25274476
0.078538232 -0.043859541 -0.25812227
-0.023514565 -0.036157563 -0.25601524
0.081182167 -0.031112805 -0.25356734
0.029841768 -0.026356809 -0.25493565
0.075071245 -0.029140621 -0.25679746
-0.0083470866 -0.040966775 -0.24683224
0.021528285 -0.044675179 -0.2467439
0.083829999 -0.043358952 -0.24676684
0.08151003 -0.031514511 -0.24850091
0.090273567 -0.036329575 -0.24978976
0.0018764157 -0.029094446 -0.24169178
-0.041379895 -0.040212847 -0.23361599
0.006496205 -0.043446589 -0.23755789
0.089217238 -0.041793421 -0.23739901
-0.032355655 -0.036683131 -0.23455696
0.0083425278 -0.028387822 -0.23578708
0.088561766 -0.035776503 -0.22595611
0.015824424 -0.028212538 -0.22756386
0.060546968 -0.028043373 -0.22792099
0.0095819589 -0.045055583 -0.21404403
0.068279162 -0.04701978 -0.21313679
0.07002537 -0.047006093 -0.21044511
0.0022513168 -0.03024821 -0.21776515
0.067269534 -0.03003877 -0.21192175
0.072352678 -0.031025207 -0.21013622
0.0086174011 -0.029196056 -0.21898852
0.045416564 -0.028238121 -0.21779677
0.063367248 -0.029109327 -0.21669137
-0.026529463 -0.042390242 -0.20216498
0.019255068 -0.046824675 -0.20076133
0.065590724 -0.047531337 -0.20759852
0.07512024 -0.04663178 -0.20919326
0.088592887 -0.043923113 -0.20202151
0.09113878 -0.042406712 -0.20342591
-0.033517182 -0.038411871 -0.20639938
-0.00023809227 -0.044804759 -0.19274491
0.0089598112 -0.046032678 -0.19309255
0.029050224 -0.047933944 -0.19416185
0.064622924 -0.048118085 -0.19765738
0.016103197 -0.029952031 -0.19283079
0.035766952 -0.029261999 -0.19758584
0.058300532 -0.029195886 -0.19888993
-0.041344803 -0.041489944 -0.18585846
-0.028850524 -0.042999294 -0.18833938
0.034164056 -0.048586298 -0.18927145
0.087136172 -0.045593984 -0.18074849
-0.032506391 -0.039152402 -0.1865876
-0.016429059 -0.035006166 -0.18582676
0.073145173 -0.032594778 -0.18190987
0.023732986 -0.029931614 -0.18436958
0.05328051 -0.029689677 -0.18914227
-0.034866929 -0.040356256 -0.17495248
0.073962174 -0.048228875 -0.17962967
0.082192339 -0.047679678 -0.17232046
-0.018493194 -0.0360521 -0.17578705
-0.0067089824 -0.033664413 -0.17783964
0.0780503 -0.033980794 -0.17161655
-0.0037241951 -0.034068048 -0.16070795
0.0025288709 -0.033016007 -0.16227588
0.086260468 -0.037825748 -0.16540349
-0.037301682 -0.044298541 -0.15612853
-0.023603415 -0.045049317 -0.15194523
-0.0025820627 -0.04627578 -0.15744013
0.0094465762 -0.047775876 -0.15998204
-0.026414996 -0.03923193 -0.15371692
0.067934699 -0.05074843 -0.14011589
-0.038640857 -0.043805175 -0.14546743
0.0042461697 -0.04779759 -0.14565179
0.011738984 -0.048981532 -0.14230959
-0.023113275 -0.038872026 -0.14385711
-0.016600046 -0.037184704 -0.14370154
0.080774814 -0.03666465 -0.14041486
0.046131201 -0.051799893 -0.1314708
0.060946971 -0.05156149 -0.13591699
0.010505291 -0.04941912 -0.13037346
0.082028501 -0.049614027 -0.1352203
0.090789825 -0.042500533 -0.13860705
-0.025482088 -0.039998256 -0.13379517
0.0016190819 -0.034448653 -0.13678852
0.052430745 -0.032205492 -0.13947883
0.0020190254 -0.048569679 -0.12445663
-0.01148212 -0.037096359 -0.12474732
0.047008671 -0.032934487 -0.12508853
0.062293697 -0.033320129 -0.12983432
0.073769197 -0.035557896 -0.12558842
0.040458228 -0.052759942 -0.1125194
0.073812462 -0.051635765 -0.11262985
0.076712742 -0.03652814 -0.11667742
-0.29678702 0.088069394 -0.11102538
-0.29292244 0.094909668 -0.11292145
-0.041364726 -0.045453161 -0.10772679
-0.018061213 -0.047671575 -0.10448264
0.085362382 -0.044823792 -0.10719422
0.015152276 -0.034355894 -0.10724521
0.028962437 -0.034120638 -0.10167688
0.083139837 -0.03948212 -0.105452
-0.25350061 0.084963635 -0.10400666
-0.26293731 0.094646476 -0.10953492
0.029204696 -0.053161472 -0.091209494
0.075745627 -0.052269403 -0.096842661
-0.039167363 -0.047381435 -0.093823731
-0.0053899335 -0.037884273 -0.090489246
0.015154095 -0.035024207 -0.094049901
0.061911982 -0.034829147 -0.098717034
-0.24930322 0.070920095 -0.091444388
-0.29663759 0.081290871 -0.096381709
-0.28156808 0.084714323 -0.096771695
-0.25872833 0.085435569 -0.097177416
0.0090135261 -0.051694363 -0.081470944
0.018303927 -0.052452136 -0.088186421
0.044464838 -0.034853861 -0.087200224
0.071526572 -0.037198752 -0.085394457
-0.26625332 0.066718869 -0.088294953
-0.2963455 0.072587453 -0.085100964
-0.25361711 0.078017958 -0.087948978
-0.24989703 0.071955428 -0.080214314
0.0043984284 -0.051452447 -0.073909499
0.075184509 -0.053390745 -0.07565859
0.08394818 -0.041459031 -0.073486887
0.025218775 -0.035672747 -0.071038663
0.031797521 -0.035280723 -0.078776151
-0.24765176 0.054735232 -0.071924701
-0.24529263 0.067476064 -0.075278953
-0.25261661 0.072222903 -0.079998106
0.035946358 -0.055106483 -0.06334383
0.048814401 -0.055142462 -0.065486945
0.01360162 -0.036417052 -0.068755582
0.050423045 -0.036179624 -0.061028399
0.070808791 -0.038275074 -0.061650127
-0.28566551 0.04701028 -0.061139088
-0.30547482 0.050470345 -0.060312755
-0.29775596 0.05525111 -0.068523936
-0.010452394 -0.050447747 -0.05558598
0.071608581 -0.054730438 -0.055277951
-0.04368145 -0.048905108 -0.051489025
-0.037900146 -0.049601167 -0.050989754
0.062589556 -0.037078798 -0.056665968
0.070665747 -0.038784683 -0.051092628
-0.23764734 0.04196189 -0.054948356
-0.27989855 0.05533988 -0.058516137
-0.23297024 0.05085865 -0.054971159
-0.030171171 -0.050081581 -0.047506038
0.018752407 -0.054594666 -0.046592377
0.075034566 -0.058499552 -0.04102508
0.086082377 -0.053523313 -0.040435456
-0.039724991 -0.049702358 -0.047575757
-0.015628858 -0.041752096 -0.048549771
0.089869261 -0.037920374 -0.040233351
0.063370831 -0.020839006 -0.041600518
0.079782486 -0.025550747 -0.040771682
0.070625216 -0.019286888 -0.041260406
0.077233166 -0.00056855008 -0.040907741
0.083734177 0.00010678172 -0.040560782
-0.28238037 0.031363696 -0.041874766
-0.27713311 0.03424149 -0.046490081
-0.28145278 0.04456646 -0.045063227
-0.23208198 0.044975139 -0.046321504
0.094329402 -0.061045062 -0.034877885
-0.033923879 -0.0514002 -0.0342777
0.015451788 -0.054813452 -0.037108965
0.022046236 -0.059489023 -0.032263894
0.13180129 -0.057942655 -0.037995439
0.21343054 -0.050442036 -0.033638895
-0.041262202 -0.049143311 -0.034355145
-0.030027289 -0.042418763 -0.031620033
-0.0040196627 -0.04081396 -0.034399197
0.015103796 -0.041031368 -0.036442723
0.11123674 -0.044877429 -0.039092973
0.12600558 -0.045704145 -0.038304761
0.19067088 -0.041169044 -0.034853578
0.2318933 -0.048791058 -0.032653537
0.24318571 -0.043024007 -0.032050859
-0.030141585 -0.024730649 -0.031607822
0.099313408 -0.025127353 -0.03972932
0.12077108 -0.026138639 -0.038584124
0.25483304 -0.028770603 -0.031429242
0.2640565 -0.021242362 -0.030936986
0.037935846 -0.011347109 -0.038882546
0.13421799 -0.011427326 -0.037866462
0.15154088 -0.018894644 -0.036941938
0.16843875 -0.016616324 -0.036040105
0.26716208 -0.015714752 -0.030663047
0.012003758 -3.5962272e-05 -0.036111452
0.11169438 -0.0062971651 -0.039068546
0.15245858 -0.0027955021 -0.036892962
0.1752153 -0.0082654087 -0.035678439
-0.02660927 0.0049893521 -0.032014214
-0.018575516 0.0032261095 -0.032843769
0.10365806 0.00057992991 -0.03949745
0.16983253 0.0029936777 -0.035965718
0.2006782 0.002416556 -0.034319486
0.22009289 0.0081730653 -0.032876629
0.031958103 0.011788991 -0.03861811
-0.30393162 0.02851478 -0.030393135
-0.29993653 0.027563062 -0.032303065
-0.27459204 0.024468621 -0.033910505
-0.23780698 0.023502473 -0.03172788
-0.22282913 0.026862385 -0.034564089
0.045144331 0.022773203 -0.0394274
0.068361416 0.028033838 -0.038714398
0.10943838 0.028059656 -0.036741704
0.15717426 0.025711831 -0.033614777
-0.28012162 0.034525312 -0.031783395
-0.24816895 0.039831303 -0.038304076
-0.22045708 0.034159973 -0.036747951
0.020822497 0.033107188 -0.03460554
0.047834877 0.031940088 -0.032763269
0.056133986 0.031218681 -0.038059734
0.080689855 0.038301222 -0.035491459
0.13214985 0.033337738 -0.033467393
0.15410393 0.034004591 -0.030568317
0.053774431 0.046456117 -0.03206493
0.10770232 0.041323338 -0.032244857
0.1186295 0.041671555 -0.031072259
0.10307206 -0.060456142 -0.023617966
-0.053253267 -0.052936357 -0.026602628
0.023106458 -0.059581287 -0.029612873
0.25468814 -0.050243016 -0.024336727
-0.078020729 -0.046043225 -0.026491472
-0.062604479 -0.041319605 -0.028138848
-0.054584228 -0.040078551 -0.028995888
-0.12621431 -0.038993791 -0.021341527
-0.10005781 -0.035846744 -0.024136601
-0.061923735 -0.036423102 -0.028211594
0.27372271 -0.023395358 -0.029238038
-0.093293726 -0.01228909 -0.02485941
0.29142299 -0.014166584 -0.023696674
-0.12515265 0.0064983945 -0.021562221
-0.096079372 0.0078623537 -0.024744799
-0.078760877 0.0051168078 -0.026446061
0.28934065 0.0019342571 -0.020496601
-0.25837606 0.015616117 -0.022515828
-0.23719631 0.018582441 -0.025480207
-0.13569413 0.013302226 -0.020287769
-0.1234901 0.014866182 -0.021454267
-0.095828146 0.014972433 -0.024563642
0.25490743 0.012191607 -0.026376918
-0.29248568 0.026386416 -0.024602711
-0.2595315 0.029440518 -0.024929143
-0.24571715 0.020021716 -0.028057534
-0.2347281 0.028880201 -0.024208095
-0.21908225 0.029045139 -0.027352531
-0.11009467 0.026001425 -0.020258557
-0.10629645 0.021016324 -0.022296447
-0.072974667 0.025837893 -0.025101844
-0.06439843 0.022165399 -0.027031003
-0.038493071 0.029147798 -0.028408865
-0.27690613 0.030411307 -0.026178721
-0.04963664 0.03721679 -0.023542924
0.16348119 0.034436036 -0.028965462
0.18602967 0.036437582 -0.022374256
0.20185584 0.030128691 -0.023536678
-0.019348465 0.045236804 -0.023366436
0.04299324 0.057645038 -0.024172267
0.052758988 0.055652104 -0.026050285
0.10644127 0.056089923 -0.022194624
0.13432643 0.052548051 -0.021073278
0.10150279 -0.090339914 -0.010423054
0.056093819 -0.071664162 -0.010499999
0.036768332 -0.060770158 -0.016506828
0.08434236 -0.061834294 -0.01464458
0.10683857 -0.063851021 -0.0105
-0.065321699 -0.051886149 -0.018572755
-0.055897608 -0.052706242 -0.017304381
-0.033573054 -0.054648958 -0.017147336
0.15553258 -0.056922309 -0.014772785
0.17779374 -0.055422761 -0.014283875
0.18372136 -0.055023462 -0.016118309
0.22617547 -0.052163687 -0.017402768
-0.17519857 -0.042324513 -0.010482496
-0.093531348 -0.049431309 -0.011123405
-0.22504413 -0.034506053 -0.010780616
-0.15638782 -0.034472927 -0.018117199
-0.14674172 -0.036961466 -0.019147977
-0.20703135 -0.021367788 -0.012705449
-0.20271233 -0.011563868 -0.013166981
0.3022702 -0.016837148 -0.018599709
-0.20497657 -0.0023044487 -0.012925025
-0.16428974 -0.001285139 -0.017272804
-0.1564305 -0.00052883418 -0.018112639
-0.19094893 0.0086674383 -0.014526594
-0.16682835 0.00059582316 -0.017001528
-0.15510474 0.0082751662 -0.018442979
-0.29162598 0.014377981 -0.017546527
-0.1975527 0.010174412 -0.013725626
-0.18109815 0.016380116 -0.014461193
0.27196473 0.013471267 -0.011003325
-0.26166877 0.024543213 -0.018625412
-0.15289718 0.023187699 -0.015600109
-0.13387099 0.028159834 -0.015818212
0.23403394 0.023699455 -0.018793007
-0.12101036 0.035675645 -0.012105228
0.16239074 0.04670693 -0.01858326
0.17342651 0.042412717 -0.019864703
-0.20697439 0.054002084 -0.014055714
-0.18372591 0.054561622 -0.016934827
-0.1535418 0.056498043 -0.017500812
-0.14643005 0.052473508 -0.016298216
0.0092785787 0.056916278 -0.018310383
0.035245989 0.053850938 -0.013305265
0.11599039 0.059998471 -0.015671534
-0.19687966 0.066809565 -0.013874309
-0.18941478 0.06725312 -0.014279269
-0.14526621 0.065058768 -0.015330954
0.038989116 0.065699846 -0.013425949
0.068090893 0.06671004 -0.011415794
0.10060423 0.06165858 -0.016685473
-0.14557244 0.071445972 -0.010291055
0.11331442 -0.081323363 -0.0047848849
0.045648094 -0.061542891 -0.0085932286
0.062580891 -0.063016407 -0.0087960642
0.09613809 -0.060923226 -0.0034009316
-0.078059256 -0.050777707 -0.00060436886
-0.018197652 -0.055986948 -0.0034408926
0.11365077 -0.059743542 -0.00020952286
0.15812707 -0.056747541 -0.0077341273
-0.28025103 -0.041640583 -0.0025187926
-0.17556119 -0.042292953 -0.0067664385
-0.14437692 -0.045006655 -0.0030442227
-0.10183519 -0.048708696 -3.6493959e-05
0.28656188 -0.043814719 -0.002339548
-0.27505222 -0.039185669 -0.0027214731
-0.2609092 -0.036153883 -0.0015426183
-0.25358427 -0.031615268 -0.0077308272
-0.21422864 -0.038928062 -0.0072309733
0.29986849 -0.039625455 -0.0085849464
-0.24199095 -0.023871582 -0.0089696823
-0.32030439 -0.014828759 -0.00060114294
-0.31813678 -0.01639314 -0.000832772
-0.30722904 -0.015098752 -0.0019983687
-0.25492772 -0.019720616 -0.0075872666
-0.23425457 -0.010376271 -0.0097963903
-0.28091797 -0.0016694514 -0.0048099551
-0.27544606 -0.0097855497 -0.0053946869
-0.26179531 -0.0078983866 -0.0068533961
-0.28348508 0.0045718979 -0.0045356369
-0.27421167 0.0042194454 -0.0078458646
-0.24784808 0.0090893321 -0.0081928186
-0.28664958 0.014333669 -0.0075891735
-0.22429761 0.02000922 -0.0057091652
-0.21661973 0.02043163 -0.0070201214
-0.20039277 0.024874702 -0.0053961007
-0.19956292 0.023692217 -0.0073274369
-0.18416883 0.028902192 -0.0014477622
0.054529183 0.020289214 -0.0053969128
0.23445414 0.027289147 -0.008456436
-0.15119363 0.034418184 -0.0040433621
-0.11880017 0.040436048 -0.0023767534
-0.092147522 0.044317216 -0.0068093752
-0.06541463 0.049935795 -0.0015458154
0.037684321 0.049606856 -0.0032594921
-0.2229819 0.052587785 -0.0067623467
-0.21507582 0.056752678 -0.0061242464
-0.14554809 0.057890262 -0.0015394328
-0.13626157 0.053786851 -0.0044896309
-0.026784249 0.056358337 -0.0060101887
-0.20833385 0.062681593 -0.0039312961
0.068114765 0.068244509 -0.005925687
0.12906311 0.061794002 -0.0057654679
-0.21062627 0.071175076 -0.003159079
0.080713131 -0.09220285 0.0089583602
0.098324165 -0.090002209 0.0089583602
0.10529105 -0.095487073 0.0063263415
0.09413787 -0.076908216 0.0053796503
0.046576127 -0.061623648 0.0082198018
0.085586652 -0.063412458 0.0089583602
-0.04869207 -0.053333282 0.0076995282
0.0024290979 -0.057781912 0.0027302674
0.013273038 -0.058725566 0.0067848363
0.12259975 -0.059140723 0.0021834271
0.14576979 -0.057579946 0.003500645
0.16123496 -0.056538187 0.0078660473
0.180966 -0.05520907 0.00024947373
0.23595737 -0.051504754 0.00073576532
-0.12824385 -0.046410576 0.0093261953
0.26322976 -0.049667642 0.0045037596
-0.22381414 -0.038093921 0.0070836581
0.30834085 -0.035238333 0.0031336341
-0.2814486 -0.021532271 0.0047532171
-0.26782405 -0.021439621 0.0062091141
-0.30078226 -0.010171798 0.0026872535
-0.31144255 -0.0055617695 0.0015481056
-0.28824407 -0.0068860324 0.0040270612
-0.26460126 -0.0018623496 0.006553499
-0.24710293 -0.002569512 0.0084233461
0.062343419 0.0066888146 0.0012258678
0.30291185 0.00019813086 0.0062145023
-0.29459941 0.013351817 0.0098759038
-0.2649101 0.01439359 0.0046569691
-0.25963995 0.015227344 0.0025048486
0.26272836 0.017601959 0.00036637794
-0.1832598 0.024785621 0.0097026266
0.25011361 0.021970158 0.0071507767
-0.17665705 0.039384499 0.00041678117
-0.11812542 0.038185127 0.0095736971
0.038275287 0.048578341 0.0051673576
0.18724672 0.044280551 0.0064525963
-0.19876701 0.059086483 0.0033370489
-0.048743192 0.051185802 0.0097083915
-0.021257848 0.057747606 0.0017642947
-0.015993651 0.058509704 0.0051428596
0.16328476 0.052163169 0.0053253528
-0.21523178 0.064360201 0.00088155776
-0.20767397 0.064210936 0.0020002169
-0.12951347 0.060905568 0.008334415
0.019097997 0.064455934 0.0067139659
0.020450531 0.065073006 0.0030261253
0.044437245 0.067718677 0.0085679265
0.086524062 0.068068951 0.006833748
0.10046487 0.065144941 0.0099080391
0.12196034 0.063121051 0.0023210982
-0.18762766 0.074226178 0.0067976709
0.040210973 -0.061069746 0.015997121
0.089480013 -0.061371721 0.011397608
-0.056711502 -0.05263542 0.018527677
-0.043336742 -0.053799309 0.019462997
-0.00027691945 -0.057546433 0.017367022
0.29286993 -0.040613398 0.015589248
-0.22323751 -0.035275277 0.010973568
-0.21980998 -0.033470981 0.011339828
-0.17868981 -0.032004505 0.01573387
-0.16631547 -0.034704551 0.017056175
-0.13888931 -0.032603137 0.019986894
-0.19123952 -0.027096888 0.014392829
-0.18641829 -0.029708728 0.014908018
0.30825686 -0.025528897 0.014860443
-0.20466679 -0.0033830036 0.01295801
-0.17104331 -0.0082258368 0.016550964
-0.14366154 -0.0058652554 0.019476943
-0.17804201 0.0044310302 0.015803095
-0.16776323 0.0004121291 0.016901467
0.28506082 0.0073468448 0.011544173
-0.20587623 0.014636564 0.01175086
-0.18803214 0.018788146 0.012713137
-0.1767168 0.015280068 0.015247643
-0.16906637 0.018344985 0.01534472
-0.13945797 0.013746055 0.019802604
0.057496861 0.015124055 0.016359009
-0.21514261 0.021069035 0.016775567
-0.20023537 0.020375758 0.010038246
-0.17880931 0.020461813 0.013215318
-0.16890951 0.022644039 0.013564326
-0.15439005 0.02830191 0.012250891
-0.13252339 0.028807499 0.01560965
-0.12387656 0.027045745 0.017700702
-0.11749848 0.025336824 0.019536063
0.050683349 0.026982771 0.014522132
0.23597173 0.025564978 0.013928466
0.24271545 0.022069778 0.016588442
-0.13031037 0.033163946 0.012637552
-0.14201111 0.047288679 0.014231814
-0.13178083 0.048298053 0.011982362
-0.064456433 0.04803396 0.010074075
-0.051150545 0.04758054 0.014782436
-0.049867827 0.046386853 0.016120259
-0.036868423 0.045540787 0.019987954
-0.029971479 0.047046699 0.019996569
0.17522989 0.045235354 0.015397481
0.18958908 0.040766448 0.014991801
-0.21618582 0.055247918 0.012315597
-0.20182377 0.052865583 0.016103182
-0.12849425 0.055199534 0.012464656
-0.0014932044 0.057054684 0.01541041
-0.17025687 0.064980842 0.016690793
-0.13347295 0.064376287 0.014496418
0.039116547 0.063662626 0.017398242
0.045259617 0.067256771 0.010305522
0.069006428 0.065022506 0.015251109
0.085448682 0.062574938 0.018909503
0.10349781 0.062465496 0.014994236
0.11881422 0.060140818 0.015011592
-0.17358594 0.072265036 0.011476332
-0.011695785 -0.056552745 0.024200635
0.11770662 -0.059470333 0.020116035
0.23868647 -0.051320918 0.022040322
-0.097812884 -0.049058724 0.023400525
-0.085570276 -0.044093303 0.025684491
-0.07993596 -0.043403644 0.026286565
0.26588613 -0.04940293 0.023370668
0.28522384 -0.041326933 0.022888968
-0.099258833 -0.022310678 0.02422175
0.28925928 -0.026068415 0.023668531
-0.11401579 -0.017584348 0.022644842
-0.10140648 -0.01956011 0.023992255
-0.11624333 -0.0090142358 0.022406815
0.28001136 0.00073577336 0.027797084
-0.25194117 0.015379962 0.022211459
-0.061169922 0.014585478 0.028421069
-0.21558832 0.023373004 0.027267223
-0.11103618 0.025541777 0.020299718
-0.10325369 0.02847336 0.020137412
-0.085619442 0.021130605 0.024740906
-0.077158436 0.028708665 0.023559876
-0.048907928 0.023781193 0.028398786
0.049047954 0.029828778 0.029670183
0.053657159 0.021806873 0.025478397
0.21424358 0.020588841 0.029163048
0.22534329 0.025549626 0.021104507
-0.26611254 0.030703209 0.026554182
-0.25583145 0.030770332 0.026640818
-0.074933946 0.032122679 0.022413462
-0.032197308 0.03502921 0.02712946
0.18993731 0.035965841 0.021724783
-0.055379689 0.041053493 0.020199753
0.036731228 0.053012934 0.027588431
0.043103334 0.058081936 0.024219245
0.1259183 0.055337373 0.02035886
0.13744318 0.052402094 0.020748403
0.029520724 -0.060139462 0.031883001
0.084017716 -0.061739676 0.034580417
-0.043661881 -0.051174782 0.033576727
-0.022667056 -0.055598013 0.032379549
-0.019393997 -0.051044282 0.0368708
0.0089357384 -0.053988896 0.035975073
0.14651231 -0.057529926 0.033383328
0.1703283 -0.055925645 0.033752151
-0.0011512935 -0.046394464 0.034705378
0.1195237 -0.048148714 0.038650297
0.12711114 -0.043393064 0.038245358
0.1382799 -0.045208406 0.037649281
0.19541478 -0.048576768 0.034599993
0.22868606 -0.042074062 0.032824308
0.2470786 -0.045985959 0.031842697
0.003057301 -0.03402416 0.035155103
0.023382053 -0.036516335 0.037326977
0.15660697 -0.031634394 0.036671162
0.16821373 -0.031613603 0.036051713
0.20345777 -0.032387126 0.034170739
0.2143604 -0.034173913 0.033588864
-0.041723676 -0.029179264 0.030369874
-0.032822713 -0.023232877 0.031321019
0.014419362 -0.029371347 0.036369238
0.13386039 -0.025402963 0.037885148
0.15175337 -0.021160886 0.036930203
0.18702699 -0.025947634 0.03504765
0.21511805 -0.024434187 0.03354843
0.23938219 -0.024672881 0.032253455
-0.00074203685 -0.012109838 0.034749113
0.11862724 -0.017417537 0.038698141
0.17967181 -0.01445586 0.035440195
0.18773454 -0.01494987 0.035009887
0.20219944 -0.017094035 0.034237899
-0.031099012 -0.0090098744 0.031505208
0.010416415 -0.0061324593 0.035941489
0.10385272 -0.0070680622 0.039486658
0.20896471 -0.0090279328 0.033876836
0.22773355 -0.0048511643 0.032875143
0.23249871 -0.0097537395 0.032620825
0.25561941 -0.0018205037 0.031386875
0.26470971 -0.0077189407 0.030893851
-0.044678848 0.0034149182 0.030054089
0.13800758 0.0068356674 0.037946697
0.14419475 0.00752025 0.03763007
0.15847099 0.0020515942 0.036571681
-0.0037731603 0.015475981 0.034633201
0.027090821 0.01204027 0.038085587
-0.27361739 0.027035657 0.037214223
-0.23515104 0.024627324 0.032904841
0.19249274 0.021962896 0.031667344
-0.22777832 0.035485454 0.033643018
0.045623831 0.033947248 0.037369549
0.051213961 0.03767921 0.036441393
0.063008413 0.037974406 0.036229424
0.085968949 0.035805751 0.036349539
0.16284953 0.033163536 0.030296888
0.041271426 0.045459915 0.032426897
0.071837924 0.043042108 0.034071803
0.055020273 -0.061901793 0.040707793
0.074737981 -0.062364772 0.040998127
-0.020865668 -0.0505707 0.045076285
0.0011663516 -0.052313678 0.048275709
0.028475404 -0.055280231 0.048248723
0.066097334 -0.05340641 0.04150166
0.072055198 -0.055011023 0.048980795
0.086315632 -0.054772917 0.040422611
0.06467402 -0.041768134 0.041577622
0.0088601671 -0.037918296 0.046063296
0.02639129 -0.037071098 0.043434791
0.035587624 -0.036775842 0.049261604
0.081084423 -0.034999736 0.040701799
0.059116904 -0.017023822 0.041145552
0.079127938 -0.0095771896 0.040806219
0.081624486 -0.0075921216 0.040672977
0.093889758 -0.0075315209 0.04001838
0.086869799 0.0040762601 0.040393032
0.085595109 0.019805737 0.040060841
-0.30296025 0.038513638 0.043849915
-0.27571219 0.030380648 0.041519828
-0.2563993 0.048903283 0.049981315
-0.00080137426 -0.05160331 0.057038456
0.057572216 -0.055707593 0.054330446
0.071650989 -0.054786816 0.054092307
-0.011127511 -0.04076216 0.0512955
0.088213444 -0.044329584 0.054071255
-0.0061740968 -0.039791685 0.055243768
0.029267658 -0.036409348 0.05649725
0.042238504 -0.036735006 0.050066572
0.065414213 -0.037812762 0.052005894
-0.29451668 0.049630549 0.055063706
-0.28237346 0.042587128 0.056323081
-0.23246673 0.048565969 0.051666696
-0.25317538 0.052730475 0.054907609
-0.001404685 -0.051020712 0.066926375
0.034535006 -0.054746158 0.068254024
-0.014977087 -0.040586121 0.068217687
0.080529884 -0.040475629 0.063045792
0.024762223 -0.036021851 0.064147308
0.057041734 -0.035833728 0.067855485
0.0640072 -0.036782485 0.067448042
-0.23727341 0.048220471 0.062412232
-0.27440161 0.052053422 0.069416806
-0.26800337 0.058617163 0.062484726
-0.24205357 0.057493113 0.061330087
0.054317035 -0.054664087 0.074929848
-0.027413197 -0.048888449 0.073199563
0.086060949 -0.042339697 0.074553616
0.029241346 -0.035710014 0.070302188
0.068426192 -0.036945097 0.07961382
0.072243504 -0.037708722 0.077821702
-0.29456928 0.057431579 0.072180003
-0.24297227 0.053550076 0.070011944
-0.24831748 0.066091336 0.072105438
-0.23922414 0.065197453 0.078711174
0.0047410959 -0.051061984 0.082539961
0.067927219 -0.053545948 0.084903955
-0.034250889 -0.044890404 0.082280234
-0.02263559 -0.041565441 0.088231593
0.090033703 -0.048884906 0.088700414
-0.0075137033 -0.038480334 0.085243404
-0.24469931 0.068905398 0.087932244
-0.24737225 0.072117746 0.081523709
-0.028707355 -0.047729872 0.095065758
0.0049607446 -0.036219742 0.091566153
0.026673665 -0.034436867 0.095434599
0.044398226 -0.034340806 0.097327873
-0.27759877 0.068164028 0.090154223
-0.26299658 0.083079323 0.093972221
0.02617096 -0.052279245 0.10389091
0.040034864 -0.053165711 0.10450939
-0.0073871017 -0.048119631 0.10820247
-0.011277044 -0.037879407 0.10866022
0.047027379 -0.034169812 0.10070278
-0.29478234 0.086364135 0.10241748
-0.25199127 0.081223987 0.10380642
0.015538411 -0.050671704 0.11673814
0.027154397 -0.051813927 0.11461225
0.062655985 -0.052321464 0.11801674
-0.033892311 -0.043323703 0.11136523
-0.024964675 -0.041035563 0.11065903
-0.0042934367 -0.047991071 0.11901004
0.029555172 -0.033592314 0.11210573
0.047546923 -0.033417694 0.11554959
-0.30472952 0.092272475 0.11431848
-0.28578585 0.095789514 0.11215195
-0.26481742 0.099917315 0.11682831
0.012604607 -0.050201345 0.12054923
0.039917503 -0.052144568 0.1246672
0.043083124 -0.051877305 0.1299428
-0.042100303 -0.045240708 0.12280002
-0.029636536 -0.041276306 0.1299136
-0.0077812802 -0.047372453 0.12189823
0.089273393 -0.047556341 0.12303849
0.0725547 -0.035502017 0.12246551
-0.29608259 0.09850204 0.12464173
-0.26327026 0.096891098 0.12477207
0.039198745 -0.051714543 0.13315608
0.041126527 -0.051727898 0.13289228
0.052246165 -0.051724777 0.1329533
0.074412048 -0.050338581 0.13721907
-0.042388678 -0.044460703 0.1336526
-0.03621332 -0.0427735 0.1341529
0.0090389922 -0.048744351 0.13977931
0.039917655 -0.050943762 0.14837159
0.060779367 -0.050918661 0.14886633
-0.042751618 -0.044698671 0.14399958
-0.030674081 -0.040947326 0.14173943
0.080685005 -0.04931701 0.14674647
-0.0064829425 -0.03538752 0.14313151
0.07803417 -0.035542458 0.14073245
0.063675106 -0.05021634 0.15784433
-0.031797856 -0.040702928 0.15233873
0.023023807 -0.049203627 0.1596902
-0.022871166 -0.038260438 0.15468553
-0.0067291399 -0.045345657 0.16472003
0.0015262428 -0.046495244 0.16409461
0.020127626 -0.048603445 0.16701464
0.00025458308 -0.033481356 0.16007258
0.043824859 -0.030768318 0.16784909
0.06529706 -0.032188587 0.16262051
-0.035425685 -0.043338187 0.17654353
-0.019804817 -0.043863788 0.17829956
0.0076587596 -0.046861757 0.17325245
0.056687541 -0.049576066 0.17536981
0.063074596 -0.049233545 0.17826372
0.090618104 -0.040572379 0.17313182
-0.023866255 -0.037554264 0.17373788
0.045292996 -0.030472657 0.17368546
0.069800869 -0.032607049 0.17003115
0.041455682 -0.029786156 0.18723746
-0.017348504 -0.043078199 0.19571581
0.0049609817 -0.045291636 0.19703546
0.03433153 -0.048212767 0.19690824
0.041058514 -0.048491836 0.1967736
0.053076182 -0.048742618 0.19182253
0.085319415 -0.045394652 0.19671442
-0.01378214 -0.033990838 0.19311053
0.031787775 -0.029257704 0.19767086
-0.045108557 -0.041562907 0.20375533
-0.012650209 -0.042832524 0.20421314
-0.0087318663 -0.042918675 0.20727554
0.0024366104 -0.044351555 0.20884493
0.042938188 -0.048111156 0.20428829
0.081405811 -0.046075329 0.2091998
0.074924678 -0.031764835 0.20448461
0.052458949 -0.028874254 0.20523866
0.030415723 -0.047167826 0.21142103
0.059915651 -0.047382981 0.2186624
-0.0039080237 -0.031124905 0.21936998
0.052159622 -0.028361641 0.21535793
-0.016998494 -0.033390086 0.22065386
-0.005816916 -0.031277496 0.2222181
0.062896028 -0.028832309 0.22051993
0.070191272 -0.029767286 0.227447
-0.030943474 -0.040456958 0.23690178
0.05661305 -0.046701543 0.23211443
0.083949968 -0.043925084 0.23479518
-0.031130394 -0.036252115 0.2367691
-0.009688925 -0.031189922 0.23583394
-0.0010753456 -0.029948518 0.23389526
0.0092227533 -0.028236138 0.23645678
0.036512002 -0.046002686 0.24394116
0.064967848 -0.045924686 0.24037072
0.088815741 -0.041627795 0.24495322
-0.0137529 -0.031445164 0.24464077
-0.0094551202 -0.030728096 0.24423254
0.090300515 -0.03641903 0.24857847
0.01498235 -0.027558085 0.24167663
0.00049444148 -0.041539956 0.25915465
0.024797013 -0.044468489 0.25593171
-0.026105095 -0.039813034 0.2533707
0.035829876 -0.026580248 0.25052342
0.070250407 -0.028210515 0.25838363
0.08515732 -0.042173263 0.26138023
-0.04103522 -0.038386136 0.26994509
-0.030547876 -0.039251845 0.26099917
-0.010637062 -0.029965736 0.26290995
0.024639141 -0.04331262 0.27850223
0.039343048 -0.044619858 0.27320811
0.063034676 -0.04437729 0.274196
-0.0069880872 -0.039910145 0.27132583
0.086946458 -0.034916267 0.27525246
-0.0020718272 -0.028227739 0.2709223
0.023184065 -0.025266357 0.27733335
0.050181933 -0.02530098 0.27577671
0.062067993 -0.026030645 0.27294433
0.071043797 -0.027573507 0.27371889
0.044355348 -0.044106409 0.28334361
0.071438543 -0.04302527 0.28663209
-0.028828146 -0.038076866 0.28552949
-0.0095978193 -0.038800415 0.28625593
0.007020751 -0.026299426 0.28107083
-0.024752965 -0.031519204 0.29743043
0.034292925 -0.024103098 0.2994234
0.075830989 -0.027123608 0.29925719
-0.036901012 -0.03693613 0.30178016
-0.0025083371 -0.038748845 0.30622491
0.0012185684 -0.039241277 0.30646658
0.086051077 -0.030800302 0.30226001
0.091592602 -0.035605978 0.30361739
0.015673324 -0.040516701 0.31969145
-0.024915524 -0.036967322 0.31047058
-0.0058234138 -0.037611283 0.31981897
0.035507813 -0.023259435 0.31607774
0.013970491 -0.040263485 0.32037503
0.032497309 -0.041369963 0.3291232
0.070697293 -0.041111469 0.32566914
-0.034799661 -0.032725044 0.32525194
-0.024234571 -0.036467947 0.3208572
0.019836213 -0.023173144 0.32135341
0.023046212 -0.022801153 0.32512516
0.067618348 -0.024424329 0.32396513
0.044467956 -0.041396897 0.33683082
0.06499923 -0.041172586 0.33412662
-0.039046668 -0.035303522 0.33234313
0.08293584 -0.038981095 0.33911127
-0.019887265 -0.028269621 0.3365759
0.0092247333 -0.023424562 0.3314361
0.018458251 -0.022586819 0.33488134
0.029825002 -0.022266895 0.33567092
0.033065252 -0.022288244 0.33524948
0.058182079 -0.022323947 0.33482289
0.055567525 -0.054011129 0.34455493
0.054195456 -0.046377026 0.34511936
-0.041545972 -0.033591438 0.34281501
0.00022121891 -0.037196495 0.34416479
0.01986493 -0.03937868 0.34870243
-0.015284768 -0.026735151 0.34321451
0.03468094 -0.021557182 0.34968102
0.069228232 -0.023578413 0.34626532
0.077534601 -0.02528167 0.34154516
0.085871033 -0.028590247 0.34431499
-0.017801374 -0.035044271 0.35395586
0.0022339018 -0.036948238 0.35444555
0.058314327 -0.038756978 0.35734281
0.072509266 -0.036944464 0.35857955
0.057912424 -0.021321006 0.35434321
0.0040166099 -0.031390846 0.36236873
0.013179312 -0.024760947 0.36388427
0.028636437 -0.029361229 0.36375338
0.045979306 -0.02480194 0.36686441
0.072761469 -0.023458429 0.36092788
0.086578481 -0.028953835 0.36392832
