# .PCD v0.7 - Point Cloud Data file format
VERSION 0.7
FIELDS x y z
SIZE 4 4 4
TYPE F F F
COUNT 1 1 1
WIDTH 868
HEIGHT 1
VIEWPOINT 0 0 0 1 0 0 0
POINTS 868
DATA ascii
-0.016409906 -0.011482802 -0.38202193
0.0042398171 -0.011291294 -0.38389274
-0.003172186 -0.01079773 -0.37644351
0.017863011 -0.0101396 -0.37952667
0.037733734 -0.010293897 -0.37206888
0.050224736 -0.011960123 -0.37909919
-0.015139167 -0.012634506 -0.3615104
-0.0082500223 -0.01147407 -0.36856684
0.022496747 -0.012463817 -0.3671304
0.067742318 -0.011294618 -0.36425069
-0.018890321 -0.012765457 -0.35901034
-0.0085499519 -0.012026416 -0.35580388
0.027549339 -0.013323849 -0.35274801
0.03461561 -0.011156037 -0.35145643
-0.0069487132 -0.013696372 -0.34290978
0.054320097 -0.014436414 -0.34399787
0.065356299 -0.013930369 -0.34748679
-0.0027106171 -0.014389819 -0.33111686
0.0027447413 -0.0121234 -0.33858854
0.023561887 -0.013118511 -0.335558
0.058603667 -0.015158856 -0.33375731
0.0018194703 -0.013953393 -0.32158178
0.03067044 -0.012295235 -0.32389939
0.060187049 -0.01578211 -0.32492271
0.071102604 -0.015052239 -0.32724953
0.0088196155 -0.015464018 -0.31369677
0.014746718 -0.013152415 -0.31478918
0.024410538 -0.013013913 -0.31077674
0.057394341 -0.016822286 -0.31017828
0.0019581835 -0.013911751 -0.3000406
0.052963857 -0.013252568 -0.30775163
-0.010681639 -0.01653325 -0.2931301
-0.0017742096 -0.016477015 -0.29503283
0.032857291 -0.013461936 -0.2946462
0.042384807 -0.017932527 -0.29287317
0.055470515 -0.014002458 -0.29036906
-0.027407024 -0.017094746 -0.28131038
0.012864463 -0.017049951 -0.28893614
0.021624263 -0.014364406 -0.2818754
0.042919572 -0.013944536 -0.28211766
0.082390115 -0.016098607 -0.28032306
0.058589295 -0.014569014 -0.27868009
0.051419616 -0.020244233 -0.26167238
0.070513725 -0.020080898 -0.26354611
0.0068571027 -0.015515221 -0.26476073
0.074604005 -0.015908811 -0.26378497
0.047363494 -0.020650502 -0.2558285
-0.015000062 -0.016390232 -0.25323361
0.023429137 -0.015471177 -0.25514844
0.073030412 -0.016000828 -0.25416696
0.042605612 -0.02135708 -0.24273525
0.07414189 -0.021498827 -0.24279457
-0.035868213 -0.018484488 -0.24444452
0.0093841581 -0.016327769 -0.24595036
0.026366662 -0.015662424 -0.2485768
0.052275803 -0.01512461 -0.24689403
0.082994454 -0.019852743 -0.24888013
0.002280226 -0.020037076 -0.23903611
0.042497307 -0.021825794 -0.23579368
-0.021922946 -0.017708693 -0.23735937
0.01393317 -0.016166909 -0.23995352
0.052797511 -0.015811048 -0.23507772
0.06528306 -0.016282385 -0.2351653
0.087226033 -0.018102689 -0.23657066
0.002263464 -0.021090021 -0.22357178
0.019831095 -0.021665689 -0.22517431
0.039019831 -0.022192303 -0.2284244
0.062368438 -0.022942614 -0.22342299
0.063217998 -0.016634263 -0.2247135
0.079647794 -0.017761368 -0.22339471
-0.020812517 -0.020873707 -0.21683165
0.0047723614 -0.02157953 -0.21782251
0.013644777 -0.021894671 -0.21827367
0.063986629 -0.023327053 -0.21797359
0.077894419 -0.023491696 -0.21440175
-0.01413723 -0.018317539 -0.21581185
-0.0070516868 -0.018020405 -0.21529976
-0.10801208 -0.039674863 -0.20019919
-0.039041713 -0.02127656 -0.20802709
0.070565291 -0.024242798 -0.20499296
-0.01488662 -0.018432975 -0.20232037
0.0066665709 -0.0182584 -0.20369206
0.020949099 -0.017594531 -0.20829324
0.085388698 -0.019099195 -0.20298374
0.093513347 -0.019972567 -0.20237781
-0.047216084 -0.021751165 -0.19322324
0.017439814 -0.023918446 -0.19074097
0.08384984 -0.024174979 -0.1982535
-0.0044177189 -0.018934911 -0.19229946
0.031949572 -0.017636228 -0.19915357
0.049449548 -0.017495031 -0.19352297
0.061512142 -0.017524445 -0.19194788
-0.022319105 -0.022483971 -0.1890461
-0.017207183 -0.023894329 -0.18379582
0.043938808 -0.025557637 -0.18184392
0.077330746 -0.0258832 -0.18174037
0.089960545 -0.020132981 -0.18777746
0.096530139 -0.021030165 -0.18253417
-0.00035679378 -0.019462217 -0.18038407
0.040315606 -0.017831059 -0.18846148
-0.0041128015 -0.097282976 -0.17090468
0.009655592 -0.092473261 -0.17109749
-0.093078487 -0.044165988 -0.17088148
-0.061685026 -0.044660881 -0.17045203
0.0074359141 -0.042902015 -0.17007831
0.014581049 -0.041595485 -0.17111893
0.023776654 -0.040916916 -0.17165941
0.041920196 -0.048427794 -0.170358
-0.071630821 -0.034955405 -0.17459145
0.010263892 -0.036323309 -0.17363054
-0.079007931 -0.028943371 -0.17321926
-0.053560793 -0.022916425 -0.17186104
-0.031107359 -0.023285331 -0.17395306
-0.027565006 -0.022212032 -0.17130607
0.068849407 -0.026099332 -0.17867671
0.091399051 -0.020688189 -0.17536756
0.10126724 -0.023475979 -0.17008482
0.037367389 -0.018655855 -0.17173758
0.077894993 -0.01940185 -0.17195517
0.0050688791 -0.10752976 -0.16543756
-0.0038097696 -0.097871237 -0.16558278
0.0029402117 -0.099740103 -0.165419
0.014816271 -0.097257502 -0.16752894
0.025403434 -0.069005758 -0.16229743
-0.10422879 -0.057876453 -0.16934857
0.018342281 -0.055698417 -0.16421537
0.023064783 -0.050677594 -0.16967601
0.031987153 -0.051344983 -0.16414604
0.040877763 -0.054343451 -0.16967601
-0.098359451 -0.048628796 -0.16516012
-0.056715071 -0.047568649 -0.16547789
-0.047250558 -0.047445305 -0.16171329
0.0055502062 -0.04669207 -0.16729873
0.014948504 -0.047469091 -0.16135269
0.024413941 -0.04732452 -0.16967601
0.034238636 -0.043396294 -0.16435048
-0.10272 -0.0391859 -0.16548869
0.040376395 -0.036624093 -0.16476136
0.090637207 -0.030781956 -0.16197725
-0.044666521 -0.023695756 -0.16561805
-0.012531882 -0.024778146 -0.16097319
0.055294193 -0.022918701 -0.16933298
0.068696342 -0.023674961 -0.16501312
0.0069507272 -0.10112332 -0.15850794
0.014783705 -0.10036343 -0.15656264
-0.061957374 -0.047897816 -0.15464091
-0.029128436 -0.044086352 -0.15386
-0.011102825 -0.042152319 -0.15231957
0.0034287227 -0.044367474 -0.15480261
0.026961992 -0.044359051 -0.15453951
0.040740654 -0.048524991 -0.159714
0.05979022 -0.04430192 -0.15672007
-0.09045735 -0.038151592 -0.15073089
0.0039317589 -0.033324167 -0.15980481
0.066672273 -0.03968522 -0.15398189
-0.10795335 -0.025576124 -0.15580058
-0.060630597 -0.024346402 -0.15233558
-0.031520046 -0.024670172 -0.15169327
-0.015327154 -0.022677876 -0.1552601
-0.0082741491 -0.025222726 -0.15688403
0.057852469 -0.027702808 -0.15594751
0.06983652 -0.027361039 -0.15468781
-0.088292085 -0.018018037 -0.1573267
-0.076535553 -0.017822312 -0.15467606
-0.054878481 -0.01618875 -0.15606046
0.025449369 -0.017620839 -0.15397272
-0.10643497 -0.0031890022 -0.15516952
-0.10964167 0.0054214578 -0.15248562
-0.081351034 -0.032246068 -0.149591
-0.075316027 -0.031417828 -0.1489231
-0.021663088 -0.037779298 -0.1496934
-0.05315996 -0.026241142 -0.14927414
-0.037401672 -0.024851291 -0.14615101
-0.0072056456 -0.02292477 -0.14993709
0.02281585 -0.020141739 -0.14848322
0.067496084 -0.028154025 -0.14955156
0.080604523 -0.028277623 -0.14779957
0.09937685 -0.02274128 -0.14057013
0.031292945 -0.019825444 -0.14943144
0.048254274 -0.019336723 -0.14802283
-0.11025865 -0.021612156 -0.1349813
-0.059170768 -0.024928335 -0.13939613
-0.046587419 -0.023352465 -0.13572745
-0.033902496 -0.024225375 -0.13451566
-0.01580593 -0.026499193 -0.13383897
0.01642159 -0.020818032 -0.13772891
0.021206954 -0.020611245 -0.13891178
0.062429957 -0.029387895 -0.13206154
0.082255311 -0.020883253 -0.13924086
0.056568183 -0.03016774 -0.12046234
-0.047076657 -0.023934133 -0.12317321
-0.012092694 -0.022390621 -0.1223596
-0.0067231115 -0.021898933 -0.12853807
0.034620885 -0.020994578 -0.1201411
0.047990888 -0.024966219 -0.12551752
0.10832988 -0.02620123 -0.12579581
-0.22336504 -0.01819499 -0.12749092
-0.21577364 -0.019025777 -0.1239179
0.06285885 -0.03027107 -0.11954257
-0.055890791 -0.026542764 -0.11514494
-0.022705957 -0.027206799 -0.11950488
0.01362576 -0.028889615 -0.11559369
0.043681018 -0.020809272 -0.11765128
0.040524825 -0.030437484 -0.10826596
-0.044633642 -0.027274758 -0.10596072
-0.035906646 -0.027600519 -0.10617277
-0.021681005 -0.028550262 -0.10037255
-0.0046756142 -0.026107593 -0.10280722
0.013601124 -0.022198059 -0.10817555
0.069613375 -0.020902794 -0.10807887
0.1002785 -0.023966473 -0.10370089
-0.22317225 -0.018353837 -0.10226654
-0.20288478 -0.021347038 -0.09365198
-0.020022675 -0.02929163 -0.090439871
-0.0076987259 -0.029218702 -0.098561913
-0.014977659 -0.030545536 -0.081898049
0.0080010556 -0.030712832 -0.085614845
0.042838745 -0.032301091 -0.082236618
0.084729329 -0.032734893 -0.084618032
-0.067117274 -0.028063774 -0.085149251
-0.050044447 -0.029573301 -0.083686173
-0.041985806 -0.026090419 -0.085647561
-0.033988465 -0.026470201 -0.085550852
-0.023576146 -0.029802969 -0.080901407
-0.019215548 -0.029871713 -0.082387455
0.024708316 -0.022971099 -0.083115801
0.030184595 -0.022795603 -0.082134046
0.045341156 -0.022114418 -0.086482152
0.064894967 -0.022181019 -0.08289244
-0.20641479 -0.01915288 -0.082106724
-0.033084638 -0.030305618 -0.076966241
0.038164072 -0.033004902 -0.073287234
0.051284004 -0.032944184 -0.077629849
0.088420108 -0.033672702 -0.073000617
-0.072655976 -0.028838173 -0.078749262
-0.068605132 -0.027737275 -0.073551506
-0.057794914 -0.029430462 -0.072615348
-0.044649228 -0.028496511 -0.07550928
-0.014655789 -0.024700034 -0.073143855
-0.0061993147 -0.024471434 -0.070764393
0.023149207 -0.022991152 -0.075597696
0.095625043 -0.024183348 -0.077090286
0.11234499 -0.026415557 -0.072832622
-0.027326509 -0.030738452 -0.06110473
0.081895486 -0.033672702 -0.067478448
-0.2118991 -0.020356202 -0.066343777
-0.078939371 -0.028962627 -0.066462979
-0.051639766 -0.026098918 -0.064991444
-0.045936838 -0.025655508 -0.061003726
-0.035185926 -0.025177538 -0.068998665
-0.0028341545 -0.023334857 -0.060242716
0.03712102 -0.023112042 -0.069716252
0.050906759 -0.021813694 -0.067735687
0.088426717 -0.02247864 -0.067138508
-0.22273332 -0.023847014 -0.050681364
-0.21911851 -0.023888975 -0.053292777
-0.20498237 -0.024070989 -0.055679861
-0.071148597 -0.027236424 -0.056912217
-0.063860103 -0.026723083 -0.058732368
-0.055272032 -0.02973574 -0.057140902
-0.047486432 -0.025510656 -0.050037563
-0.019157365 -0.023753272 -0.050448786
0.071414001 -0.021088801 -0.051488973
0.10323206 -0.023754641 -0.05272682
-0.22285305 -0.022158019 -0.045318015
-0.20686062 -0.021133449 -0.045840863
-0.086059235 -0.029216001 -0.044307489
-0.076074757 -0.027289551 -0.041273236
0.0055049262 -0.022541357 -0.045305803
0.070670091 -0.020964112 -0.04790391
0.093948089 -0.0220314 -0.043643124
-0.11597301 -0.073831134 -0.030896025
-0.10831597 -0.072590843 -0.031956367
-0.046902884 -0.077869803 -0.032962754
0.042302523 -0.071800984 -0.035554577
0.18070392 -0.071906254 -0.03421168
0.18485612 -0.069986105 -0.034840688
0.19213814 -0.063955352 -0.035083912
-0.13791904 -0.054058224 -0.030266097
-0.090658292 -0.059372202 -0.034931473
-0.020848706 -0.051648814 -0.033849794
0.083850466 -0.053688984 -0.034356922
0.1993373 -0.051405009 -0.031634044
-0.10066953 -0.049823195 -0.031641152
-0.065917015 -0.046657007 -0.031465437
-0.040184326 -0.048170105 -0.032524236
0.031028803 -0.046705142 -0.031499136
0.053075708 -0.049097009 -0.033172842
0.19567291 -0.048530336 -0.030855395
-0.015343538 -0.031323127 -0.03771041
-0.23246542 -0.024544206 -0.030332029
-0.18961909 -0.025240071 -0.031503044
-0.091547377 -0.028926911 -0.031256728
-0.068471648 -0.026658118 -0.031016931
-0.054695196 -0.025706273 -0.030284194
0.054626372 -0.020737629 -0.03501964
0.10548048 -0.02333262 -0.038662296
-0.14914161 -0.080979258 -0.022254746
-0.12471878 -0.081445575 -0.025985034
-0.091426134 -0.083302103 -0.027736856
-0.055218473 -0.085200623 -0.02765522
-0.043591082 -0.085048035 -0.027838029
0.0074669877 -0.087485567 -0.024917655
0.011666676 -0.084644064 -0.028322028
0.065147452 -0.088142008 -0.024131184
0.098619573 -0.086944997 -0.025565254
0.11574844 -0.084685773 -0.028271951
0.13280782 -0.087463722 -0.024943743
0.17539802 -0.086280055 -0.02528213
0.18590516 -0.081871308 -0.029680859
-0.16676685 -0.075227983 -0.02395827
-0.12056662 -0.079436213 -0.028174192
0.20572487 -0.078831799 -0.029928505
0.24418317 -0.075569525 -0.024242528
0.22640592 -0.062906072 -0.029083215
0.24484515 -0.069973722 -0.024861578
-0.18406716 -0.059606448 -0.021862341
-0.17035249 -0.053794179 -0.023110941
-0.12533712 -0.042129993 -0.025257414
-0.1101483 -0.042399108 -0.026502023
-0.10746568 -0.045203496 -0.028476719
-0.093022585 -0.040505264 -0.025882814
-0.058187172 -0.043634519 -0.029350441
0.16508116 -0.040183838 -0.026935942
-0.082876891 -0.036925748 -0.024041194
-0.054288905 -0.035330236 -0.023539484
-0.046745844 -0.030304655 -0.029812334
-0.022954203 -0.031094525 -0.020575631
0.016364988 -0.035524152 -0.02742371
0.085232913 -0.033672702 -0.024969276
0.091536433 -0.033672702 -0.024431648
0.12269646 -0.030072112 -0.024238015
0.18084845 -0.034718197 -0.023111289
0.19340101 -0.036596894 -0.023794062
-0.090245292 -0.029216003 -0.023283541
-0.061412625 -0.026170395 -0.021721356
-0.0083594406 -0.022785652 -0.024096349
0.057784259 -0.020608472 -0.023170816
0.09106268 -0.021240687 -0.028661264
-0.089984834 -0.092205666 -0.017937744
-0.058366135 -0.095379129 -0.010129198
0.020620883 -0.095243543 -0.010674893
0.066743217 -0.093495607 -0.017709605
0.078533903 -0.093967348 -0.015811069
0.080700755 -0.094694927 -0.012882836
0.14039791 -0.094884202 -0.012121079
0.15260929 -0.094030127 -0.015558388
-0.15650174 -0.085779265 -0.012042029
-0.11406633 -0.089341708 -0.018662056
-0.22788724 -0.062439915 -0.010633882
-0.19019583 -0.069208622 -0.019436456
-0.20699301 -0.050535101 -0.013336286
-0.16486219 -0.040426046 -0.01600674
-0.16334188 -0.032302424 -0.01115047
0.21863541 -0.036046814 -0.019465366
-0.2230958 -0.026236255 -0.014273917
-0.20442188 -0.02302026 -0.016428879
-0.18478185 -0.024119738 -0.010721101
-0.17028871 -0.023944693 -0.01075837
-0.09335693 -0.02525587 -0.013188372
-0.054788381 -0.026658427 -0.016287949
-0.042240251 -0.026464703 -0.015508159
-0.032159589 -0.024171943 -0.017817456
-0.0075714998 -0.024325807 -0.013097959
0.0112902 -0.021908356 -0.011417473
0.0242198 -0.02583532 -0.012975515
0.055046406 -0.020572959 -0.019912887
0.07378161 -0.020498298 -0.013063682
0.089799866 -0.020848747 -0.015565323
0.10435375 -0.022383703 -0.019865744
0.17386754 -0.027284179 -0.017909352
0.18924037 -0.027115718 -0.017444376
-0.17156786 -0.013272256 -0.011842486
-0.14664836 -0.019581178 -0.010899991
-0.22357294 -0.10138303 -0.0075907148
0.25108832 -0.10077001 -0.0027382695
0.2635715 -0.10680308 -0.0019004219
-0.22632846 -0.090707213 -0.0055010961
-0.066414632 -0.097743563 -0.00061329629
0.0091845375 -0.096654281 -0.0049972134
0.22420593 -0.093731768 -0.0075496486
0.23413394 -0.092375547 -0.0078086033
-0.21676713 -0.084137082 -0.0015479164
-0.14503948 -0.088958867 -0.0073409616
-0.21756646 -0.072518051 -0.0014145108
-0.20543537 -0.074447781 -0.0082654189
-0.18889785 -0.079049036 -0.0059688808
0.27576432 -0.070053741 -0.0096772108
-0.24758616 -0.063662253 -0.0044592833
-0.26278847 -0.053616643 -0.00050803937
-0.24609849 -0.050796203 -0.0039768228
-0.23411813 -0.055699468 -0.0089061223
0.24998774 -0.054300874 -0.0079202428
-0.25525549 -0.04051761 -0.0011488098
-0.23577723 -0.043898758 -0.0060404888
-0.25722319 -0.038463738 -0.00058831659
-0.24953036 -0.038687482 -0.00065745035
-0.23118065 -0.034680799 -0.0068891691
-0.22335494 -0.034018312 -0.0019293221
-0.20641969 -0.032001667 -0.0011493852
-0.19662362 -0.033690602 -0.0099608395
-0.22238618 -0.024517931 -0.0096500767
-0.21697707 -0.02723041 -0.0029404457
-0.20296331 -0.027399957 -0.0092737703
-0.19486567 -0.02444737 -0.0074987914
-0.1863164 -0.023943041 -0.0044881431
-0.17775409 -0.022611201 -0.00064490852
-0.16411708 -0.0244822 -0.0041634962
-0.13640639 -0.024764596 -0.0092229936
-0.10961226 -0.02336989 -0.0053487611
-0.079286784 -0.023050705 -0.0017689723
-0.0055584898 -0.023217831 -0.0024415983
0.063659146 -0.025075749 -0.0099187884
0.077127934 -0.023301806 -0.0027795506
0.0856767 -0.020407189 -0.0047054412
0.090178795 -0.020686861 -0.0062064151
0.10146748 -0.024903564 -0.0092258342
0.1738625 -0.023575794 -0.00388222
0.18886533 -0.024685293 -0.0083474005
-0.18647368 -0.010893077 -0.00337139
-0.16859201 -0.018616006 -0.00053592003
-0.15848063 -0.012339565 -0.0012202192
-0.14531209 -0.015523059 -0.0012603574
-0.11549638 -0.016142046 -0.00081666617
-0.10915644 -0.019958429 -0.0010212804
-0.24314 -0.0041751433 -0.0075195362
-0.21216267 -0.00088711211 -0.0034601558
-0.16595387 -0.003582441 -0.0062222839
-0.14077598 -0.009353647 -0.0064290697
-0.27558029 0.00020095939 -0.0019251853
-0.23364249 0.0020020851 -0.0017453949
-0.19895679 0.0077943932 -0.0038964993
-0.18573794 2.5406043e-05 -0.00070039718
-0.17445907 0.001417615 -0.0016948546
-0.23614268 0.01226444 -0.0015550044
-0.18080373 0.013297644 -0.0024162638
-0.23789397 0.027334254 -0.0014216821
-0.22847152 0.028887101 -0.0021390296
-0.19965142 0.045992088 -0.003110704
-0.22953251 0.057800107 -0.0020582171
-0.23874205 0.084464625 -0.00088638614
-0.22316635 0.092715353 -0.0022015499
-0.22509694 0.10458714 -0.00217441
0.26157695 -0.10819267 0.0019235977
-0.10644051 -0.094392344 0.0053609079
-0.011747736 -0.096566528 0.0053501092
0.051971119 -0.097194932 0.0028209817
0.10254714 -0.096220806 0.0067415233
0.126037 -0.096488304 0.0056649148
0.14427903 -0.097678311 0.00087550777
0.16052499 -0.096694902 0.0048334179
0.18067595 -0.097420573 0.0019128049
0.21198916 -0.096065313 0.0026949132
0.25102913 -0.091187254 0.0073401602
-0.22352944 -0.086724341 0.0002109269
-0.16625294 -0.084272295 0.0078686299
0.24257314 -0.089528263 0.0073401602
0.26400289 -0.083852366 0.0073401602
-0.22239816 -0.074252784 0.0026089437
-0.24796477 -0.059864726 0.0067897416
-0.22572529 -0.054342054 0.00806682
-0.21575728 -0.054173294 0.0073848702
-0.20397536 -0.055228278 0.00806682
-0.24240813 -0.049645856 0.0046423916
-0.23568872 -0.046364866 0.006446478
-0.21598378 -0.047919519 0.0077258451
-0.20194104 -0.048167881 0.00806682
-0.23441835 -0.032269597 0.0063688718
-0.22935434 -0.032578278 0.0010597953
-0.27122799 -0.022114892 0.0032924551
-0.19311343 -0.027310038 0.009989257
-0.17059673 -0.022635251 0.0026174602
-0.16948956 -0.025625683 0.0066763116
-0.14501114 -0.024357801 0.0070301127
-0.12910149 -0.022334192 0.0082010776
-0.013603838 -0.022870874 0.0029568996
0.032645755 -0.022867577 0.0010315663
0.058855239 -0.024242569 0.0065652514
0.09851566 -0.021372057 0.0022165503
0.1477631 -0.024605319 0.0080253175
0.18744463 -0.023008378 0.0015982769
-0.19581394 -0.015866082 0.004179968
-0.15505274 -0.017001595 0.001541622
-0.14173378 -0.013319145 0.0010222847
-0.13490471 -0.014051527 0.0089123184
-0.11457779 -0.015238344 0.0007280244
-0.084420823 -0.012560094 1.1050924e-05
-0.22600597 -0.0018003682 0.0055239541
-0.19182304 -0.0031079964 0.0036012274
-0.17842439 -0.0020859826 0.0078158937
-0.2237317 0.00084360235 0.002284447
-0.22201289 0.015699482 0.0023346238
-0.19772598 0.013913635 0.0036700345
-0.23016089 0.029974714 0.0020102472
-0.22063915 0.023320768 0.0021620551
-0.21019363 0.02783313 0.0031109634
-0.23615712 0.035570063 0.0015537688
-0.2352712 0.042978916 0.0016211994
-0.21689816 0.043029573 0.0034571111
-0.21862307 0.050393499 0.0022222304
-0.20939995 0.05058771 0.0036390978
-0.22792386 0.06966377 0.0021806883
-0.23425572 0.077710435 0.0016621551
-0.23571932 0.093802661 0.001160757
-0.22990966 0.090100527 0.00202949
0.027937682 -0.094090112 0.015316916
0.046551913 -0.093421824 0.017805643
0.055990443 -0.094130337 0.015155037
0.078357294 -0.095372893 0.01015411
0.09375342 -0.094634846 0.013124527
0.12735206 -0.094985776 0.011712134
0.14954215 -0.091708228 0.019858269
0.1500361 -0.095313422 0.010393476
-0.13530102 -0.086920686 0.018743895
0.22878794 -0.089407727 0.018739894
0.25059742 -0.083575748 0.017416555
-0.18395901 -0.079338446 0.011568216
-0.21105208 -0.056777194 0.014058869
-0.19581133 -0.057434615 0.018041346
-0.17236888 -0.044020981 0.017565342
-0.17770556 -0.03255751 0.010233824
-0.15876028 -0.031156691 0.012435517
0.21667886 -0.030219134 0.010532819
-0.2191734 -0.024139225 0.012245832
-0.20233858 -0.023486095 0.011799275
-0.19097637 -0.024538893 0.012347291
-0.14376406 -0.026732227 0.010045414
-0.12334438 -0.027057491 0.013569768
-0.057028152 -0.025867462 0.017956767
-0.016785098 -0.023221269 0.018641699
-0.0076094698 -0.022648197 0.012885497
0.00039643142 -0.022336859 0.012475841
0.074453063 -0.020487562 0.012078386
0.10849597 -0.026689183 0.016412033
-0.25615782 -0.014868964 0.011923358
-0.24108039 -0.014712578 0.013411833
-0.2077689 -0.011907653 0.013232959
-0.27349961 0.00090762321 0.015829818
0.0050191656 -0.091547817 0.020050423
0.10201601 -0.090493694 0.021313157
0.14266686 -0.090563715 0.021229269
0.15390636 -0.090667769 0.021104587
-0.11473996 -0.087695062 0.020739324
-0.081993833 -0.083060019 0.028981606
-0.050976638 -0.083445922 0.029757438
-0.041519158 -0.087662973 0.024704788
0.041883599 -0.088825442 0.023311973
0.07162822 -0.085447423 0.027359344
0.097195059 -0.0866272 0.025945764
0.10948463 -0.088118643 0.024158681
0.12100194 -0.085121319 0.027749717
0.14711459 -0.085205913 0.027648479
0.19018245 -0.082039937 0.029405344
0.20642678 -0.088718966 0.022485703
0.24498686 -0.075580269 0.023938857
-0.18801203 -0.069950856 0.020093406
-0.1723697 -0.060098045 0.024715425
-0.14972825 -0.067895584 0.029622875
0.23409608 -0.062594876 0.026792267
-0.16385499 -0.054363325 0.024644233
-0.15714258 -0.04748302 0.023216773
-0.043126889 -0.042457849 0.028527057
-0.021638475 -0.040008046 0.026812799
0.0033088457 -0.040161081 0.026919939
0.14119133 -0.040326066 0.027035387
-0.11449376 -0.036536004 0.021449808
-0.064025305 -0.036000952 0.024008822
-0.023473481 -0.031117883 0.029938607
-0.013447022 -0.031450648 0.021614352
0.0030347295 -0.031995993 0.026904546
0.026027683 -0.032756772 0.023715798
0.10450445 -0.037005253 0.024711654
0.11686504 -0.031349298 0.02654778
0.13003217 -0.036914777 0.024648342
0.15462916 -0.033201322 0.021951519
0.21918397 -0.03734681 0.020245073
-0.2239399 -0.023545621 0.026068861
-0.08000572 -0.029215999 0.024990808
-0.058641039 -0.0259789 0.023137975
-0.049088947 -0.025318924 0.02720112
0.00808114 -0.022185815 0.027331488
0.029967001 -0.021410422 0.027281445
0.048949622 -0.020658597 0.020837104
0.054796785 -0.020666847 0.027386226
0.07141313 -0.082765229 0.030572988
0.083430365 -0.082217388 0.03110595
0.15587798 -0.082536504 0.030719416
-0.084244162 -0.07780467 0.031976052
-0.063881382 -0.07675235 0.033439975
-0.054587781 -0.07927303 0.032363482
0.046089128 -0.072118402 0.035418965
0.057893123 -0.071519144 0.035674915
0.074168071 -0.074252918 0.034507349
0.18553644 -0.074381724 0.032905988
-0.076592214 -0.066439271 0.03736347
-0.034109924 -0.068411529 0.037002053
0.056213152 -0.067979634 0.037186544
0.071627557 -0.062663734 0.036586851
0.090400703 -0.06122623 0.036229651
0.11378911 -0.060360931 0.036014583
0.13718271 -0.069676571 0.036461744
0.20510896 -0.063971221 0.034112487
0.21382515 -0.060397036 0.032058105
-0.11913597 -0.050340164 0.030517783
-0.10278233 -0.0591323 0.034070224
-0.097236484 -0.053835791 0.032862071
-0.022696547 -0.057554916 0.035317313
0.052712005 -0.058462918 0.035542972
0.14890265 -0.05403915 0.034443647
0.18204513 -0.049330764 0.031914137
-0.04394263 -0.030378271 0.032212906
0.063253962 -0.033672702 0.032615975
0.07602182 -0.033672702 0.033435848
-0.22753048 -0.023338364 0.033691209
-0.1908448 -0.023322217 0.036410559
-0.081083193 -0.029216001 0.035743166
0.02616154 -0.0217261 0.03979338
0.097885743 -0.022093941 0.032587305
-0.03523697 -0.030539911 0.048919287
-0.023415636 -0.03099734 0.041951109
0.03898761 -0.033152204 0.045528002
0.085232258 -0.033672702 0.041604768
0.10268963 -0.033672702 0.044365585
0.11857551 -0.030271741 0.043451387
-0.23068899 -0.023141742 0.040608961
-0.079432845 -0.029216003 0.048010211
0.063790113 -0.033672702 0.059580699
0.070533261 -0.033672702 0.053378671
0.086931191 -0.033672702 0.055465933
0.093679108 -0.033672702 0.051496103
-0.22900346 -0.021934837 0.056415901
-0.076421417 -0.027719187 0.054139081
-0.034435652 -0.024873298 0.05804893
0.011640868 -0.022604363 0.053454101
0.087516136 -0.022043223 0.059863567
-0.040808834 -0.030237077 0.060483776
0.037149064 -0.032988202 0.06887608
0.041237645 -0.033152357 0.063942507
0.059836991 -0.033672702 0.067806132
0.089253575 -0.033672702 0.064198576
-0.05214794 -0.029761519 0.063932359
-0.047417507 -0.029876735 0.068618611
-0.019669997 -0.024155103 0.06239216
0.0044333949 -0.023147434 0.062140513
0.03499727 -0.023272943 0.067605786
0.04077265 -0.022046583 0.065395549
0.073367298 -0.021676112 0.068375155
-0.011713522 -0.031115577 0.07680086
0.014635665 -0.032157071 0.073469318
0.071377501 -0.033226699 0.077646688
0.10935011 -0.030248459 0.077946678
-0.19643997 -0.021133153 0.0792735
-0.076573923 -0.029216001 0.076690368
-0.056306176 -0.026472341 0.075580917
-0.041234609 -0.025752375 0.076802179
0.053249449 -0.022490345 0.071977004
0.097928502 -0.024686543 0.070014492
0.10805483 -0.025926596 0.076692566
0.11681554 -0.02884551 0.076158337
-0.21746197 -0.01988719 0.078454755
-0.2034843 -0.019675801 0.075965397
0.016608335 -0.032080524 0.084598221
0.070064396 -0.033672702 0.080048911
-0.22023326 -0.021424975 0.089453205
-0.064899534 -0.026980868 0.087134466
-0.053294249 -0.026549017 0.080747031
0.00099910423 -0.024216294 0.089424036
0.022594739 -0.023239585 0.081703439
0.079988711 -0.02250066 0.088345274
0.080038756 -0.02227691 0.084765665
0.09611439 -0.02403751 0.083968714
-0.20426682 -0.019097542 0.084854752
0.019991647 -0.030513948 0.0953978
0.033715032 -0.030933321 0.097093657
-0.060680345 -0.02785119 0.091818333
-0.043134633 -0.028110508 0.094559565
-0.013463589 -0.023691421 0.094565079
0.042112697 -0.021642787 0.099700853
0.056887612 -0.021315852 0.097722083
0.10770938 -0.026979728 0.096143514
0.060613755 -0.031597447 0.1007413
0.073528796 -0.031151602 0.10706107
-0.2016166 -0.020585496 0.10426787
-0.041172482 -0.027141925 0.10989854
0.079899654 -0.021714699 0.10470519
0.1036929 -0.028985664 0.10367952
-0.062326021 -0.026273657 0.11892986
-0.055495288 -0.025635781 0.11626796
-0.015882352 -0.027884213 0.11347219
-0.0041392334 -0.022528157 0.11319706
0.019742703 -0.028969953 0.11791746
0.027888529 -0.021367332 0.11660005
0.052997008 -0.020532984 0.1173512
0.10708693 -0.027414214 0.11458893
-0.2261681 -0.01862115 0.11604884
-0.21416122 -0.019968178 0.1110422
-0.20814383 -0.017379491 0.11295797
-0.033233978 -0.02619822 0.12829149
-0.016524103 -0.026956361 0.12672362
-0.0014139966 -0.021980083 0.12434479
0.0064220368 -0.021732276 0.12419906
0.036943674 -0.029149143 0.12512815
0.067207329 -0.029768184 0.12667091
0.086726457 -0.021555608 0.12710272
0.018197369 -0.020717572 0.13871199
0.071766727 -0.020054381 0.13346425
-0.0013037387 -0.092752025 0.14985043
-0.013132749 -0.034048527 0.14889914
-0.10485275 -0.025039654 0.14373243
-0.061536446 -0.02448252 0.14959463
-0.0346343 -0.025233451 0.14165078
-0.013564155 -0.025498729 0.14981154
-0.0051138932 -0.021037001 0.14695957
0.00066977274 -0.020898771 0.14759505
0.032842822 -0.028583996 0.14876828
0.047000211 -0.028009407 0.14761007
0.011423189 -0.094356887 0.15762199
0.0091685792 -0.055787887 0.151117
0.013679556 -0.051999308 0.151117
0.017747879 -0.045880355 0.15152308
0.042150982 -0.040861029 0.15106803
0.044428319 -0.035648525 0.1560149
-0.10430058 -0.027502773 0.15662839
-0.050526608 -0.024137104 0.15641607
-0.030943606 -0.024784099 0.15035763
-0.018914524 -0.025261322 0.15023509
0.031354208 -0.026621714 0.15902686
-0.052905075 -0.019124728 0.15279174
-4.0346757e-05 -0.015478177 0.15802942
0.01104743 -0.017226085 0.15428713
0.053859077 -0.01974098 0.15668789
0.0045945905 -0.089578703 0.16836557
-0.093205363 -0.051326916 0.16569895
-0.088584721 -0.051943317 0.16652316
0.028459447 -0.055471092 0.167474
-0.11008027 -0.047171652 0.16670781
-0.057059415 -0.048544489 0.16316363
-0.048893131 -0.045680672 0.16705133
-0.005340917 -0.046791092 0.167474
0.030207913 -0.043658763 0.16947618
0.057494707 -0.044480212 0.16679661
-0.10948456 -0.036313061 0.16455048
-0.10366865 -0.025529573 0.16401184
-0.046646636 -0.022459293 0.16617671
-0.03942363 -0.023871275 0.16293071
-0.026169144 -0.021201344 0.1633043
-0.013382569 -0.020560518 0.16472667
-0.0091395276 -0.020371139 0.16467595
0.055431161 -0.023678262 0.16760129
0.063405201 -0.022257935 0.16551612
0.098672986 -0.024749864 0.16175529
-0.057025701 -0.015142847 0.16364498
-0.0078374846 -0.01530733 0.16444838
0.023729254 -0.017146347 0.16864437
0.061951507 -0.01881936 0.16024461
0.080238737 -0.019941017 0.16004851
-0.023993855 -0.03109473 0.17477663
0.068429247 -0.033949602 0.17029965
-0.072489463 -0.021882417 0.1714305
-0.034943257 -0.025480898 0.17362043
-0.022338931 -0.021974422 0.17511274
-0.019640431 -0.023796093 0.17325102
-0.0093587385 -0.024203289 0.17123133
0.0028540352 -0.024165232 0.17877693
0.023851883 -0.025486995 0.17138964
0.030177796 -0.021445662 0.1720687
0.058036778 -0.026312741 0.1756517
0.074653819 -0.026559575 0.1721528
0.029186631 -0.019680265 0.1706626
-0.10608467 -0.033983998 0.18320101
-0.021225695 -0.022669522 0.18695411
-0.0085014962 -0.022981158 0.18965968
-0.11050203 -0.010902779 0.18018916
0.0026285928 -0.019000459 0.18967649
0.039162114 -0.01791398 0.18741764
0.057641495 -0.017995996 0.18096204
0.040181853 -0.024177274 0.19995561
0.083668128 -0.018995125 0.19925527
-0.030310243 -0.021566033 0.20384213
-0.022655543 -0.021366121 0.20810452
0.010593615 -0.022646964 0.20548923
0.045872554 -0.024193501 0.20297313
0.079439491 -0.02399932 0.20683131
0.094187416 -0.021934699 0.20267873
0.0045097265 -0.017871125 0.20481351
0.031400956 -0.017557992 0.20135608
2.7637929e-05 -0.021264529 0.21973513
0.011570482 -0.0222707 0.21157072
-0.0057838871 -0.017802689 0.21890014
0.012846796 -0.017560896 0.21509208
0.045622654 -0.016804302 0.2108418
0.06023933 -0.016769242 0.21058503
0.0054119271 -0.02090906 0.22803292
0.064422652 -0.023000471 0.22260283
-0.030871829 -0.018826671 0.225033
-0.01193949 -0.017826941 0.22459349
0.026544791 -0.016658822 0.22559148
0.039141305 -0.016078632 0.22952771
0.063905075 -0.016669819 0.22609857
0.0099923257 -0.020704893 0.2336501
0.030269638 -0.021398261 0.23507392
0.059808552 -0.022259545 0.23310548
0.081154838 -0.021263983 0.23663777
-0.01131439 -0.019675467 0.23859359
-0.0057963026 -0.01714881 0.23358282
0.0014462322 -0.016959202 0.23424676
0.030478006 -0.016179997 0.23364756
0.05572927 -0.015500148 0.23046926
0.032996505 -0.021050699 0.24173534
0.067992263 -0.021350594 0.24598978
-0.030397154 -0.017836915 0.24936101
-0.0094529372 -0.019323202 0.24489409
0.02255445 -0.016150817 0.24021125
0.066614561 -0.016083732 0.24523012
-0.024075113 -0.016934045 0.25880465
-0.0115089 -0.016579533 0.25214341
0.013650378 -0.019571714 0.25237519
0.037139159 -0.015022514 0.25551721
-0.037746824 -0.017661532 0.26860362
0.0049369535 -0.016827591 0.26711243
0.0483061 -0.013980947 0.26940879
0.062099088 -0.019666258 0.26986516
-0.034037825 -0.01723123 0.27702096
-0.0096713677 -0.017413491 0.27797741
0.012275565 -0.015010627 0.27400857
0.020892173 -0.018064376 0.2786423
0.036225293 -0.014170079 0.27183092
-0.026472863 -0.01602572 0.28822535
-0.017279783 -0.015257495 0.28882033
-0.0096937492 -0.014913513 0.28768209
0.00094441324 -0.017125057 0.28408259
0.023466451 -0.014278583 0.2824733
0.049775727 -0.018857729 0.28132603
0.056999285 -0.018659944 0.28412956
-0.0022117519 -0.016609434 0.29269272
0.066348433 -0.014094718 0.29491049
-0.021302355 -0.015449587 0.30983058
-0.013457732 -0.015346609 0.31315571
0.022721298 -0.012997521 0.31240943
0.057104539 -0.013128749 0.31048596
0.00041197985 -0.012788039 0.32512805
0.012604155 -0.012833869 0.32197288
0.041747548 -0.013952386 0.32576847
0.060966797 -0.015780594 0.3249442
0.042377479 -0.011584672 0.33985627
0.051426105 -0.011951482 0.3364839
0.06976299 -0.012773324 0.33445072
-0.010666937 -0.013523551 0.34479603
0.022153066 -0.01138937 0.34971571
0.043370046 -0.014065811 0.34925115
0.051566649 -0.011666893 0.34276858
-0.010424766 -0.012153443 0.3558403
-0.0058886195 -0.011832166 0.35587254
0.0083901491 -0.01210242 0.35689616
0.01973257 -0.013143508 0.35506043
0.025237849 -0.011666161 0.35701099
0.067685544 -0.013031206 0.35702711
-0.0066106892 -0.011650871 0.36162597
0.061752804 -0.012798505 0.36445773
-0.00010364479 -0.011827726 0.37569669
0.0099618398 -0.010409326 0.37470847
0.021377446 -0.011867339 0.37735385
-0.0061431341 -0.010831866 0.38449484
0.00094964821 -0.010135121 0.3855637
0.039782945 -0.0087940563 0.38809744
0.046368867 -0.009753203 0.3850292
0.032897659 -0.0082927961 0.39173362
0.045173034 -0.0088304728 0.39038366
