# .PCD v0.7 - Point Cloud Data file format
VERSION 0.7
FIELDS x y z
SIZE 4 4 4
TYPE F F F
COUNT 1 1 1
WIDTH 784
HEIGHT 1
VIEWPOINT 0 0 0 1 0 0 0
POINTS 784
DATA ascii
-0.10289599 0.0023000261 -0.32017794
-0.11645392 -0.00066139328 -0.31488734
-0.1014061 -0.0022680103 -0.31511837
-0.09589044 0.00022704259 -0.31144059
-0.090782464 -0.0017346537 -0.30384931
-0.088875026 -0.0014867262 -0.3097415
-0.10242957 -0.0095971953 -0.28434181
-0.097670674 -0.0089587038 -0.28010881
-0.080549031 -0.0062273573 -0.28423613
-0.087703094 -0.011715489 -0.27839643
-0.084935874 -0.0081448071 -0.277549
-0.076585226 -0.014191483 -0.26711199
-0.060576253 -0.012124982 -0.25923383
-0.087306723 -0.017554285 -0.24773011
-0.075633653 -0.016778529 -0.24831793
-0.067052431 -0.015951436 -0.24057505
-0.052217267 -0.015013563 -0.2448608
-0.075738817 -0.021521708 -0.23081386
-0.061233521 -0.020380955 -0.23890319
-0.056670923 -0.022184465 -0.2303285
-0.086292334 -0.019574106 -0.23680562
-0.070671722 -0.017458133 -0.23622897
-0.041009717 -0.019423289 -0.23478059
-0.056918085 -0.035447497 -0.22139187
-0.04620884 -0.039538901 -0.22412872
-0.036025006 -0.031742543 -0.22343701
-0.086580783 -0.022568973 -0.22423513
-0.066824764 -0.02518088 -0.22071232
-0.055244066 -0.026726495 -0.22121963
0.0018492527 -0.028401565 -0.22256805
-0.04599129 -0.018262839 -0.22405288
-0.055917758 -0.024578903 -0.21887083
-0.047961727 -0.025972184 -0.21152093
-0.08199434 -0.030109648 -0.20162666
-0.063949347 -0.023280911 -0.20736051
-0.056179766 -0.027074346 -0.203403
-0.049674787 -0.027802894 -0.20134124
-0.062279623 -0.030812882 -0.19971268
-0.061350562 -0.02776232 -0.19845718
-0.057811283 -0.029262936 -0.1955803
-0.025478799 -0.026155151 -0.19448513
-0.015010801 -0.027261451 -0.19256108
-0.040238347 -0.030995408 -0.18358923
-0.056609891 -0.029767456 -0.18720272
-0.036570899 -0.025230706 -0.18289082
-0.018995214 -0.024519105 -0.1892658
-0.020913541 -0.032029502 -0.17783913
-0.0046105119 -0.028592221 -0.17383215
-0.055888403 -0.031462979 -0.16862902
-0.038748864 -0.033918768 -0.16531
-0.021236407 -0.034590803 -0.16216607
-0.010131706 -0.034723509 -0.16130719
-0.017022772 -0.027205803 -0.16356786
0.000982848 -0.029874429 -0.16441956
-0.049658 -0.035902373 -0.159649
-0.012020579 -0.036286741 -0.15119006
-0.022640008 -0.02872928 -0.15661296
-0.0076153125 -0.028418936 -0.15398975
-0.038243104 -0.032977995 -0.14329857
-0.028591026 -0.031798773 -0.14372593
-0.017614104 -0.036487631 -0.1498899
-0.0057247495 -0.037672076 -0.14222428
0.013150761 -0.034037966 -0.14671442
-0.042508148 -0.03684568 -0.13970807
-0.013457963 -0.031751432 -0.1346876
0.00061205938 -0.038604744 -0.13618813
-0.046291769 -0.042123012 -0.12632431
-0.019816108 -0.040208377 -0.121031
0.018182209 -0.040308967 -0.12219623
-0.01688409 -0.034832329 -0.12047925
0.010111255 -0.039822269 -0.12830836
-0.035832878 -0.03881298 -0.11101869
-0.017331904 -0.035061538 -0.11955373
0.011595814 -0.033586603 -0.11462772
0.031452738 -0.037071511 -0.11497238
0.029010836 -0.055370707 -0.108618
0.044641905 -0.054926202 -0.10667554
-0.010828685 -0.043159902 -0.10737936
-0.0036872558 -0.041480776 -0.10459253
0.028287251 -0.042844348 -0.10570532
0.047419842 -0.045962229 -0.105902
0.057785757 -0.043925349 -0.10737973
-0.0059923343 -0.037408844 -0.10561914
-0.35285631 -0.014276435 -0.10631268
-0.34297505 -0.013813959 -0.10803205
-0.026589217 -0.044182051 -0.094314516
0.024683658 -0.035869598 -0.097938411
-0.33170718 -0.013147997 -0.094802804
-0.033102501 -0.045238577 -0.086246774
-0.014114772 -0.047510583 -0.083748639
0.014110395 -0.046310578 -0.083589219
0.04945175 -0.045227155 -0.083747588
0.033221282 -0.037654128 -0.081088945
-0.33618224 -0.01554697 -0.085110754
-0.32390881 -0.018176535 -0.080222882
0.019805308 -0.050163209 -0.075117119
-0.031512819 -0.046463326 -0.07108184
-0.0037318617 -0.042354964 -0.074609645
0.0087036127 -0.04018756 -0.076356851
0.038648833 -0.049621351 -0.076790497
0.028547799 -0.038395394 -0.074089892
-0.33473775 -0.016700178 -0.077144474
-0.01473449 -0.051192939 -0.065616861
0.024056671 -0.052194659 -0.066494569
-0.0074805422 -0.043812495 -0.069357686
0.011566255 -0.041458499 -0.066359244
0.020297442 -0.039673652 -0.069131792
0.06007947 -0.051667392 -0.059759185
-0.012319563 -0.046973586 -0.055059068
0.021479527 -0.041114498 -0.059620839
0.037729256 -0.040108122 -0.05791834
-0.31019413 -0.020564845 -0.058883592
0.021781387 -0.057558306 -0.044206463
-0.018123001 -0.048769698 -0.049633227
-0.0068017039 -0.047141157 -0.049198598
0.0052066087 -0.046858735 -0.04056165
0.024515159 -0.04326795 -0.044154122
-0.34044224 -0.019730493 -0.049980626
-0.32102299 -0.01865845 -0.043629892
0.081874281 -0.061166052 -0.030804483
-0.024163902 -0.054857176 -0.035666514
-0.0048846779 -0.057856992 -0.031904392
0.0055517135 -0.05905826 -0.035357889
0.035523809 -0.055744246 -0.035989217
0.041095313 -0.056825787 -0.032334857
0.0013209824 -0.048145141 -0.03526511
0.043006252 -0.042081606 -0.03335344
0.056951184 -0.041731477 -0.031710006
0.093349583 -0.049924634 -0.030226722
-0.0069886027 -0.03226408 -0.030070171
-0.31477964 -0.019435227 -0.034656849
-0.06398727 -0.061077755 -0.020788733
-0.025291784 -0.06488692 -0.021126609
-0.012410018 -0.067075416 -0.026612546
0.02454414 -0.068139158 -0.024723416
0.037466139 -0.060382605 -0.028500197
0.048642974 -0.065867625 -0.028049197
0.06252189 -0.06512022 -0.020364678
0.087617576 -0.06577564 -0.02656224
0.091479093 -0.067209147 -0.023175623
-0.21579182 -0.051488861 -0.022077058
-0.18594342 -0.052961402 -0.022465754
-0.14121827 -0.055194706 -0.020333277
-0.076057702 -0.055154208 -0.023813289
-0.065713331 -0.053911217 -0.027522147
0.0041065654 -0.053209201 -0.028118808
0.036744617 -0.053165775 -0.028136022
0.056209818 -0.054248177 -0.02770685
0.068232819 -0.053738829 -0.027870607
0.072163947 -0.05597664 -0.027021514
0.097856909 -0.05571701 -0.027258892
0.10242423 -0.051593442 -0.025817897
0.22488429 -0.050659195 -0.024232332
0.30369991 -0.050759807 -0.020069275
-0.23458931 -0.0437865 -0.024441749
-0.1628629 -0.048246928 -0.026083365
-0.150272 -0.049304657 -0.025271721
-0.10371089 -0.043229111 -0.028188655
-0.092476472 -0.044272259 -0.027756575
-0.089121819 -0.045364622 -0.027304146
-0.061086372 -0.049837895 -0.026326308
-0.05320438 -0.0436549 -0.02584964
-0.046483412 -0.048945941 -0.029250056
-0.035058133 -0.0468175 -0.027638376
-0.0060717352 -0.046817496 -0.024044873
0.0039236899 -0.046655886 -0.026258368
0.024728037 -0.045310199 -0.028634101
0.044209536 -0.046817496 -0.024211571
0.058302034 -0.049072959 -0.029242594
0.073163144 -0.045699935 -0.028424598
0.085882433 -0.043425575 -0.023699902
0.094816148 -0.04566155 -0.021578258
0.10748839 -0.046050843 -0.02493
0.11601889 -0.047540098 -0.026402988
0.20638931 -0.0460684 -0.026951788
0.22566193 -0.045398057 -0.027290264
0.26304162 -0.046167608 -0.026847854
0.29144391 -0.047591854 -0.024206597
-0.26745364 -0.031511869 -0.021308929
-0.24493982 -0.035253502 -0.025110699
-0.22747073 -0.035300061 -0.028451279
-0.20205653 -0.035444155 -0.028486747
-0.048075765 -0.039089147 -0.029828653
-0.03234186 -0.039761782 -0.029789219
-0.020514371 -0.03713119 -0.02981104
-0.011746661 -0.037275385 -0.022568185
-0.005993756 -0.037230376 -0.022477323
0.013209485 -0.034602914 -0.029982317
0.029059848 -0.037419625 -0.022859365
0.037375521 -0.039287485 -0.026630113
0.15843642 -0.030460685 -0.029832592
0.16322599 -0.031109858 -0.029918039
0.26564685 -0.03857816 -0.029458694
-0.30563366 -0.024763718 -0.021937603
-0.29605699 -0.024474813 -0.027611533
-0.26016611 -0.023749331 -0.022213962
-0.25449878 -0.021690428 -0.022329347
-0.23771378 -0.021187406 -0.024745885
-0.19631124 -0.023845166 -0.028551403
-0.1374308 -0.024609843 -0.028868051
-0.10815724 -0.026524108 -0.029314267
-0.066437647 -0.021704149 -0.027664667
-0.047094863 -0.02963992 -0.02972471
-0.035276748 -0.026197925 -0.029271409
-0.028785026 -0.029803686 -0.02974629
0.055132601 -0.025137693 -0.028572787
0.10252582 -0.021847483 -0.027723912
0.22717172 -0.02903807 -0.029645236
0.24492452 -0.025007673 -0.029032769
0.27608737 -0.029095603 -0.027433915
0.31537452 -0.02174532 -0.021022201
-0.22579449 -0.01324082 -0.021310005
-0.1834152 -0.017986691 -0.026109928
-0.1795824 -0.012380658 -0.021808572
-0.15603837 -0.014370617 -0.02333549
-0.13548073 -0.01533447 -0.024075078
-0.11720376 -0.015470009 -0.02386507
-0.10674565 -0.018927619 -0.026514281
-0.086407989 -0.019251719 -0.026648555
-0.05156678 -0.014413789 -0.023368489
-0.046962023 -0.013786728 -0.022887342
-0.02994756 -0.015282412 -0.024035048
-0.015597803 -0.015233044 -0.023428634
0.025752801 -0.018239498 -0.026229363
0.082688473 -0.017480325 -0.025721353
0.1044274 -0.015600718 -0.024278989
0.14747411 -0.01143816 -0.020899484
0.17424253 -0.014987782 -0.02380891
0.18817244 -0.012080128 -0.021470346
0.2040042 -0.01218232 -0.021656316
0.21837364 -0.016571013 -0.025023656
0.22540845 -0.017951529 -0.025306694
0.2362363 -0.017786443 -0.024035038
0.24868029 -0.016521841 -0.024985898
0.25159937 -0.015271598 -0.024026772
0.26688296 -0.018905062 -0.021125011
0.28808701 -0.018153455 -0.022139838
0.29190096 -0.01391802 -0.020147173
-0.13164029 -0.061027791 -0.010705348
-0.041421294 -0.061960824 -0.018123435
-0.026332874 -0.065673567 -0.017976485
0.004526692 -0.065721139 -0.016944241
0.024629038 -0.062050853 -0.01785126
0.041410603 -0.06161369 -0.018893516
0.056633025 -0.0690623 -0.016431391
0.066744849 -0.0690623 -0.017558899
0.074606396 -0.062235616 -0.014990212
0.11317308 -0.066025861 -0.01603226
0.23607576 -0.061319243 -0.010001753
-0.18903562 -0.056151375 -0.019086698
-0.17911202 -0.059832808 -0.013590162
-0.16211796 -0.059891872 -0.013447499
-0.10117863 -0.058664862 -0.015811123
-0.086761028 -0.052357357 -0.015515588
-0.030478513 -0.05588207 -0.019115079
-0.023900321 -0.054742478 -0.013334458
-0.0010691956 -0.059158228 -0.015751934
0.10200066 -0.058878981 -0.015532075
0.25318682 -0.056229293 -0.01898516
0.27840427 -0.059965134 -0.012339409
0.30055201 -0.054209352 -0.017145718
0.31399512 -0.054309942 -0.013720991
0.3223156 -0.053105429 -0.012843821
-0.27677584 -0.043899681 -0.010824629
-0.26869833 -0.043556094 -0.015303874
-0.017811371 -0.046817496 -0.017494837
0.026303988 -0.0468175 -0.014421023
0.089276984 -0.042356983 -0.01360945
0.11629594 -0.04841492 -0.014019655
0.32430452 -0.040484343 -0.01856786
-0.26169538 -0.039890792 -0.01990981
-0.014519532 -0.036858998 -0.0193073
0.022106759 -0.036858998 -0.016149497
0.039096512 -0.036858998 -0.010061139
0.06661661 -0.036858998 -0.014815074
0.072844855 -0.036858998 -0.01883929
0.080956236 -0.037032787 -0.011308793
0.092786007 -0.038222019 -0.01645273
0.32340097 -0.035688132 -0.013569905
0.34501332 -0.034590542 -0.014925907
-0.32247049 -0.02433862 -0.011977426
-0.31708559 -0.024640579 -0.013179997
-0.30326712 -0.021256471 -0.015311112
-0.29333097 -0.025001727 -0.017101001
-0.28705591 -0.02594736 -0.015183074
0.22307847 -0.026976284 -0.011256406
0.24090201 -0.023936288 -0.012214711
0.25454649 -0.024734337 -0.015411353
0.26794451 -0.026296437 -0.013823017
0.28808701 -0.023569068 -0.016645379
0.3145231 -0.024277747 -0.013155775
0.32428414 -0.027013401 -0.015004196
-0.2751466 -0.011234084 -0.01071215
-0.24387863 -0.014439072 -0.019663773
-0.15664814 -0.010324616 -0.019448295
0.19982293 -0.010054052 -0.019095547
0.22007376 -0.016647812 -0.019552244
0.26695102 -0.011535889 -0.017502259
0.30785641 -0.013411553 -0.016035868
-0.21603028 -0.0064393315 -0.012457671
-0.18557189 -0.0072850119 -0.015487106
-0.1744751 -0.0060138162 -0.012740361
-0.14783321 -0.0089480681 -0.017654372
-0.13551405 -0.0061439937 -0.013054663
-0.12343849 -0.0057182885 -0.012026801
-0.094323538 -0.0051399474 -0.010630405
-0.075868882 -0.007912904 -0.016305288
-0.05837661 -0.0053017228 -0.011020996
-0.026321959 -0.0096461643 -0.018564034
-0.01571501 -0.0057901377 -0.012200247
0.0572422 -0.0053372341 -0.011106705
0.091112405 -0.005363707 -0.011170626
0.12369733 -0.0071491958 -0.01531009
0.16622478 -0.0059441384 -0.012572089
0.26942158 -0.0091902604 -0.017969605
-0.19252358 -0.062296432 -0.0072217258
-0.0074391761 -0.0690623 -0.0073285466
0.0066211238 -0.064864933 -0.0061603915
0.044219203 -0.063006431 -0.0080253733
0.053265523 -0.064849511 -0.0074714753
0.07161922 -0.0690623 -0.0056606513
0.087930188 -0.068184808 -0.008356614
0.10496301 -0.06298811 -0.0019672615
0.16848877 -0.06311921 -0.00097134185
0.17317016 -0.063044868 -0.0015361228
0.18693042 -0.063053444 -0.0014708955
0.19464046 -0.062592216 -0.0049747354
0.23327488 -0.062844649 -0.0030570652
0.2463868 -0.062987335 -0.0019731931
-0.24794534 -0.05348628 -0.0091499817
-0.023051336 -0.057789877 -0.0060495632
-0.29651043 -0.04014077 -0.0040823687
-0.061307706 -0.043037813 -0.0069565279
-0.055927362 -0.041830368 -0.0074281157
-0.017450266 -0.0468175 -0.0075290473
0.041545719 -0.0468175 -0.0088335555
0.10745692 -0.044992931 -0.001174911
0.34910882 -0.047910504 -0.0010885259
0.22895281 -0.033126473 -0.0091188271
0.28608212 -0.033107501 -0.009099476
0.32633901 -0.037684456 -0.0058734566
0.33008355 -0.036803193 -0.0034689484
0.36075163 -0.038209449 -0.0012315336
-0.32535011 -0.022655446 -0.0062369131
-0.30339164 -0.026416486 -0.0044744085
-0.28780913 -0.027233023 -0.0043319482
0.22608602 -0.023292355 -0.0088282526
0.24566159 -0.026254326 -0.007606429
-0.30510026 -0.01369642 -0.006495113
-0.26247481 -0.013318188 -0.0048356382
0.33392355 -0.016283773 -0.0078533851
0.34078327 -0.018819001 -0.0056193424
-0.19532329 -0.0035702577 -0.0046977592
-0.1580928 -0.0039115055 -0.0072206203
-0.11251538 -0.0035930208 -0.0048706811
-0.097503603 -0.0038469152 -0.0055375537
-0.070334822 -0.0038821679 -0.0070672105
-0.03089015 -0.0031054122 -0.0011665296
-0.024324441 -0.0035771001 -0.0047497395
0.15941504 -0.0036579908 -0.0053642308
0.16566905 -0.0036308488 -0.0051580453
0.17733753 -0.0043026931 -0.0086087948
0.19497731 -0.0031868825 -0.0017854223
0.21274361 -0.0031007705 -0.0011312671
0.29592758 -0.006549289 -0.0063799829
0.31087053 -0.0095679127 -0.0080249729
-0.27914408 0.014196975 -4.1691779e-05
-0.21993285 -0.060453311 0.0060760193
-0.20560169 -0.062044494 0.0046142596
-0.1846769 -0.062378101 0.0065268441
-0.13620734 -0.063191637 0.00034701495
-0.040064406 -0.067944527 0.008817384
-0.019555256 -0.0690623 0.0083499933
0.029791789 -0.06303893 0.00025345868
0.056803189 -0.066733375 0.0046227188
0.078947723 -0.062165633 2.3381301e-07
0.080959596 -0.064122722 0.0067507694
0.095374048 -0.065801591 0.0053762617
0.11447109 -0.065903321 0.0080973441
0.1571524 -0.061960183 0.0083797835
0.17439497 -0.063133359 0.0007898123
0.2076706 -0.063206866 0.00023139409
0.22419445 -0.062541276 0.0040721153
0.25104409 -0.062532663 0.0053527453
0.26619881 -0.062325638 0.0069253454
-0.02899332 -0.056466486 0.0055393307
-0.015607038 -0.056972519 0.0062184879
-0.0090022264 -0.059138432 0.0068912073
0.021244291 -0.05618709 2.3381298e-07
0.0430841 -0.051079903 2.33813e-07
0.066777818 -0.056411013 2.3381298e-07
0.074979171 -0.059906561 2.33813e-07
0.08337386 -0.056457948 2.3381301e-07
0.10469559 -0.051574878 2.3381301e-07
0.12251724 -0.053955652 0.0014080933
0.32340568 -0.057181653 0.00042446618
-0.078186646 -0.04730244 0.0035367548
-0.063274868 -0.0468175 0.00083347177
-0.056727182 -0.042009868 0.0039308257
-0.047794092 -0.040348373 0.0020283675
0.019128166 -0.0468175 0.0060159191
0.036151152 -0.046817504 0.0020783599
0.052753255 -0.047094688 0.0046512713
0.062048767 -0.045978978 0.0042106421
0.071576096 -0.046817504 0.0060358625
0.084369026 -0.0468175 0.00032526138
0.098972052 -0.046074864 0.0024834191
0.10594179 -0.0468175 0.0082693826
0.11223066 -0.0468175 0.0038568974
-0.32230052 -0.032283526 0.0028464347
0.079078108 -0.036979344 0.00067126518
0.08084368 -0.037029587 0.0011904708
0.22000144 -0.030083103 0.0084770313
0.32563466 -0.037515484 0.0033413521
-0.30817813 -0.025269188 0.0030025502
-0.28050524 -0.027887996 0.0011960824
-0.27494535 -0.027837392 0.0020913945
0.218015 -0.020938637 0.0093999309
0.23245072 -0.027270952 0.0068914066
0.25085336 -0.027391948 0.0052649765
0.28576773 -0.022400754 0.0055513997
0.32572225 -0.027013399 0.0094166631
-0.30023476 -0.011158526 0.0021186555
0.218015 -0.015398299 0.0099370172
0.31777048 -0.010592093 0.0053696558
0.32553971 -0.01647466 0.0083658444
0.34081334 -0.017923927 0.0021399877
-0.31331012 -0.0078892829 0.0034229411
-0.29362133 -0.0044259089 0.0012424747
-0.28398347 -0.0084764278 0.0050746147
-0.24612084 -0.0034322962 0.0059084916
-0.23587206 -0.0044670971 0.00017448545
-0.22861975 -0.0063056257 0.0039606267
-0.15250258 -0.0039812014 0.0077449656
-0.016825382 -0.0039471616 0.0067520323
0.0024288222 -0.0039577358 0.0075667165
0.025618263 -0.0039150845 0.0072427341
0.09017621 -0.0042445143 0.008393785
0.10745802 -0.0048372573 0.0098249586
0.16847609 -0.0039516655 0.0075206067
0.1876277 -0.0035560853 0.004515728
0.2282491 -0.0041466663 0.0074746381
0.23741737 -0.0040294076 0.0078745252
0.2670081 -0.0046224194 0.0093061877
0.27513641 -0.0034881677 0.0037063707
-0.2884489 0.0035117792 0.0069248062
-0.26489985 0.0026432616 0.007691286
-0.31873751 0.01249692 0.0046742242
-0.28075996 0.017462118 5.9994883e-05
-0.27223158 0.013835469 0.0073437486
-0.31285489 0.029409239 0.0025583263
-0.30256921 0.025040323 0.006491953
-0.29455587 0.029211815 0.006864897
-0.3335306 0.032197427 0.0040651779
-0.32472143 0.034797776 0.0035229225
-0.31548426 0.036389932 0.0015328941
-0.30258724 0.037555974 0.00068550138
-0.2937429 0.034524709 0.0065158717
-0.28069168 0.03395588 0.0027591307
-0.30969882 0.049258672 0.0062407618
-0.29689461 0.045826837 0.0044435076
-0.34347078 0.053018808 0.0039121909
-0.33427048 0.057244185 0.0048481687
-0.31956363 0.052221827 0.0059192609
-0.30639082 0.055528577 0.0057816226
-0.31494737 0.067464478 0.0021223996
-0.33462322 0.072182439 0.0020098833
-0.19728136 -0.06063186 0.011586583
-0.15321293 -0.060440656 0.012048171
-0.065060221 -0.061690465 0.017965768
-0.037245121 -0.068167441 0.017705185
-0.021128839 -0.065995499 0.015817422
-0.016098592 -0.0690623 0.012220173
-0.0090260068 -0.0690623 0.017650964
0.036862664 -0.062464327 0.015699828
0.044652876 -0.062479936 0.016481748
0.05319988 -0.062270425 0.013769027
0.065188296 -0.0690623 0.013702556
0.083861187 -0.062694617 0.010458915
0.095737271 -0.062473588 0.012183688
0.10661071 -0.062935106 0.013502553
0.1488125 -0.060497273 0.011911537
-0.19905914 -0.056342103 0.01876354
-0.18301076 -0.056141827 0.019024534
-0.17278501 -0.05577971 0.019496452
-0.16916922 -0.059014834 0.015280385
-0.13763091 -0.057103015 0.017771795
-0.10941914 -0.055812061 0.019454181
-0.088411532 -0.055888943 0.019353872
-0.030732442 -0.056157 0.010596219
-0.029969368 -0.055886492 0.011869068
-0.0086262189 -0.058221549 0.017688716
0.11127207 -0.057901189 0.017855762
0.12625436 -0.051368669 0.011315404
0.1676645 -0.059611432 0.014050013
0.27283657 -0.0595823 0.01412032
0.28244656 -0.057425812 0.016023874
-0.080754325 -0.049781747 0.019214738
-0.078855574 -0.048194028 0.017146654
-0.056365211 -0.04542762 0.015722819
-0.04722679 -0.040257849 0.012368232
-0.021971822 -0.0468175 0.01656449
0.026063308 -0.0468175 0.012156561
0.030559715 -0.0468175 0.018137993
0.060641423 -0.042985432 0.015899153
0.080972895 -0.046817504 0.012398076
0.11429249 -0.047352295 0.015876811
0.3141003 -0.048347227 0.019570222
0.32980829 -0.042887434 0.018577956
-0.033245258 -0.038026731 0.019608188
-0.0059285918 -0.036858998 0.014153511
0.09840399 -0.039807275 0.019025594
0.32418278 -0.038553417 0.016593523
-0.3223834 -0.025214138 0.013072847
-0.3159399 -0.025838532 0.013635641
-0.30764133 -0.02268609 0.011582388
-0.29537314 -0.020611618 0.018956412
0.22310266 -0.026511485 0.013131715
0.2564798 -0.02385693 0.015419649
0.268154 -0.026745958 0.010859732
0.32077214 -0.021829337 0.01128567
0.074100167 -0.01039374 0.019463841
0.2168965 -0.015509943 0.016212504
0.22723401 -0.014564011 0.017414313
0.28700915 -0.010733075 0.017247263
0.315743 -0.013075611 0.012852609
-0.17208505 -0.0061203828 0.01292308
-0.15047097 -0.0090884641 0.017762784
-0.12959871 -0.0099443924 0.018878229
0.04848408 -0.0053598587 0.011086805
0.057791106 -0.0058352058 0.012234516
0.064951308 -0.0064242114 0.013656646
0.094202131 -0.0070305653 0.014133906
0.17619511 -0.0072371834 0.014687786
0.22367135 -0.0056623872 0.011817457
0.23378643 -0.0081805084 0.016541401
-0.056822285 -0.064342737 0.024060341
-0.0235561 -0.066540092 0.026833476
-0.010567596 -0.068085179 0.024571911
0.036187362 -0.068431444 0.022877
0.046810742 -0.061196331 0.022150546
0.050889973 -0.06103617 0.023400282
0.07876797 -0.062842146 0.024690788
0.091395751 -0.060127962 0.022239458
0.11468165 -0.060705811 0.023709938
-0.1652849 -0.053504169 0.021974679
-0.05734311 -0.056297112 0.028072622
-0.035364099 -0.054190479 0.027655175
-0.023742838 -0.057367664 0.022317993
-0.00074288622 -0.05950949 0.023732396
0.098049134 -0.053336289 0.024713891
0.10661844 -0.056788176 0.023882903
0.11613327 -0.053085964 0.02289626
0.1447216 -0.053091057 0.022291457
0.20852493 -0.054372534 0.021308327
0.23428939 -0.054509312 0.021152025
0.24634957 -0.05421285 0.021430839
0.25944671 -0.053059135 0.022316178
-0.22428638 -0.043332711 0.026569523
-0.21258186 -0.047877129 0.025185006
-0.10978515 -0.041243102 0.028936595
-0.062590428 -0.041699015 0.029600982
-0.055491559 -0.044574849 0.023175547
0.0029408755 -0.045943685 0.028350702
0.012322376 -0.045088947 0.027109565
0.025316952 -0.046817504 0.023315992
0.033717275 -0.046817496 0.021124989
0.045186535 -0.042434111 0.028927464
0.054148987 -0.042632651 0.029286485
0.062393658 -0.0468175 0.028202321
0.073594369 -0.0468175 0.027112566
0.10909805 -0.047332272 0.023557045
0.11955006 -0.0476982 0.026263034
0.13415951 -0.040900059 0.029014278
0.15241514 -0.049835578 0.024789799
0.24953738 -0.044150732 0.027732298
0.26539394 -0.049359359 0.025155231
0.29353395 -0.046605889 0.024299383
0.30490217 -0.049971402 0.020422636
0.31043687 -0.040313315 0.024257626
-0.26384056 -0.036587086 0.023164921
-0.18614325 -0.030796191 0.029802453
-0.17899682 -0.038152449 0.029440131
-0.075107381 -0.038942564 0.029762575
-0.054098587 -0.039067041 0.02975544
-0.041115779 -0.038253602 0.029803135
-0.016396604 -0.0310448 0.029834889
0.02688775 -0.030537292 0.029768325
0.05597702 -0.039743505 0.02713451
0.063644685 -0.038899526 0.025430873
0.072883919 -0.038354352 0.029413681
0.12643385 -0.031599335 0.029908024
0.14476575 -0.034474164 0.029924482
0.28584778 -0.032252356 0.026166301
0.29062784 -0.030940048 0.027730577
-0.30115539 -0.025219865 0.025518255
-0.29926854 -0.020139776 0.027261773
-0.22097987 -0.026743226 0.028399192
-0.20678383 -0.022815876 0.027803689
-0.11610295 -0.021018215 0.027305774
-0.062283698 -0.023729272 0.028428871
-0.01474313 -0.024428094 0.028595336
0.0061588506 -0.027366403 0.029292531
0.022738047 -0.021978004 0.027703218
0.034372427 -0.023662526 0.028401148
0.055851053 -0.025039082 0.028971197
0.07480152 -0.022224795 0.027805598
0.17883641 -0.020547448 0.027110718
0.18235157 -0.029774437 0.029667838
0.19509034 -0.026915461 0.029291455
0.20682535 -0.022056669 0.027735852
0.22889599 -0.02162903 0.027558751
0.26180619 -0.027000751 0.029302431
0.31164315 -0.025063595 0.023168657
0.32182714 -0.023333473 0.020156551
-0.18288234 -0.012901407 0.022133565
-0.11559972 -0.012693574 0.021793108
-0.09635181 -0.016183438 0.024651941
-0.084563695 -0.018076925 0.025771584
0.040879048 -0.012482421 0.021812029
0.050212204 -0.012076002 0.021500178
0.071679488 -0.015971284 0.02448892
0.089605749 -0.010957057 0.020197948
0.096381627 -0.017668128 0.025791062
0.13668884 -0.0142352 0.023156967
0.14590184 -0.013237103 0.022391077
0.16946787 -0.011349163 0.020708932
0.20982963 -0.010873266 0.0200886
0.21898171 -0.01248741 0.02059092
0.22548452 -0.01099303 0.02024477
0.23706698 -0.017303606 0.023994161
0.25925487 -0.018845489 0.026405746
0.26095176 -0.017632829 0.022626212
0.28264019 -0.016170748 0.022404756
-0.0093367929 -0.062416434 0.030611226
0.034416653 -0.06078168 0.030993558
-0.031087261 -0.051826581 0.031038571
-0.025217071 -0.052279521 0.03631587
-0.0094345016 -0.057102703 0.036170077
0.015387555 -0.052664317 0.031675808
0.024990404 -0.054883547 0.031823631
0.03464222 -0.051460229 0.031585552
0.055736072 -0.059403822 0.035809316
0.065575093 -0.05851594 0.031523466
0.084077582 -0.054926086 0.035382371
0.094555169 -0.053710345 0.030355342
-0.024425546 -0.045977831 0.030151946
-0.0029842353 -0.04574075 0.030076522
0.01936575 -0.046655856 0.03036776
0.052428275 -0.041735973 0.03157999
0.066824898 -0.047584061 0.030663285
0.074475482 -0.044947155 0.037182167
-0.1874577 -0.033789832 0.030014642
-0.017290091 -0.033169486 0.030096404
0.06469693 -0.03357172 0.030043293
-0.31895089 -0.023329616 0.031036923
-0.30748248 -0.023983158 0.035309605
-0.019465042 -0.05462224 0.044394441
0.026295574 -0.056945458 0.046506435
0.04218246 -0.056997269 0.046320222
0.051438868 -0.058475729 0.040763438
-0.0052123391 -0.04766845 0.045306198
0.0096292766 -0.045345079 0.045739863
0.028276619 -0.042320207 0.046660088
0.059152 -0.041930147 0.042026296
0.064934947 -0.043715414 0.044536777
-0.31783879 -0.022093717 0.047422417
-0.30185902 -0.02295782 0.044610176
-0.29306567 -0.019663777 0.041987978
0.056393232 -0.053437438 0.056272525
-0.0022200933 -0.044972077 0.057895638
0.0012487653 -0.045020103 0.054548185
0.029893057 -0.040082287 0.058251563
0.061114907 -0.043304421 0.055034179
-0.33272228 -0.020365041 0.053546466
-0.028190279 -0.050155193 0.062435225
0.020193826 -0.052164964 0.066620603
0.042431373 -0.053467795 0.061090697
0.050045811 -0.053021971 0.06051264
-0.0065391189 -0.044718415 0.06320259
0.020260867 -0.040538423 0.064082712
0.038571663 -0.039070532 0.067715243
-0.34410214 -0.018500932 0.063762374
0.0081771789 -0.050718203 0.072761454
-0.026563076 -0.045323733 0.073928684
-0.012872124 -0.049721718 0.073755629
0.019785028 -0.049193047 0.079235017
0.031594109 -0.049157038 0.079387851
0.021320408 -0.038545161 0.074858867
0.043357238 -0.039141655 0.078580722
-0.32268295 -0.019351998 0.075043701
-0.031820055 -0.045059159 0.087933809
-0.02729753 -0.046386119 0.088168196
0.015716458 -0.048193242 0.083478704
0.049512882 -0.046787724 0.080560893
0.03204453 -0.036962613 0.087618209
-0.32273549 -0.014627625 0.08780361
-0.022799721 -0.0434203 0.090868652
-0.014779245 -0.045098372 0.094942242
0.017357843 -0.036448382 0.093350083
0.026515091 -0.03637059 0.093208089
-0.34353703 -0.016146123 0.097501218
-0.33771998 -0.013830655 0.091958866
-0.3286958 -0.013662121 0.09503831
0.032912452 -0.052767616 0.103186
0.047330305 -0.050406575 0.10861701
0.055930242 -0.050902084 0.10761861
-0.0095984759 -0.043515857 0.10638511
0.025427511 -0.043164343 0.10465363
0.032321811 -0.042656228 0.103186
0.045994356 -0.044189826 0.10590149
0.053094864 -0.043305524 0.10497655
0.067326948 -0.046811938 0.10804661
0.08163593 -0.048826836 0.10491122
0.0059647174 -0.035819568 0.10250872
0.021112463 -0.039443862 0.10324682
-0.33694682 -0.01259654 0.10232128
0.026131114 -0.040784884 0.1161883
-0.043306753 -0.039420392 0.11228758
-0.036406513 -0.038763031 0.11161768
0.0077996808 -0.033474162 0.11543059
0.026607845 -0.035244655 0.11312541
-0.037342332 -0.042555705 0.12180482
-0.011394135 -0.041013949 0.12083437
-0.04546883 -0.037316155 0.12449757
-0.033508934 -0.039320357 0.12543164
-0.01385388 -0.037174411 0.12364318
0.022568805 -0.034733813 0.12848257
0.01489773 -0.032406501 0.1335187
-0.056823529 -0.034372225 0.14989386
-0.044678181 -0.034720588 0.1466547
-0.025541639 -0.037317201 0.14452098
-0.011665243 -0.036691621 0.14856972
0.0092901886 -0.03115664 0.14293991
0.016568124 -0.035061955 0.14112525
-0.054110948 -0.03349787 0.15967637
-0.036228083 -0.035553753 0.1559339
0.0023684944 -0.033752285 0.15945217
-0.044620987 -0.034010768 0.16283236
-0.030643692 -0.036791086 0.16267562
0.0041223997 -0.032028209 0.16148162
-0.027316835 -0.028415015 0.16117887
-0.0038145308 -0.028227897 0.16527203
-0.028419491 -0.032602049 0.17465548
-0.020651527 -0.031438794 0.18112378
-0.013533365 -0.02598938 0.1859668
-0.055357397 -0.0308185 0.1997069
-0.070656866 -0.026614262 0.19927911
-0.068591043 -0.027396314 0.19002745
-0.047264047 -0.028922878 0.19511354
-0.080584183 -0.027598867 0.20134808
-0.03411305 -0.024508795 0.20315047
-0.071255907 -0.02269138 0.21410558
-0.033222374 -0.023507729 0.21920133
-0.073887974 -0.03168311 0.22541761
-0.054961521 -0.034953397 0.22340213
-0.047477484 -0.033346482 0.22685486
-0.035002071 -0.034905527 0.226943
-0.025668671 -0.034194585 0.22151101
-0.0042315009 -0.032317478 0.22499196
0.0062576719 -0.03105865 0.22246334
0.010690387 -0.030439647 0.22553757
-0.04590584 -0.024034452 0.22151385
-0.021482531 -0.025684249 0.22387686
-0.072513007 -0.019630108 0.2279239
-0.054667667 -0.01743865 0.2288205
-0.050961025 -0.021681411 0.23273566
-0.083520077 -0.019912621 0.23185404
-0.049842853 -0.01673233 0.23266934
-0.059282053 -0.019070586 0.24487543
-0.064583622 -0.012220857 0.25604475
-0.089488953 -0.014405109 0.26454663
-0.096523263 -0.010765664 0.2727592
-0.083374657 -0.012540601 0.27463681
-0.068093494 -0.0094776247 0.27542746
-0.10138825 -0.0096682478 0.28446707
-0.11256452 -0.0048272382 0.30228475
-0.10254285 -0.0009590222 0.30845708
-0.1110904 -0.0013981264 0.3103424
-0.10425178 0.00015565148 0.31280604
-0.099690467 0.0013141974 0.31602293
-0.12276151 0.00019542723 0.32133263
-0.11521474 0.0066635483 0.32764125
-0.12251005 0.011293866 0.32902661
