# .PCD v0.7 - Point Cloud Data file format
VERSION 0.7
FIELDS x y z
SIZE 4 4 4
TYPE F F F
COUNT 1 1 1
WIDTH 780
HEIGHT 1
VIEWPOINT 0 0 0 1 0 0 0
POINTS 780
DATA ascii
-0.22639258 -0.042129409 -0.26607066
-0.20036238 -0.041034892 -0.2662822
-0.21612346 -0.04168167 -0.25773081
-0.1764347 -0.040876791 -0.24045539
-0.22190544 -0.042559013 -0.23579139
-0.21031883 -0.041719899 -0.23227894
-0.20994008 -0.041613568 -0.23908758
-0.16601746 -0.040772825 -0.23197654
-0.21384268 -0.042129178 -0.22646375
-0.15234588 -0.041581139 -0.22831756
-0.19703621 -0.041255917 -0.21414506
-0.17697567 -0.04089722 -0.21936896
-0.14416626 -0.042749442 -0.21681303
-0.19684324 -0.041458424 -0.20019633
-0.18435973 -0.040984467 -0.20597908
-0.20918745 -0.042538755 -0.19370878
-0.19596922 -0.042419013 -0.19325471
-0.18470438 -0.040996443 -0.19403213
-0.21256527 -0.043086197 -0.18055233
-0.20735382 -0.044849347 -0.18542731
-0.19402289 -0.043143906 -0.18686882
-0.1457407 -0.040338479 -0.18265782
-0.12350161 -0.041052461 -0.185776
-0.11199117 -0.044401538 -0.18359242
-0.10561495 -0.042809457 -0.18099596
-0.32558689 -0.054156758 -0.17483854
-0.22063921 -0.043994281 -0.17671601
-0.20368123 -0.045022521 -0.17192207
-0.18516757 -0.041100215 -0.1747912
-0.17359467 -0.040890917 -0.17733081
-0.16070148 -0.040678311 -0.17931786
-0.14684854 -0.040361036 -0.17849401
-0.13229232 -0.040028322 -0.17864224
-0.096754566 -0.044064373 -0.17355916
-0.34223691 -0.05677361 -0.16258492
-0.32518706 -0.055983342 -0.16689387
-0.313288 -0.05704616 -0.16359262
-0.30906677 -0.054199997 -0.16261432
-0.21836832 -0.044087719 -0.162697
-0.18393064 -0.044145674 -0.1626509
-0.17368087 -0.040900342 -0.16513914
-0.10650736 -0.041293077 -0.16747165
-0.087186106 -0.044109441 -0.16278067
-0.13014516 -0.039969839 -0.16454065
-0.11898755 -0.039941732 -0.1692047
-0.34764895 -0.058064297 -0.15219039
-0.33189231 -0.056721486 -0.15491855
-0.30266345 -0.056938004 -0.15489106
-0.20289676 -0.043990694 -0.15303166
-0.1921739 -0.045472436 -0.15199395
-0.1821411 -0.045770362 -0.15252441
-0.17920695 -0.040994164 -0.1568308
-0.16358718 -0.040728748 -0.15598303
-0.15051445 -0.040430024 -0.15623015
-0.14558323 -0.040318433 -0.15796167
-0.078977585 -0.044546135 -0.15084581
-0.3416661 -0.057594158 -0.14476818
-0.32527423 -0.054784503 -0.14267176
-0.31110078 -0.055668667 -0.14132445
-0.30023417 -0.057181455 -0.14480902
-0.18609023 -0.045739312 -0.14944394
-0.17541178 -0.041983798 -0.14416528
-0.16091077 -0.040661603 -0.14704229
-0.15113004 -0.040437922 -0.14695331
-0.083727144 -0.043585703 -0.14517808
-0.34638703 -0.058199566 -0.13593137
-0.33703631 -0.057326414 -0.13300341
-0.31287605 -0.058224674 -0.13095549
-0.30613661 -0.053563356 -0.13369457
-0.29467019 -0.053967696 -0.13302399
-0.27427781 -0.055734307 -0.13627508
-0.2047758 -0.044971064 -0.13127743
-0.18661883 -0.045844179 -0.13921377
-0.17367274 -0.044697985 -0.13534319
-0.14008445 -0.040179901 -0.13873146
-0.12157983 -0.039752163 -0.13259181
-0.30318731 -0.05792987 -0.12551779
-0.29295105 -0.057609539 -0.12369911
-0.21286178 -0.044177629 -0.12471597
-0.20531009 -0.044366907 -0.12218589
-0.19620705 -0.04542055 -0.12648872
-0.18641046 -0.041961454 -0.12720306
-0.13101491 -0.039938755 -0.12483642
-0.10512573 -0.038946405 -0.12103928
-0.3356058 -0.058682881 -0.11674178
-0.31577805 -0.055062536 -0.11029983
-0.3049534 -0.053527363 -0.11894864
-0.28675613 -0.057742286 -0.1127326
-0.27638242 -0.054325745 -0.11520026
-0.2642473 -0.055879384 -0.11273263
-0.2550711 -0.055273093 -0.11240849
-0.20036568 -0.045236748 -0.11673547
-0.19687265 -0.043890353 -0.11836791
-0.18794572 -0.042123511 -0.11130196
-0.1721265 -0.046402812 -0.11047111
-0.057878789 -0.040664908 -0.11689427
0.018563814 -0.040237453 -0.11295096
-0.12687248 -0.039808117 -0.11533205
-0.096101858 -0.037959412 -0.11253163
-0.070893265 -0.037979335 -0.11095369
-0.057762209 -0.039832998 -0.11246691
-0.34528914 -0.058498159 -0.1070714
-0.32087022 -0.056194872 -0.10424747
-0.30214489 -0.053817671 -0.10352498
-0.28471434 -0.053852592 -0.10513329
-0.27873096 -0.057665288 -0.10604651
-0.26409587 -0.054492757 -0.10305342
-0.25366461 -0.057150252 -0.1004303
-0.2041958 -0.04485596 -0.1024938
-0.18738046 -0.044046104 -0.10551576
-0.16066647 -0.040563583 -0.10435998
-0.033120945 -0.042721812 -0.10185011
0.012152478 -0.041075259 -0.10230466
-0.083990157 -0.036845088 -0.10232603
-0.072592795 -0.036471672 -0.10399102
-0.053650536 -0.038886633 -0.10483235
-0.047407568 -0.03957995 -0.1035605
0.02034172 -0.039677732 -0.10592345
-0.34849551 -0.05861029 -0.093954384
-0.33699638 -0.057588018 -0.099594384
-0.31017959 -0.058392514 -0.097710498
-0.29540515 -0.058404617 -0.095225319
-0.27625722 -0.058323301 -0.090388261
-0.26965106 -0.057913266 -0.0932042
-0.2548804 -0.054742087 -0.097381532
-0.20321825 -0.04413005 -0.095172524
-0.19512731 -0.043037705 -0.09368781
-0.18692487 -0.046026316 -0.090899602
-0.16612417 -0.042797294 -0.097176529
-0.14638475 -0.040192008 -0.098765001
0.015184128 -0.041538887 -0.094218321
0.040954258 -0.041177254 -0.097281411
-0.12804116 -0.038199414 -0.090460911
-0.083544299 -0.036305681 -0.093632549
-0.05756776 -0.036785387 -0.096149176
0.033848312 -0.039048761 -0.094866812
-0.30882198 -0.054455902 -0.081743792
-0.29407653 -0.058436695 -0.089627251
-0.28706896 -0.05343755 -0.088077292
-0.27802053 -0.051460784 -0.083974667
-0.24576437 -0.056135111 -0.087978199
-0.29080734 -0.044754945 -0.08503978
-0.28951046 -0.047544338 -0.082201771
-0.2646583 -0.047535028 -0.084838875
-0.25168633 -0.046492517 -0.085085258
-0.23135439 -0.044491865 -0.084344059
-0.20135865 -0.045005396 -0.089800775
-0.18910535 -0.042649224 -0.085844763
-0.17748764 -0.044157021 -0.084470212
-0.16879806 -0.046712905 -0.087498382
-0.15276375 -0.043915931 -0.084749267
-0.025685191 -0.042420875 -0.085640334
-0.018851437 -0.044004139 -0.086754255
0.04647911 -0.041967124 -0.086990856
0.053916506 -0.041423358 -0.087500438
-0.16757506 -0.030570902 -0.081711978
-0.15785542 -0.030946355 -0.08237002
-0.12432916 -0.037527461 -0.084997274
-0.10096963 -0.036318228 -0.081768163
-0.088663645 -0.035957567 -0.084275514
-0.066683307 -0.034798216 -0.080156364
-0.045062806 -0.035436854 -0.081043735
0.022972373 -0.038590625 -0.088252351
0.032634012 -0.038508199 -0.089699022
0.053980026 -0.039881919 -0.087264664
-0.26409388 -0.026044201 -0.084763452
-0.20142697 -0.02800704 -0.083723679
-0.17328161 -0.022150435 -0.080540061
-0.28591201 -0.01891388 -0.081324711
-0.28515553 -0.0013132908 -0.08376541
-0.26105979 -0.0093745384 -0.084535822
-0.18818465 -0.0055246986 -0.080289677
-0.27992049 4.5169145e-05 -0.080013841
-0.2605384 0.00072661496 -0.084237471
-0.25373316 0.0042905188 -0.084053621
-0.23116511 0.0098084174 -0.083558232
-0.22865957 0.0014544558 -0.083665907
-0.21353516 0.0068995594 -0.080189519
-0.20843086 0.0073493556 -0.080260172
-0.19896401 0.0017079432 -0.082953595
-0.28787825 0.012801039 -0.080820397
-0.27635658 0.014759944 -0.084191777
-0.26906657 0.016257778 -0.084189728
-0.24113426 0.012104345 -0.080012694
-0.23432118 0.013257936 -0.080098376
-0.2219276 0.011010698 -0.083374433
-0.2150044 0.01441442 -0.081357256
-0.28231966 0.024918366 -0.082052752
-0.26608047 0.022706149 -0.083244152
-0.24173264 0.022181932 -0.083518691
-0.23922063 0.02932604 -0.083265394
-0.28093266 0.038727067 -0.080392398
-0.26885739 0.032650549 -0.080109373
-0.24042153 0.035440616 -0.080457054
-0.22884654 0.037765965 -0.082524009
-0.29045373 0.047240004 -0.083457999
-0.2752828 0.047110692 -0.081517763
-0.2456868 0.044750877 -0.082848601
-0.23204312 0.047033742 -0.080797635
-0.22638243 0.04457156 -0.0816506
-0.27694529 0.055994917 -0.082105488
-0.26389471 0.052325971 -0.083198391
-0.25549933 0.056854978 -0.082699761
-0.24744256 0.053710021 -0.082532674
-0.23121773 0.053008862 -0.081963822
-0.29013926 0.06456539 -0.083575897
-0.25413871 0.064848572 -0.082439914
-0.23752461 0.063862294 -0.081858501
-0.27800864 0.072225779 -0.08073242
-0.2566351 0.07586056 -0.082242094
-0.2573162 0.084640719 -0.082036249
-0.32210118 -0.0566222 -0.074220248
-0.31975192 -0.054346949 -0.075885594
-0.28891093 -0.052934773 -0.072690606
-0.27664378 -0.050898109 -0.075122625
-0.26888725 -0.050065137 -0.0726154
-0.27568948 -0.043248072 -0.075399868
-0.26693374 -0.04239567 -0.07592696
-0.23648788 -0.046258461 -0.078802884
-0.22196984 -0.041889064 -0.079078764
-0.19360243 -0.042148259 -0.079784997
0.031164296 -0.043041684 -0.073291436
-0.27771461 -0.038359605 -0.07972765
-0.25472724 -0.034715995 -0.079342619
-0.23907273 -0.03902255 -0.079112411
-0.18554068 -0.031341448 -0.07972914
-0.16812471 -0.036012299 -0.07973925
-0.11747353 -0.036352616 -0.070906721
-0.10545424 -0.036011387 -0.073539741
-0.039178193 -0.035131924 -0.07537099
0.064222351 -0.038865052 -0.074349731
-0.2716375 -0.020890687 -0.079481833
-0.23962036 -0.020685446 -0.079448693
-0.22261433 -0.021967273 -0.079589143
-0.26008919 -0.010592395 -0.07962776
-0.21292341 -0.015256465 -0.079800472
-0.26915854 -0.0088628046 -0.07966648
-0.25590247 0.0028147455 -0.07970719
-0.28301793 -0.050896581 -0.069778904
-0.25869903 -0.049755093 -0.061615594
-0.24883045 -0.041210845 -0.061730869
0.075113088 -0.042998329 -0.064396739
-0.15922934 -0.038558118 -0.060843714
-0.14823997 -0.038018845 -0.067677125
-0.096433081 -0.034958601 -0.062219854
-0.0586918 -0.033588111 -0.065497488
0.047289558 -0.036642328 -0.064857565
0.075559363 -0.039574407 -0.069758922
-0.25937593 -0.044359744 -0.057291076
-0.23320855 -0.040431604 -0.055218752
0.036220469 -0.042973004 -0.058569849
0.062469065 -0.042505361 -0.058344312
0.084859475 -0.041235432 -0.05814283
-0.16357583 -0.038263272 -0.055084217
-0.1175328 -0.035240039 -0.052297249
-0.10247684 -0.034905136 -0.05713987
-0.07025864 -0.033149835 -0.050168268
-0.027920822 -0.032594033 -0.055841979
-0.017964063 -0.031671297 -0.050908878
-0.0058283107 -0.034728099 -0.058554798
0.023018226 -0.036938116 -0.051602978
0.046013091 -0.035886329 -0.050304871
0.087487802 -0.039333459 -0.058120411
0.094737589 -0.038547948 -0.052168697
-0.2393755 -0.040159289 -0.049766373
0.12347046 -0.041784212 -0.044565268
-0.23650956 -0.039580282 -0.042539123
-0.18642753 -0.03850257 -0.047098141
-0.17569964 -0.038094271 -0.047250696
-0.1648986 -0.037254624 -0.043517888
-0.15596023 -0.03619932 -0.04168129
-0.056943186 -0.032547764 -0.049346119
-0.017683621 -0.030421076 -0.046385791
0.017494289 -0.033901583 -0.045419317
0.032625876 -0.03415041 -0.044560432
0.051018175 -0.033861082 -0.04341406
0.060879208 -0.034566157 -0.046725176
0.088234738 -0.034543477 -0.042800657
0.10099465 -0.036380332 -0.044162594
-0.025685741 -0.029223867 -0.040190239
-0.018219763 -0.029878698 -0.044531148
-0.2479234 -0.040545877 -0.033638496
-0.21202734 -0.038712353 -0.037220996
-0.1973812 -0.037821535 -0.032986838
-0.16805999 -0.036159139 -0.030640276
-0.13930842 -0.035031088 -0.033721812
-0.12315614 -0.034468468 -0.035523675
-0.11457602 -0.034108642 -0.035463419
0.036001384 -0.03020359 -0.036317341
0.079766676 -0.031225907 -0.035352618
0.10241768 -0.033259843 -0.037218023
0.11330982 -0.035575651 -0.038847718
0.12600447 -0.032413777 -0.031412546
0.15889533 -0.038066369 -0.032244585
0.16829106 -0.038752571 -0.031182488
-0.061731864 -0.029972205 -0.033288468
-0.035314605 -0.02885839 -0.036655217
-0.01049931 -0.028789751 -0.039368622
-0.007907223 -0.026899431 -0.030460486
0.047718346 -0.027612437 -0.030589575
0.05822736 -0.029592829 -0.033740971
0.060203537 -0.027817218 -0.030016866
-0.27911177 -0.04186514 -0.026484769
0.20813909 -0.042153683 -0.027486473
-0.099842034 -0.032153837 -0.029355297
0.18780142 -0.035363287 -0.025795739
0.20139498 -0.03911997 -0.026341887
0.2219099 -0.039331295 -0.02373532
0.25124604 -0.037110791 -0.02027625
-0.034012828 -0.027225111 -0.029168854
-0.015266879 -0.024440926 -0.024054294
0.0078314217 -0.022125721 -0.023190746
0.02387803 -0.026441224 -0.029144082
0.068473198 -0.020381967 -0.024693146
0.074683495 -0.026687771 -0.02899842
0.10238882 -0.027309923 -0.029353678
0.13342084 -0.021058651 -0.023895048
0.14686418 -0.023052294 -0.023583338
0.15184242 -0.026909402 -0.025264341
0.19685796 -0.02947093 -0.021528527
0.077415235 -0.017401535 -0.023025101
0.097025782 -0.015218088 -0.02246882
0.12611842 -0.015147878 -0.021117477
0.14014105 -0.012837987 -0.023376156
-0.31412268 -0.04160285 -0.017586067
-0.29601941 -0.040338796 -0.015959267
-0.27923098 -0.040942926 -0.019972617
-0.30795479 -0.036442194 -0.010904571
-0.27175766 -0.036046688 -0.010120222
-0.23428008 -0.038749237 -0.014941718
-0.22495964 -0.037677668 -0.01257115
-0.21920997 -0.037599485 -0.01986229
-0.15287387 -0.033223845 -0.016002571
-0.13017669 -0.031558536 -0.017245684
0.28875312 -0.030179473 -0.011968162
-0.10333011 -0.029492281 -0.018427091
-0.062549017 -0.024396565 -0.016542183
-0.03646211 -0.021734159 -0.013094256
0.21150544 -0.023687918 -0.017233796
-0.0012169684 -0.015470757 -0.012615142
0.029612342 -0.01333819 -0.013774898
0.05096769 -0.011013 -0.017175056
0.14344171 -0.011763218 -0.017287213
0.17528412 -0.010342918 -0.012497995
0.030957663 -0.0083078574 -0.011297038
0.06784422 -0.0095208064 -0.017794229
0.08711388 -0.0095699551 -0.019147813
0.1139535 -0.007791725 -0.016979374
0.16544777 -0.008818212 -0.012321917
0.32989562 -0.055290617 -0.0093585262
-0.39117545 -0.044966601 -0.008390368
0.33607152 -0.040907569 -0.0038008415
-0.40163103 -0.038002957 -0.001808167
-0.37665436 -0.03630361 -0.0071318639
-0.34592474 -0.03361927 -0.0049185213
-0.33438051 -0.032893341 -0.00062641711
-0.32397363 -0.034021731 -0.0065756235
-0.31301537 -0.032787677 -0.0013750065
-0.29667345 -0.034819726 -0.0090079978
-0.22016908 -0.032369491 -0.0041023456
-0.20398805 -0.030496199 -9.5628435e-05
-0.1937049 -0.030435476 -0.004013123
-0.18727246 -0.029168544 -0.0022970876
-0.17493901 -0.02836195 -0.0031782088
-0.15157761 -0.025269469 -0.00084237417
-0.14830948 -0.025013631 -0.0016267359
-0.11494 -0.022272915 -0.0029349471
-0.093103677 -0.023881715 -0.0097018778
-0.076879881 -0.017641338 -0.0024797134
-0.033179902 -0.012464495 -0.0015127754
-0.02128578 -0.012602806 -0.0038176647
-0.0045997556 -0.018045388 -0.0078063207
0.019986732 -0.014653698 -0.0043920106
0.028521983 -0.013483748 -0.0096866135
0.01001161 -0.0071539939 -0.0034505799
0.026255045 -0.0080494564 -0.0081549231
0.037391841 -0.0060228538 -0.0070714341
0.074804157 0.0002311705 -0.00033821899
0.10517312 0.00079678273 -0.0015906675
0.34106836 -0.064514726 0.0042340336
0.353526 -0.060769945 0.0090822456
0.3641867 -0.060003653 0.006829876
0.39790261 -0.060514584 0.0047130184
0.36737823 -0.059535649 0.0063735335
0.3510007 -0.046205305 0.00088008161
-0.38269657 -0.034745574 0.0015157879
-0.35781553 -0.034505509 0.0049891379
-0.34114042 -0.034645617 0.0056574969
-0.25951281 -0.035932146 0.0065000621
-0.23858967 -0.034985088 0.0063818507
-0.22800104 -0.032095022 0.00074397004
-0.17768499 -0.031301636 0.0081060296
0.33136779 -0.035576127 0.0071544391
-0.10501397 -0.020738233 0.0040140254
-0.043514863 -0.023331415 0.0057031168
-0.024558477 -0.020730594 0.0081915753
0.27790791 -0.021557966 0.0036392142
0.28785005 -0.022678494 0.0015204654
-0.085244104 -0.01822461 0.0024491397
-0.07125207 -0.018333778 0.0069808089
-0.061375998 -0.015607364 0.0024170589
-0.052195016 -0.015666453 0.0034997799
-0.038091488 -0.014902527 0.0062929331
-0.0044160252 -0.010194078 0.0087088598
0.028020453 -0.013529442 0.0040459055
0.030235445 -0.013228847 0.0014632755
0.26109517 -0.016835038 0.0030904589
0.023167634 -0.0063006431 0.005722431
0.041234963 -0.0038814098 0.0094135934
0.059562832 -0.0011159715 0.0045493762
0.066172242 -0.00063431263 0.0048306109
0.10639457 0.00099734624 0.00066927611
0.119535 0.00023405364 0.0048858128
0.28055316 -0.063943446 0.012086225
0.30985066 -0.064752497 0.012451527
0.31840625 -0.063523687 0.013747994
0.33320731 -0.057774357 0.016085321
0.34940523 -0.053705253 0.013519384
0.35036305 -0.056296881 0.012709372
-0.34503186 -0.041531827 0.012852857
-0.29487324 -0.041839987 0.019336248
0.32436907 -0.042413153 0.018930357
0.33365792 -0.040430423 0.013480204
0.34471154 -0.046957619 0.013025267
-0.34261352 -0.039326899 0.010365822
-0.29935324 -0.039641801 0.012838495
-0.27402574 -0.039745349 0.013246097
-0.20098419 -0.036092237 0.016986897
-0.15873778 -0.032003775 0.012907786
-0.14799312 -0.031344742 0.013506935
0.30760545 -0.031131089 0.01502142
-0.094225168 -0.028426845 0.018897928
-0.078424945 -0.024409944 0.015215116
-0.045622095 -0.023621418 0.013598543
-0.026807297 -0.021023029 0.012514864
0.28643009 -0.023665663 0.011896763
0.2925567 -0.026401866 0.013964052
0.30169135 -0.027744217 0.012037397
-0.016310016 -0.019075099 0.015086705
0.23449703 -0.017577868 0.016443919
0.24128097 -0.018265182 0.015991254
0.0099752694 -0.0092256339 0.011372355
0.026400752 -0.0097011551 0.015257129
0.048166417 -0.0036054638 0.010699661
0.061309233 -0.0034785043 0.013447525
0.082740255 -0.0036019085 0.01731742
0.11298253 -0.00052961818 0.010341329
0.16903108 -0.0085474597 0.017266471
0.29074866 -0.050564937 0.02533415
0.30875951 -0.057061974 0.020720834
-0.27828184 -0.049698859 0.029185804
0.26299745 -0.041602399 0.028237522
0.27289429 -0.043931529 0.027702728
-0.23643054 -0.039486386 0.022061795
-0.21374819 -0.038514927 0.021954507
-0.19860798 -0.037673149 0.029475899
-0.16149579 -0.033527829 0.024725121
0.20579213 -0.032472074 0.029382296
0.24580152 -0.030276297 0.02513577
0.2962372 -0.036945157 0.023068124
-0.097818084 -0.029918885 0.026137765
-0.088782817 -0.02915157 0.023429072
-0.067989662 -0.026756736 0.021281235
-0.054260142 -0.026360961 0.023718769
0.18643025 -0.026584255 0.029115312
0.20827368 -0.022226239 0.024499353
0.21672612 -0.022419702 0.023542879
0.23955363 -0.023105957 0.021637963
0.031874988 -0.011962383 0.020099442
0.048379373 -0.0183606 0.027378855
0.099405356 -0.014017571 0.026962921
0.15879712 -0.014460629 0.023181146
0.16473503 -0.010198111 0.02009714
0.18089524 -0.015498103 0.023269372
0.093588427 -0.0069613978 0.021575039
0.11640102 -0.0084768999 0.022626115
-0.24167117 -0.040680576 0.039693788
0.20561224 -0.043117009 0.035266086
0.25067472 -0.043696225 0.030500462
-0.2090891 -0.039393064 0.037951391
-0.18215337 -0.035531804 0.030084282
-0.095897131 -0.030897995 0.034833983
0.12841974 -0.032086551 0.036099233
0.14937985 -0.032614738 0.034842856
0.15358713 -0.032760896 0.034655817
0.18654931 -0.034489103 0.033049196
0.19237766 -0.038485605 0.034487098
-0.047175776 -0.028525446 0.034555614
-0.03824836 -0.028058518 0.034243271
0.0077474159 -0.027535569 0.035292275
0.021388955 -0.028068138 0.035886716
0.040444132 -0.024840832 0.031785585
0.054244492 -0.025879448 0.032835372
0.073461287 -0.020946523 0.030384572
0.084932193 -0.029292926 0.036386587
0.099519357 -0.026041642 0.03351539
0.14214297 -0.027557395 0.032456521
-0.25446218 -0.041220151 0.045186158
-0.23057517 -0.040520564 0.043489601
-0.19000912 -0.038698927 0.04417013
-0.17160854 -0.036106288 0.041462757
-0.15925328 -0.035598055 0.044356957
-0.14632592 -0.035121933 0.047876835
-0.10715659 -0.032144498 0.040565997
-0.096233413 -0.032706741 0.049385391
-0.0010508541 -0.031742439 0.046475232
0.025054537 -0.031126175 0.042138424
0.039992265 -0.031894069 0.0426827
0.051113844 -0.033892635 0.047105595
0.086984016 -0.03352005 0.044269875
0.094018355 -0.032866519 0.041888781
0.1029694 -0.034470476 0.044286873
0.015263923 -0.029334223 0.040084809
-0.23416901 -0.041323066 0.056349739
0.12101802 -0.041565664 0.050352611
-0.17396989 -0.038397159 0.05718926
-0.16236417 -0.036691088 0.052155156
-0.14678879 -0.036521703 0.059967898
-0.10723266 -0.033777174 0.053789511
-0.099042103 -0.034096174 0.059569817
-0.050908834 -0.031487793 0.054605804
-0.012524913 -0.033100605 0.054594554
0.015499718 -0.035941951 0.054637261
0.024391396 -0.03530423 0.051196553
0.058052547 -0.035647396 0.058431931
0.06772989 -0.036090769 0.058215976
0.072709918 -0.035136774 0.051836241
-0.27744278 -0.045415517 0.067478329
-0.25436121 -0.042036731 0.066073477
-0.2443191 -0.041482266 0.065662369
-0.21867304 -0.041371107 0.063673303
0.001884033 -0.042198114 0.068825737
0.025283068 -0.042130601 0.066240266
0.036128633 -0.040270083 0.062353425
0.063155837 -0.040586747 0.062585935
0.075058773 -0.040981468 0.062692806
-0.17689577 -0.039611783 0.06495849
-0.14947398 -0.037580755 0.067720257
-0.10436876 -0.03548377 0.068050139
-0.033929735 -0.031890646 0.060862221
-0.025098845 -0.034739599 0.069702677
0.033867814 -0.037492257 0.068822965
0.040372334 -0.036748249 0.060249627
0.065218836 -0.037198085 0.068250537
-0.34284627 -0.057190239 0.079840586
-0.33431989 -0.056275532 0.078249738
-0.30535847 -0.053890698 0.079506218
-0.27342933 -0.05184409 0.078418575
-0.25811154 -0.054793913 0.078951724
-0.28833646 -0.041832224 0.079142384
-0.27998188 -0.040185433 0.079974391
-0.26773411 -0.042974655 0.075634524
-0.25486261 -0.042571202 0.078864448
-0.23065822 -0.046254463 0.078751072
-0.22105116 -0.041502692 0.071465097
-0.20301639 -0.041359045 0.072398059
0.029839952 -0.043106653 0.074864581
0.074864388 -0.042133436 0.073647752
-0.17017564 -0.034296025 0.079390436
-0.16451849 -0.038034461 0.074888736
-0.15285654 -0.038898289 0.07733956
-0.088473439 -0.035590969 0.072207734
-0.02320252 -0.0353534 0.071332172
-0.2545532 -0.023740191 0.07891947
-0.2267476 -0.022023149 0.07918822
-0.1908616 -0.02528766 0.079474539
-0.26666492 -0.012923084 0.078194819
-0.19265777 -0.010447524 0.079720825
-0.2804476 -0.0049167667 0.078303382
-0.25253087 -0.00066800602 0.079317763
-0.21226111 -0.00062916242 0.079704329
-0.19016241 -0.0047326013 0.079869069
-0.18912785 -0.0057617128 0.07986021
-0.27690983 0.00033091567 0.078219451
-0.22492492 0.001338419 0.079617687
-0.20295066 0.0089428034 0.079998389
-0.19509524 0.0026662666 0.079962902
-0.27263036 0.010558366 0.078450412
-0.26910174 0.018592458 0.079005063
-0.26066828 0.020663518 0.07961598
-0.32540238 -0.058611017 0.082579777
-0.31248039 -0.058413047 0.086195394
-0.29729855 -0.05698527 0.085501842
-0.27540535 -0.054879054 0.085101217
-0.26621872 -0.054276131 0.08249782
-0.23473614 -0.056598991 0.087879375
-0.28798771 -0.04800868 0.083743602
-0.25326523 -0.046391319 0.082943439
-0.24770343 -0.044087611 0.083745494
-0.23413429 -0.044602707 0.083533227
-0.20793575 -0.048583545 0.083386898
-0.18104452 -0.046529509 0.083727784
-0.17739092 -0.04192327 0.084228881
-0.16486341 -0.04047488 0.083205476
-0.031652682 -0.04073447 0.086766407
-0.021754511 -0.040109403 0.087148368
-0.01464745 -0.041398413 0.082857721
0.022336174 -0.042278118 0.087929428
0.069438636 -0.040556692 0.080222964
-0.28299052 -0.038444877 0.080148533
-0.2761673 -0.034248028 0.083210595
-0.25682545 -0.033988174 0.081399567
-0.20518252 -0.039016753 0.083967403
-0.19192325 -0.03039092 0.083243743
-0.16862144 -0.039430812 0.083203681
-0.15847588 -0.039906263 0.082835376
-0.099713311 -0.038561396 0.088574171
-0.089894824 -0.038206667 0.088476837
-0.057589941 -0.036046408 0.081841744
-0.23406398 -0.022637725 0.08383736
-0.20004559 -0.023214517 0.083251774
-0.18904138 -0.024693549 0.083086029
-0.24573202 -0.016045835 0.083922192
-0.21492395 -0.0051659113 0.08318501
-0.18750806 -0.0037162837 0.080318756
-0.19669585 0.0083165821 0.082188547
-0.18782127 0.0017203838 0.081445612
-0.27044955 0.019307431 0.082681634
-0.23801985 0.014551026 0.083231792
-0.2048219 0.018305494 0.080427341
-0.27478206 0.020063745 0.082566932
-0.25947893 0.021419547 0.083483145
-0.23021777 0.020316107 0.082955487
-0.21156161 0.026449572 0.080406398
-0.28431541 0.039555047 0.082131252
-0.27281284 0.036597673 0.081972115
-0.26477975 0.037367456 0.083286494
-0.22562541 0.03455878 0.082180962
-0.21668939 0.032527365 0.08127813
-0.27228719 0.040276736 0.083365217
-0.2578364 0.048640244 0.082771122
-0.2474777 0.043029919 0.080168709
-0.23447196 0.048666313 0.080441631
-0.29400644 0.053600334 0.081356473
-0.30044043 0.063582495 0.080590561
-0.26994491 0.065914944 0.082629703
-0.25498623 0.068650611 0.082010925
-0.29743519 0.075584032 0.081607498
-0.28517726 0.074791171 0.081388108
-0.26682729 0.073689379 0.08053261
-0.25672975 0.075305 0.081155039
-0.28389457 0.080521278 0.080520846
-0.27218822 0.087728158 0.082357928
-0.26416731 0.085296914 0.080798239
-0.29237154 0.090192914 0.081601381
-0.31462753 -0.056859694 0.093483031
-0.30681354 -0.054169968 0.098575726
-0.29683709 -0.053528067 0.095879845
-0.27979529 -0.053869843 0.095808215
-0.25391531 -0.057240255 0.097157314
-0.24195859 -0.056009673 0.096408166
-0.23525998 -0.056813724 0.093838885
-0.17131366 -0.046626024 0.094957396
-0.15781057 -0.043930493 0.091852725
-0.14764915 -0.040037982 0.098761499
-0.030227179 -0.044385888 0.098212883
0.051635012 -0.041239969 0.09304218
-0.087675944 -0.039208293 0.095581017
-0.041589953 -0.038020335 0.09443035
-0.03282645 -0.038988087 0.092805371
0.01004996 -0.039898321 0.099390686
0.030327812 -0.038499266 0.093664557
-0.34563386 -0.058552302 0.10744125
-0.333839 -0.057786182 0.10563498
-0.32300165 -0.058354408 0.10832544
-0.30219877 -0.053499795 0.10723308
-0.29712921 -0.053525511 0.10242994
-0.28821352 -0.053890593 0.10431211
-0.27350706 -0.055926781 0.10261846
-0.25490022 -0.057232294 0.1032105
-0.23846895 -0.05733756 0.10147142
-0.15332757 -0.040164195 0.10143684
-0.13988088 -0.040090688 0.10617931
-0.04393905 -0.040769074 0.10740549
-0.038163573 -0.040177863 0.10005854
0.013003104 -0.041256256 0.10367174
0.029977499 -0.041057523 0.10687761
0.036686383 -0.040060189 0.10250886
-0.10580605 -0.039625578 0.104472
-0.067430072 -0.039136257 0.10925376
0.016463196 -0.039132718 0.10276995
-0.33122554 -0.058459438 0.11459325
-0.30894876 -0.058073558 0.11099619
-0.2736924 -0.056425676 0.11222363
-0.26954868 -0.0547149 0.11812081
-0.25531411 -0.057201568 0.11270133
-0.24641871 -0.057250276 0.11016656
-0.19333047 -0.044226006 0.11421876
-0.18761918 -0.042118169 0.11516689
-0.17342612 -0.04104859 0.11652461
-0.15463303 -0.040412668 0.11354845
-0.041429762 -0.042669199 0.111853
0.023892719 -0.040405646 0.11267782
-0.076357841 -0.039271109 0.11208021
-0.062306039 -0.03999614 0.11833854
0.0070908708 -0.039769411 0.11098821
-0.34967473 -0.058823131 0.12466557
-0.29461631 -0.057675198 0.12593709
-0.26023182 -0.057208978 0.12094405
-0.21371214 -0.043865755 0.12875403
-0.19530807 -0.045550458 0.12696475
-0.18647772 -0.046040144 0.12524647
-0.15134311 -0.040462565 0.12134504
-0.068110533 -0.043709539 0.1267439
-0.056485772 -0.040934447 0.12025084
-0.094984293 -0.039432995 0.12589712
-0.083017394 -0.039519288 0.12863779
-0.067111224 -0.039766394 0.12002873
-0.34459138 -0.057120897 0.13198826
-0.33336371 -0.058461476 0.13522302
-0.30219498 -0.055305231 0.13513599
-0.28191832 -0.05728925 0.1367037
-0.21769132 -0.044087041 0.13366012
-0.20080695 -0.045345828 0.13045517
-0.074230209 -0.0450891 0.13301882
-0.11862289 -0.039733738 0.13711485
-0.33649722 -0.055269342 0.14837536
-0.32991979 -0.058177307 0.14023073
-0.30427018 -0.055805977 0.14176266
-0.29151556 -0.054924894 0.14710271
-0.28917554 -0.057347115 0.14014874
-0.20720619 -0.043992549 0.14746019
-0.1927532 -0.041986175 0.14331073
-0.17882164 -0.04100835 0.14842798
-0.07516332 -0.044011526 0.14674386
-0.13790332 -0.039970569 0.14682552
-0.32667926 -0.055770569 0.15649322
-0.31738809 -0.057574648 0.15338875
-0.30823919 -0.05734919 0.15804248
-0.21451636 -0.044070315 0.15711762
-0.20556599 -0.042719625 0.15520976
-0.1971453 -0.042112138 0.15427567
-0.17170182 -0.040795401 0.15382197
-0.16497788 -0.04060765 0.15151983
-0.14482358 -0.040022634 0.15694466
-0.12082919 -0.040062364 0.15574017
-0.0855776 -0.042796198 0.15983172
-0.32196748 -0.057532512 0.16020228
-0.21895339 -0.043594398 0.16459291
-0.20624498 -0.042604193 0.16430932
-0.18512656 -0.043337435 0.16307908
-0.20603454 -0.045036256 0.1713293
-0.1609837 -0.040456317 0.17219079
-0.12483209 -0.040387556 0.17359094
-0.1068767 -0.042068351 0.17786649
-0.096969202 -0.04402351 0.17266114
-0.22385581 -0.043676861 0.18055168
-0.21588485 -0.043511961 0.18603642
-0.20301068 -0.041921444 0.1838477
-0.19483697 -0.041487683 0.18115637
-0.18829486 -0.041228022 0.18822019
-0.14381933 -0.040339537 0.18525308
-0.11953049 -0.041110415 0.18185861
-0.21137092 -0.042379051 0.19650838
-0.19585896 -0.042623669 0.19571638
-0.13501431 -0.041067824 0.19909072
-0.11513827 -0.043884814 0.19354454
-0.19815616 -0.041472234 0.20014378
-0.15614991 -0.040666476 0.20237061
-0.2126683 -0.041937746 0.21789891
-0.21286352 -0.041822165 0.22574437
-0.18115976 -0.041068081 0.22579953
-0.16958942 -0.040834576 0.22239035
-0.14249732 -0.042965554 0.22419345
-0.22521842 -0.042381898 0.23955703
-0.21513698 -0.041761622 0.23809448
-0.19402395 -0.041324656 0.23379368
-0.1784825 -0.040974334 0.23715268
-0.16201997 -0.042510599 0.23734026
-0.23539054 -0.043362293 0.24144828
-0.226257 -0.042371579 0.24304077
-0.17188528 -0.041756447 0.24688491
-0.16534123 -0.042993084 0.24334638
-0.21646832 -0.041753061 0.25843763
-0.20747134 -0.041298643 0.25930482
-0.18474725 -0.040982373 0.25311127
-0.17057934 -0.042615112 0.25441605
-0.21887128 -0.041605383 0.26444206
-0.19773537 -0.041953847 0.26434851
-0.18507445 -0.041539691 0.26145411
