# .PCD v0.7 - Point Cloud Data file format
VERSION 0.7
FIELDS x y z
SIZE 4 4 4
TYPE F F F
COUNT 1 1 1
WIDTH 828
HEIGHT 1
VIEWPOINT 0 0 0 1 0 0 0
POINTS 828
DATA ascii
0.095333323 -0.0227171 -0.38722068
0.11877601 -0.0246672 -0.3870154
0.12303704 -0.0246672 -0.38912404
0.13435273 -0.023603324 -0.38625371
0.14433989 -0.0227171 -0.38535851
0.16131283 -0.0227171 -0.38803804
0.17154467 -0.0227171 -0.3882184
0.08507935 -0.0246672 -0.37484652
0.091363609 -0.0227171 -0.37857413
0.10942344 -0.0246672 -0.37464395
0.13523391 -0.0246672 -0.37816465
0.16389449 -0.0246672 -0.37214473
0.07808347 -0.0246672 -0.35480902
0.09392491 -0.0227171 -0.35936642
0.12252936 -0.0227171 -0.35090011
0.13751869 -0.0227171 -0.35778552
0.15973432 -0.0227171 -0.35624394
0.17601584 -0.0246672 -0.353306
0.10877874 -0.0246672 -0.34613287
0.11578034 -0.0227171 -0.34454477
0.13592975 -0.02369215 -0.34680402
0.16383013 -0.0246672 -0.34041163
0.11807799 -0.0246672 -0.33194825
0.12809317 -0.0227171 -0.33429134
0.16762932 -0.0227171 -0.33415291
0.097532153 -0.0227171 -0.32251769
0.10762011 -0.0227171 -0.3284646
0.11614239 -0.0227171 -0.32115883
0.12681226 -0.0227171 -0.32860413
0.17291006 -0.0246672 -0.32328802
0.074679419 -0.0227171 -0.31748307
0.080483824 -0.0227171 -0.31668895
0.099074863 -0.0246672 -0.31294018
0.16783012 -0.0227171 -0.31577736
0.10686015 -0.0246672 -0.30739167
0.12486278 -0.0227171 -0.30630949
0.17086187 -0.0227171 -0.30977544
0.092688315 -0.0246672 -0.29920375
0.10550608 -0.0246672 -0.29547951
0.15547854 -0.0246672 -0.29196477
0.086142682 -0.0246672 -0.28309485
0.094296172 -0.024667202 -0.28428242
0.11233523 -0.0227171 -0.2892518
0.15750191 -0.0227171 -0.286874
0.16565128 -0.022717098 -0.28603163
0.17007068 -0.0227171 -0.28857997
0.091841087 -0.02369215 -0.27867278
0.10687189 -0.02369215 -0.27779448
0.13218981 -0.0246672 -0.27472961
0.15743297 -0.0246672 -0.2769323
0.074616969 -0.0227171 -0.26103812
0.12690696 -0.0246672 -0.26295027
0.13747224 -0.02369215 -0.26205114
0.077231735 -0.0227171 -0.25741562
0.13478497 -0.0246672 -0.25439289
0.1758244 -0.023160126 -0.25654459
0.069862157 -0.0227171 -0.24998853
0.083325423 -0.0227171 -0.24716944
0.12069453 -0.0246672 -0.24498361
0.16288798 -0.0227171 -0.24340864
0.17373396 -0.0246672 -0.24250355
0.074843347 -0.02369215 -0.23086502
0.083026901 -0.0227171 -0.23908621
0.10977986 -0.0246672 -0.23397969
0.11667519 -0.0227171 -0.23111126
0.12135416 -0.0227171 -0.23708336
0.13482404 -0.0227171 -0.2385304
0.16133845 -0.0246672 -0.23433109
0.056606356 -0.0246672 -0.22788766
0.075606376 -0.02369215 -0.22530603
0.099353939 -0.0227171 -0.22466932
0.1032415 -0.0227171 -0.22464032
0.12794203 -0.0246672 -0.22217527
0.14665323 -0.0246672 -0.22544868
0.16506529 -0.0246672 -0.22097054
0.090387873 -0.0246672 -0.21119757
0.10405552 -0.0227171 -0.21692877
0.1154213 -0.0227171 -0.21405126
0.12619852 -0.0246672 -0.21880516
0.14205885 -0.0246672 -0.21008711
0.1501641 -0.0227171 -0.21847808
0.052659787 -0.023267319 -0.20766526
0.068071537 -0.02369215 -0.20250842
0.07742165 -0.0246672 -0.20715971
0.084170602 -0.02369215 -0.20686334
0.095745578 -0.0227171 -0.2015087
0.10906912 -0.0246672 -0.20689483
0.13483755 -0.0246672 -0.20746343
0.16542244 -0.0246672 -0.20901716
0.082724161 -0.0246672 -0.19541845
0.12253729 -0.0227171 -0.19025601
0.1387316 -0.0227171 -0.19707072
0.16914335 -0.0227171 -0.1992826
0.066965126 -0.0246672 -0.18131272
0.084400885 -0.0246672 -0.18034132
0.14076091 -0.0246672 -0.18394621
0.051543731 -0.0246672 -0.17504235
0.077192433 -0.0246672 -0.17486653
0.08487194 -0.0227171 -0.17033406
0.093486682 -0.0227171 -0.17436875
0.10094986 -0.0246672 -0.17457521
0.15934849 -0.0227171 -0.17279939
0.16201612 -0.0227171 -0.17735605
0.176258 -0.023736188 -0.17540085
0.10201561 -0.0227171 -0.16940811
0.13164133 -0.0246672 -0.16828637
0.14743844 -0.0246672 -0.1611345
0.15128906 -0.0227171 -0.16100456
0.046512019 -0.0246672 -0.15209459
0.062729172 -0.0246672 -0.15476276
0.073972911 -0.0227171 -0.15725666
0.084385678 -0.0246672 -0.15518868
0.11923405 -0.0227171 -0.15014516
0.12017709 -0.0227171 -0.15750401
0.14120094 -0.0246672 -0.15535076
-0.21843345 -0.0052851252 -0.15411666
0.057240706 -0.02369215 -0.14231673
0.085671768 -0.0246672 -0.14508258
0.090318546 -0.0227171 -0.14073935
0.11494462 -0.0246672 -0.14549084
0.13795123 -0.0227171 -0.14690147
0.15547042 -0.0227171 -0.14239931
-0.22710097 -0.007015489 -0.1442218
0.088867471 -0.0227171 -0.13428271
0.1048841 -0.02369215 -0.13462213
0.11400494 -0.0227171 -0.13394904
0.14987917 -0.0227171 -0.13477731
0.15078053 -0.0246672 -0.1345416
-0.23370224 -0.010134994 -0.13384689
-0.22776386 -0.0062033492 -0.13775149
-0.215149 -0.0042418749 -0.13401291
-0.19351946 0.0046739136 -0.13103014
0.046291642 -0.0246672 -0.12019455
0.066608906 -0.0227171 -0.12752692
0.079501629 -0.0246672 -0.12765345
0.10741317 -0.0227171 -0.1207469
0.15900281 -0.0246672 -0.12370846
0.16639423 -0.0246672 -0.12414572
-0.24362952 -0.012606487 -0.12299588
-0.22392216 -0.0049831206 -0.12814432
0.049507044 -0.0227171 -0.11691792
0.053968728 -0.0227171 -0.11975846
0.12893122 -0.0246672 -0.11706589
0.13188845 -0.0227171 -0.11642633
0.1669594 -0.0246672 -0.11919057
-0.22899857 -0.0065953452 -0.11541681
-0.21464582 -0.0020366574 -0.11442149
-0.20201972 -7.1585819e-05 -0.11402756
0.038562585 -0.0227171 -0.10096156
0.04278335 -0.0246672 -0.10500109
0.065403551 -0.0246672 -0.10567154
0.077004619 -0.0227171 -0.10266057
0.10480627 -0.0246672 -0.10700256
0.12107617 -0.0227171 -0.10421056
0.15844324 -0.0246672 -0.10779122
-0.21613236 -0.0045542251 -0.10746652
-0.20426847 0.0012595416 -0.10552917
0.038831361 -0.0246672 -0.097864076
0.050334264 -0.0227171 -0.094904035
0.060897894 -0.0227171 -0.097205706
0.10365574 -0.0246672 -0.092977166
0.15332942 -0.0246672 -0.090146706
0.168118 -0.02369215 -0.098471366
-0.2200205 -0.0057892213 -0.090430081
-0.20872405 -0.0022011006 -0.095364243
-0.19409786 0.0031264871 -0.092329524
0.043642923 -0.0246672 -0.081616089
0.069597498 -0.0246672 -0.081439875
0.13276382 -0.0246672 -0.0861791
0.14352746 -0.022717098 -0.084887408
0.15515617 -0.0246672 -0.083383515
0.16104154 -0.0246672 -0.084002994
0.17582098 -0.0227171 -0.084165663
0.035486829 -0.0227171 -0.078035682
0.048884798 -0.0246672 -0.071908996
0.068512358 -0.0227171 -0.076428168
0.073925279 -0.0227171 -0.073944986
0.16733341 -0.02369215 -0.077311516
-0.24050063 -0.010249778 -0.072745889
-0.21749339 -0.0029410957 -0.076956868
-0.19596663 0.0038965289 -0.078841515
0.03057814 -0.0246672 -0.06081485
0.051824525 -0.0227171 -0.06368196
0.069859929 -0.0246672 -0.062836438
0.078743108 -0.0227171 -0.064775668
0.085391492 -0.0227171 -0.063488446
0.12358169 -0.0227171 -0.069786787
0.15852927 -0.0246672 -0.067217447
0.16266018 -0.0246672 -0.06332051
0.176258 -0.024035186 -0.067756779
-0.22935128 -0.006708161 -0.061170105
-0.19597384 0.0018487789 -0.065477923
0.037227552 -0.0246672 -0.059718121
0.04785924 -0.0246672 -0.053814922
0.064868078 -0.0227171 -0.058948159
0.09571106 -0.02369215 -0.05432567
0.11434498 -0.0246672 -0.050195646
0.12910719 -0.0227171 -0.052218411
0.1368552 -0.0227171 -0.051613379
0.14320137 -0.0246672 -0.053077858
-0.24297805 -0.011036061 -0.057186704
-0.21568331 -0.0044115889 -0.056031451
-0.20367913 -0.00059866998 -0.051408578
0.057065897 -0.0227171 -0.046809394
0.13903975 -0.0246672 -0.040625233
0.15334375 -0.0227171 -0.047665976
0.16745992 -0.0227171 -0.047219746
-0.25185728 -0.013856215 -0.047882438
-0.2417714 -0.010652603 -0.045237463
-0.21270044 -0.0027824007 -0.04545933
0.057719205 -0.02369215 -0.032149978
0.077535585 -0.0246672 -0.032028854
0.098941073 -0.0227171 -0.031521562
0.10101882 -0.0227171 -0.031711303
0.14975208 -0.0246672 -0.034065712
-0.24590309 -0.014010494 -0.034961592
-0.21499108 -0.0041917134 -0.034934647
0.28072801 -0.0062954901 -0.037802961
-0.20519772 0.00096420565 -0.037081897
-0.19374071 0.0025580998 -0.032832466
0.085088611 -0.0227171 -0.02405287
0.12866385 -0.0227171 -0.023676809
0.15759933 -0.0227171 -0.029903755
0.1614895 -0.0246672 -0.022927213
0.17090774 -0.0227171 -0.026568759
-0.24722296 -0.013406877 -0.022363206
0.27998343 -0.0069024502 -0.020641686
-0.20166288 0.0020870219 -0.02686411
0.19821797 -0.072279043 -0.017062122
0.015607201 -0.060497724 -0.015093278
0.11250872 -0.066749297 -0.014632241
0.1267554 -0.06265793 -0.0155962
0.16705494 -0.066718876 -0.0155962
0.1845793 -0.06548024 -0.017545
0.25014424 -0.064489879 -0.0155962
-0.1028188 -0.0528575 -0.015283259
-0.099786438 -0.05061464 -0.0155962
-0.054561689 -0.052732728 -0.0155962
0.10434388 -0.059545804 -0.0155962
0.15171058 -0.055202492 -0.0155962
0.23041216 -0.056746472 -0.017545
0.25180185 -0.050673287 -0.0155962
-0.20518211 -0.046253566 -0.010168616
-0.12981075 -0.041260622 -0.0155962
-0.11504126 -0.047670212 -0.0155962
-0.037734464 -0.045312319 -0.0155962
0.030782245 -0.049770165 -0.0155962
0.057384469 -0.04879871 -0.0155962
0.14930645 -0.044076882 -0.0155962
0.15648656 -0.045016591 -0.0155962
0.16265965 -0.041448399 -0.0155962
0.20042022 -0.048895981 -0.017545
-0.25733399 -0.037959833 -0.012055414
-0.18398437 -0.037493192 -0.0155962
-0.13017558 -0.03193976 -0.0155962
-0.094486453 -0.036041357 -0.0155962
-0.060520772 -0.030704642 -0.0155962
0.015338056 -0.036906775 -0.0155962
0.022108622 -0.032014079 -0.0155962
0.036313355 -0.03351412 -0.0155962
0.052208915 -0.037414934 -0.0155962
0.064326167 -0.031130075 -0.0155962
0.072756886 -0.036209881 -0.0155962
0.087057948 -0.031938776 -0.0155962
0.12900817 -0.03435779 -0.0155962
0.26494154 -0.03696581 -0.0155962
-0.24741822 -0.02032478 -0.0155962
-0.20119701 -0.022175353 -0.0155962
-0.17250806 -0.024481602 -0.0155962
-0.14562598 -0.021791967 -0.0155962
-0.095650852 -0.024293246 -0.0155962
-0.073446378 -0.022153461 -0.0155962
-0.018297277 -0.023541391 -0.0155962
0.029878093 -0.028064243 -0.0155962
0.044165105 -0.025541093 -0.015781539
0.075558811 -0.0227171 -0.018374383
0.094586171 -0.0227171 -0.01863306
0.14364512 -0.021473618 -0.0155962
0.15627891 -0.0246672 -0.016345154
0.1674778 -0.0227171 -0.019661974
0.17759284 -0.026750831 -0.0155962
0.18249996 -0.02216354 -0.0155962
0.21843708 -0.0246672 -0.015798643
0.25336426 -0.023932822 -0.0155962
-0.23195341 -0.014033773 -0.0155962
-0.17415747 -0.019142363 -0.0155962
-0.16287801 -0.015925137 -0.0155962
-0.073845655 -0.017530369 -0.0155962
0.019245185 -0.015543824 -0.0155962
0.054165237 -0.01872891 -0.0155962
0.093932137 -0.019961454 -0.0155962
0.10558146 -0.012760838 -0.0155962
0.14710033 -0.011289711 -0.0155962
0.15620163 -0.017256599 -0.0155962
-0.21099359 -0.0020872494 -0.014252511
-0.2029601 -0.0043924218 -0.0155962
-0.14519507 -0.0086729638 -0.0155962
-0.12823454 -0.0079969289 -0.0155962
-0.10102208 -0.006872796 -0.0155962
-0.021307364 -0.0057943007 -0.0155962
0.018297531 -0.0016709408 -0.0155962
0.021409031 -0.0094076553 -0.0155962
0.051031541 -0.0059140967 -0.0155962
0.06277898 -0.0087283961 -0.0155962
0.071803108 -0.0071304622 -0.0155962
0.13212323 -0.0024767825 -0.0155962
0.22046426 -0.0004929906 -0.0155962
0.23519401 -0.0049589127 -0.0155962
0.26504955 -0.0042572068 -0.0155962
-0.25560123 0.0087435488 -0.0155962
-0.21199915 0.0099301916 -0.0155962
-0.19803466 0.0032398361 -0.013210651
-0.10806067 0.0021301473 -0.0155962
-0.047396988 0.0083573693 -0.0155962
0.023218744 0.0094831092 -0.0155962
0.035810053 5.3318217e-06 -0.0155962
0.05216258 0.0061268094 -0.0155962
0.065839708 0.0014784196 -0.0155962
0.092972971 0.0077708592 -0.0155962
0.11432099 0.0037611877 -0.0155962
0.26560616 0.0076916423 -0.0155962
-0.22854465 0.015176735 -0.0155962
-0.21096414 0.0116783 -0.0155962
-0.20367846 0.018403942 -0.014061307
-0.1716046 0.010840666 -0.0155962
-0.1493974 0.018711559 -0.0155962
-0.090325482 0.019153601 -0.0155962
-0.060822174 0.016678968 -0.0155962
-0.037289836 0.014634529 -0.0155962
0.024338923 0.012562461 -0.0155962
0.039920624 0.012678606 -0.0155962
0.078408994 0.010857787 -0.0155962
0.095534138 0.016849218 -0.0155962
0.10530411 0.019285537 -0.0155962
0.15819722 0.015576661 -0.0155962
0.16762194 0.016010329 -0.0155962
0.22433399 0.010935071 -0.0155962
0.26987678 0.012693628 -0.010732212
-0.17435308 0.022069614 -0.010478029
-0.1588119 0.024012262 -0.011215878
-0.13925701 0.025609255 -0.0155962
-0.12705255 0.027982183 -0.01039178
-0.11579927 0.023567922 -0.0155962
-0.10595063 0.024119167 -0.0155962
-0.093479596 0.021934815 -0.0155962
-0.084817328 0.021277333 -0.0155962
-0.059347007 0.0258375 -0.0155962
-0.027281638 0.024957964 -0.0155962
0.015699642 0.027293 -0.013629886
0.18538243 0.022074442 -0.0155962
-0.089625992 0.032660499 -0.01060163
-0.052602749 0.033551656 -0.0155962
-0.046070695 0.03564477 -0.012917687
-0.039608795 0.038912646 -0.011225816
0.1444284 0.039809372 -0.013933915
0.18097973 0.030786593 -0.015596199
-0.0019453887 0.046244353 -0.0155962
0.00074356142 0.044593908 -0.0155962
0.016658142 0.047624059 -0.0155962
0.045234546 0.04156277 -0.0155962
0.12790558 0.041262764 -0.012555815
0.029206019 0.057803582 -0.010903075
0.05429804 0.056797225 -0.012889042
0.19468793 -0.072051264 -0.0020947494
0.070961684 -0.064068899 -0.005593542
-0.1238635 -0.05149981 -0.0090747168
-0.08139196 -0.05423985 -0.0043818611
-0.054188542 -0.055994872 -0.0018850099
-0.049900513 -0.056271508 -0.0041762576
-0.23129565 -0.044568852 -0.0040617222
-0.19182825 -0.04711508 -0.0052177412
-0.17648168 -0.048105165 -2.2307271e-05
-0.15050331 -0.049781151 -0.0037197398
-0.304122 -0.033794146 -0.0009619614
-0.2657271 -0.035147551 -0.0038992199
-0.25733399 -0.030632773 -0.0032275021
-0.25733399 -0.025013763 -0.0025939047
-0.25733399 -0.0065959021 -0.009338215
0.27877799 -0.0016516712 -0.0039711627
-0.304122 0.0060423603 -0.0018063706
-0.29215488 0.00088468008 -0.0038992199
-0.27601659 0.0076342123 -0.0038992199
-0.20036986 0.0024980931 -0.0040852581
-0.27516052 0.017897552 -0.0038992199
-0.17903054 0.021484932 -0.0004579667
-0.16934694 0.022695381 -0.0060565281
0.024778392 0.027293 -0.0088731777
0.073894791 0.027293 -0.0075802803
-0.30050576 0.039333746 -0.0038992199
-0.28631055 0.037083376 -0.0038992199
-0.06396462 0.035868172 -0.003204491
0.17779568 0.03541911 -0.00098585873
-0.28539783 0.041268677 -0.0038992199
-0.020403577 0.041313302 -0.0095957527
-0.013253021 0.042207122 -0.0031930825
0.08462178 0.040576763 -0.0053465944
-0.304122 0.058122341 -0.00039411604
-0.29383615 0.050898682 -0.0038992199
-0.28854531 0.057922017 -0.0038992199
-0.27552459 0.058206931 -0.0038992199
0.031014798 0.058056653 -0.0088652708
0.20240957 -0.072549514 0.0093611889
0.11682324 -0.067027651 0.0036755479
0.13263656 -0.068047836 0.0049263872
0.24960729 -0.067535497 0.0043317708
-0.11457065 -0.052099336 0.0090132933
-0.097558089 -0.0531969 0.00095015857
-0.051061518 -0.056196611 0.0096434541
-0.034375191 -0.057273123 0.0028944416
-0.019592836 -0.058226801 0.0016710092
-0.0086293481 -0.058934111 0.0021089774
0.26383975 -0.05634848 0.0073613897
-0.22374621 -0.045055903 0.0064269109
-0.28857034 -0.034469381 0.0038987701
0.27293 -0.032021768 0.000413951
-0.29003131 -0.024889845 0.0038987701
-0.28838813 -0.024408843 0.0038987701
0.27293 -0.024187796 0.0021696261
-0.30107132 -0.013419634 0.0038987701
-0.26072165 -0.016818017 0.0038987701
0.27293 -0.019634096 0.0071918988
-0.30219913 -0.004810486 0.0038987701
-0.23581161 -0.0087593719 0.0019850961
0.29002643 -0.00059144676 0.0018941999
-0.30267572 0.0049325088 0.0023072762
-0.28413719 0.0055808853 0.0038987701
0.27487901 0.0032215815 0.0031118887
-0.29321334 0.019460248 0.0038987701
-0.20184582 0.018633021 0.008026165
-0.19180246 0.019888442 0.0045120665
0.26508898 0.014256465 0.0067348504
-0.29832509 0.024652638 0.0038987701
-0.16930409 0.022700738 0.0067968681
-0.15891685 0.023999143 0.00521015
0.015455813 0.027386459 0.0024999455
0.075910926 0.027293 0.0013906569
0.20670968 0.029975588 0.0089850472
0.083951637 0.039236456 0.0016043542
-0.28651753 0.047552094 0.0038987701
-0.028340347 0.040321209 0.0094980272
-0.012825199 0.042260598 0.0091527794
0.090964079 0.042812414 0.0089672748
0.027795535 0.057574812 0.0048823515
0.031838164 0.058100879 0.0077747591
0.064992286 0.053953771 2.2519613e-05
-0.28074351 0.06080094 0.0038987701
0.20434122 -0.072516739 0.017101638
0.22664315 -0.074034691 0.012982907
0.0092979074 -0.060090683 0.012808971
0.015676193 -0.060502172 0.012263707
0.033500053 -0.061652075 0.012640932
0.058466848 -0.062596574 0.015237862
0.090608507 -0.065295272 0.0155958
0.16354048 -0.064192429 0.015595801
0.25305337 -0.065460995 0.012394221
-0.14266714 -0.050286695 0.013298518
0.03865236 -0.057668243 0.0155958
0.12977949 -0.057310931 0.015595799
0.13684711 -0.054666441 0.015595799
0.19865614 -0.050837073 0.017545899
0.20191133 -0.053382933 0.017545899
0.22665399 -0.053232081 0.017545899
0.25580758 -0.058238681 0.015595799
0.26325533 -0.051778007 0.0155958
-0.25493068 -0.043044046 0.014433064
-0.17909171 -0.046725746 0.0155958
-0.14412716 -0.04464335 0.0155958
-0.050194718 -0.040805113 0.0155958
-0.021604717 -0.049849484 0.015595799
0.048873015 -0.040162422 0.0155958
0.084648535 -0.049673382 0.0155958
0.10514212 -0.047942217 0.015595799
0.11983535 -0.044090342 0.0155958
0.12966919 -0.046420515 0.015595801
0.13593847 -0.046807408 0.015595801
0.19805792 -0.043626592 0.017545899
0.23264636 -0.044901527 0.017545899
0.25281137 -0.048763189 0.015595801
-0.24339801 -0.038175903 0.0155958
-0.19619605 -0.035640135 0.015595801
-0.18979785 -0.033009499 0.0155958
-0.14190257 -0.034015056 0.015595799
-0.12551546 -0.03557381 0.015595801
-0.11433862 -0.03483377 0.0155958
-0.075958505 -0.036172472 0.0155958
-0.0534385 -0.032550648 0.015595801
-0.049385592 -0.035195068 0.015595801
-0.017241552 -0.039127987 0.015595801
0.019807559 -0.032679886 0.015595799
0.031576317 -0.033397295 0.015595799
0.042712945 -0.034841597 0.015595798
0.092295997 -0.031225897 0.0155958
0.10986542 -0.039660636 0.015595801
0.15043299 -0.037694942 0.015595799
0.240622 -0.030787736 0.016651228
-0.09470509 -0.025198665 0.015595799
-0.058065053 -0.026592679 0.015595799
-0.040944997 -0.021064363 0.015595801
0.038042828 -0.0227171 0.016864255
0.062617555 -0.0246672 0.019785274
0.071420804 -0.029263213 0.0155958
0.11813591 -0.0246672 0.017203163
0.16533068 -0.025167836 0.017487261
-0.24081331 -0.019299794 0.0155958
-0.2073973 -0.015296848 0.015595801
-0.17689432 -0.013083125 0.0155958
-0.16841909 -0.012434064 0.015595799
-0.14304146 -0.015495315 0.015595799
-0.12519613 -0.01543031 0.0155958
-0.090152919 -0.018395804 0.015595799
-0.072139382 -0.011631446 0.015595801
-0.046792809 -0.019567443 0.015595801
0.0054476121 -0.010927283 0.0155958
0.068614565 -0.016185081 0.0155958
0.12708536 -0.01351879 0.015595801
0.16174525 -0.017489079 0.0155958
0.23680966 -0.017881408 0.015595799
0.25438336 -0.013408473 0.015595801
-0.23414275 -0.006416684 0.013094031
-0.22827807 -0.0063664746 0.017923987
-0.21602462 -0.0028155476 0.01597601
-0.15760615 -0.0090839332 0.015595801
-0.14061978 -0.0025807372 0.015595801
-0.067835562 -0.0030831951 0.015595799
-0.051586486 -0.0064726193 0.0155958
-0.017675415 -0.0041369633 0.0155958
0.0486071 -0.0048948559 0.0155958
0.15081179 -0.0018771864 0.015595801
0.20246077 -0.0087422607 0.015595801
0.25294846 -0.0094649205 0.0155958
-0.2535862 0.0026414993 0.015595799
-0.20108567 0.0022707349 0.018180463
-0.19025856 0.0046869577 0.017877722
-0.12552798 0.0083124461 0.0155958
-0.10135826 0.0025320328 0.0155958
-0.010269411 0.0057255193 0.015595801
0.0077332929 0.0046779821 0.015595801
0.015305907 0.0044862116 0.0155958
0.056698225 0.0048232432 0.015595801
0.067759521 0.0059289099 0.0155958
0.075789906 0.00070171122 0.0155958
0.13913921 0.0053564953 0.015595801
0.2409427 0.00045007188 0.0155958
0.25589159 0.0066082305 0.015595799
-0.19690289 0.017518707 0.0155958
-0.14175174 0.012072523 0.015595799
-0.13698511 0.015794978 0.0155958
-0.097398914 0.017542748 0.015595801
-0.062215179 0.016925186 0.015595801
0.0054124841 0.01513123 0.015595801
0.03178113 0.01495474 0.0155958
0.08060623 0.016541015 0.015595801
0.10070044 0.012485335 0.015595801
0.15024412 0.014929885 0.015595801
0.1773185 0.011674047 0.0155958
0.18224896 0.01999929 0.015595799
0.21295142 0.010126282 0.0155958
0.22999267 0.016376823 0.0155958
0.23114279 0.017680172 0.015595801
0.24624984 0.013154706 0.015595799
0.25680864 0.016928688 0.014211161
-0.19047561 0.020054299 0.010484532
-0.18696648 0.020492939 0.011317074
-0.12726571 0.027955534 0.014934126
-0.097232156 0.020332851 0.015595799
-0.043657307 0.029469326 0.0155958
-0.01633203 0.025150305 0.0155958
0.13494886 0.029721111 0.0155958
0.18314366 0.024377935 0.0155958
0.22672233 0.025362901 0.013050327
-0.067605808 0.035413023 0.011006209
-0.052282304 0.034144804 0.015595801
0.0061810752 0.037230358 0.0155958
0.047070075 0.032977078 0.015595799
0.052827626 0.035591356 0.015595801
0.082924902 0.037344828 0.015595801
0.090620212 0.039072968 0.015595799
0.13319576 0.031820517 0.015595799
0.14272076 0.035725936 0.015595801
0.073607035 0.041071415 0.0155958
0.084351756 0.043843731 0.012434324
0.096278749 0.042733938 0.013767511
0.10897388 0.042345919 0.010202724
0.037892811 0.054484218 0.015595801
0.035647959 -0.0227171 0.022017555
0.066202521 -0.02369215 0.02378583
0.13444844 -0.0246672 0.02715046
0.14636406 -0.0227171 0.026184864
-0.25366437 -0.014430119 0.025871081
-0.24615653 -0.014090997 0.024268908
-0.23485422 -0.0105009 0.023031367
-0.22351027 -0.0062158369 0.024713323
-0.20671546 0.00048246514 0.024191942
0.024543323 -0.024553828 0.037002154
0.042223133 -0.0227171 0.030678328
0.054321103 -0.0246672 0.032219525
0.084310547 -0.0246672 0.038411599
0.10795839 -0.0246672 0.038875729
0.11246367 -0.0246672 0.038021926
0.12168686 -0.0227171 0.036680229
0.13912983 -0.0227171 0.039667025
0.14158878 -0.0246672 0.030381383
0.16740695 -0.0227171 0.03581325
0.17591038 -0.0246672 0.031371124
-0.24348541 -0.013242492 0.039917946
-0.23037264 -0.0090774028 0.039136626
-0.22849788 -0.008481916 0.036989465
-0.2152186 -0.0022185494 0.035830785
-0.20191032 0.0020084193 0.030396797
0.066123299 -0.0246672 0.041404136
0.11113723 -0.0227171 0.049595401
0.14520787 -0.0246672 0.048811167
0.16289864 -0.0227171 0.045299485
0.17333521 -0.0227171 0.041576572
-0.24566209 -0.012570226 0.043019474
-0.19397131 0.0045303721 0.048005469
0.27877799 0.0016574974 0.040628374
0.029609634 -0.0227171 0.054958489
0.038538583 -0.0227171 0.052853163
0.040559553 -0.0246672 0.05869697
0.084763028 -0.0227171 0.052601188
0.10322266 -0.0227171 0.052547511
0.12936278 -0.0227171 0.051583108
0.15272753 -0.0246672 0.054463867
0.17254773 -0.0227171 0.058180694
-0.24863748 -0.012833641 0.056164283
-0.20946196 -0.00243548 0.055062141
0.033827428 -0.024017164 0.067313194
0.054856598 -0.023204625 0.064284928
0.082963027 -0.0246672 0.063710026
0.090356044 -0.0246672 0.06094972
-0.23441976 -0.010362902 0.069351345
-0.22364196 -0.0069395169 0.061497603
-0.19719304 0.0014615247 0.068170346
0.040705573 -0.0246672 0.075166129
0.083435848 -0.0227171 0.07240428
0.095705293 -0.0246672 0.077798575
0.12479986 -0.0227171 0.073222861
0.13469334 -0.02369215 0.073706359
0.16921255 -0.0227171 0.077087171
0.17391212 -0.0227171 0.076828316
-0.24818555 -0.014735531 0.070913613
-0.22601847 -0.0056491783 0.076224506
-0.20347011 -0.00053227926 0.072774298
0.038049653 -0.02369215 0.085679978
0.046613578 -0.0246672 0.089578353
0.075931899 -0.0227171 0.085316755
0.10612761 -0.024017164 0.084144793
0.12271987 -0.02369215 0.089115657
0.13763076 -0.02369215 0.085381232
0.14391091 -0.0227171 0.082662471
0.17472234 -0.02369215 0.082342014
-0.2474141 -0.012445702 0.089066893
-0.22909862 -0.0086727282 0.084733494
-0.21333532 -0.0016204919 0.086457714
-0.20477167 -0.00094569707 0.088811368
-0.20268203 0.0017633787 0.084769189
-0.19658902 0.001653384 0.084677495
0.12676422 -0.0246672 0.094145887
0.14383434 -0.023367131 0.094875336
0.15576385 -0.02369215 0.098415941
0.1695599 -0.0227171 0.094889224
-0.24718437 -0.014417505 0.091699138
-0.23266415 -0.007759945 0.09803047
-0.20732573 -0.0017569434 0.095884547
-0.19030744 0.0052146818 0.09542045
0.047341436 -0.0227171 0.10894842
0.067242235 -0.0227171 0.10047475
0.07877335 -0.0227171 0.10805098
0.082782067 -0.0246672 0.10281637
0.10797252 -0.0246672 0.10249829
0.11307755 -0.0246672 0.1023253
0.12336241 -0.0246672 0.10602422
0.13966799 -0.0246672 0.10929648
0.14085524 -0.0246672 0.10392321
0.17140603 -0.0246672 0.10650724
-0.22800732 -0.0083260993 0.10315191
-0.2050021 0.0010265062 0.10272961
-0.1904438 0.0056433273 0.10860299
0.041798558 -0.0246672 0.11919618
0.055345442 -0.0227171 0.11694498
0.074186355 -0.0246672 0.11870037
0.10655441 -0.0227171 0.1152081
0.12670508 -0.0227171 0.11683944
0.17464381 -0.0227171 0.11135401
-0.22355384 -0.0048660496 0.11485435
-0.21704814 -0.0048451023 0.11945154
-0.20727974 -0.0017423425 0.1134304
-0.18990803 0.003959043 0.11143895
0.074099481 -0.0246672 0.12464204
0.10855149 -0.0246672 0.12298489
0.11418389 -0.0227171 0.12351933
0.12078345 -0.0246672 0.12489726
0.14598584 -0.0246672 0.12299386
0.15535562 -0.0246672 0.12936629
0.05646053 -0.0227171 0.13246104
0.10900055 -0.02369215 0.13455421
0.14221045 -0.0246672 0.1354641
0.17341247 -0.0227171 0.13193715
-0.22465006 -0.0072597237 0.13248742
-0.20938826 -0.00036658766 0.13426888
-0.20260412 0.0017883061 0.13376144
0.04708432 -0.0227171 0.1456338
0.053080548 -0.0227171 0.14338142
0.078410074 -0.0227171 0.14887924
0.080160663 -0.0246672 0.14859718
0.094964981 -0.0227171 0.1488412
0.13096955 -0.0227171 0.14971069
0.16651119 -0.02369215 0.14454263
-0.19006383 0.0044488311 0.14802617
0.053811848 -0.0246672 0.15916368
0.082507253 -0.02369215 0.15432993
0.093647316 -0.0227171 0.15071271
0.10067496 -0.0227171 0.15124813
0.13598618 -0.0227171 0.15548287
0.14453793 -0.0246672 0.15976778
0.17352027 -0.0227171 0.15540712
-0.20692188 0.00041689863 0.15589058
0.055598028 -0.02369215 0.16206983
0.10478818 -0.0227171 0.16996333
0.11326112 -0.0227171 0.16079637
0.12880808 -0.0227171 0.16200203
0.1376172 -0.0227171 0.16152868
0.15680757 -0.0246672 0.16903664
0.055891801 -0.0246672 0.17752086
0.06049253 -0.02369215 0.17550291
0.10697312 -0.0227171 0.17465124
0.13369066 -0.02369215 0.17526177
0.1616786 -0.0227171 0.17277566
0.17427376 -0.0227171 0.17216857
0.058697492 -0.0227171 0.18678933
0.073821157 -0.0227171 0.1866193
0.14903179 -0.0246672 0.18277572
0.16284461 -0.0227171 0.18141796
0.058282208 -0.02369215 0.19440994
0.10956931 -0.0227171 0.19589779
0.13027729 -0.0227171 0.19615363
0.15072694 -0.0246672 0.19899325
0.064318888 -0.0227171 0.20156606
0.071915351 -0.0227171 0.20636231
0.08749938 -0.0246672 0.20127761
0.14583427 -0.0227171 0.20459853
0.091811091 -0.0227171 0.21261577
0.11111769 -0.0246672 0.21899356
0.13461202 -0.0246672 0.21416007
0.15141419 -0.0246672 0.21097967
0.065311559 -0.0227171 0.22121951
0.071169406 -0.0227171 0.22565845
0.080714777 -0.0227171 0.22180997
0.094467238 -0.0227171 0.22691295
0.13267672 -0.0246672 0.22889811
0.16740693 -0.0227171 0.22653189
0.11349527 -0.0227171 0.2366308
0.13200168 -0.0246672 0.23070696
0.16486077 -0.0227171 0.23256204
0.17334265 -0.0246672 0.23563756
0.067313232 -0.0227171 0.24192685
0.097827896 -0.0246672 0.24629578
0.10094019 -0.0227171 0.24618177
0.11818409 -0.0246672 0.24625041
0.13500664 -0.02369215 0.24752772
0.15517336 -0.0246672 0.24496928
0.16751967 -0.0227171 0.24285173
0.11685026 -0.0246672 0.25329623
0.12408237 -0.02369215 0.25496078
0.14727941 -0.0227171 0.25840151
0.15364034 -0.0246672 0.25557122
0.07283958 -0.0246672 0.26270854
0.10440536 -0.02369215 0.26525384
0.12441436 -0.0227171 0.26343495
0.13839602 -0.0227171 0.26946667
0.15083648 -0.0227171 0.26771706
0.1661437 -0.0227171 0.26939648
0.068140939 -0.02369215 0.2764833
0.07689362 -0.0227171 0.27950343
0.090724416 -0.0246672 0.27259639
0.11837777 -0.0227171 0.27796781
0.12485801 -0.02369215 0.27564132
0.133643 -0.0227171 0.27579233
0.14955834 -0.02369215 0.27664435
0.15128519 -0.0246672 0.27211395
0.16688421 -0.0246672 0.27394873
0.076152831 -0.0246672 0.28362453
0.10586977 -0.0246672 0.28536099
0.11477825 -0.0246672 0.28789937
0.13868541 -0.0246672 0.28572223
0.14371724 -0.02369215 0.28795639
0.081365675 -0.0246672 0.29525754
0.1168984 -0.0246672 0.29425403
0.13519704 -0.0227171 0.29904258
0.14404565 -0.0246672 0.29842395
0.16279617 -0.0227171 0.29910755
0.089116201 -0.0246672 0.30070138
0.11338093 -0.0227171 0.30601701
0.12894201 -0.0227171 0.30808574
0.14176489 -0.0246672 0.30897123
0.081100076 -0.0227171 0.31818211
0.12428534 -0.0246672 0.31745499
0.1394137 -0.0246672 0.31296742
0.14964604 -0.0227171 0.31171286
0.16203475 -0.0227171 0.31571424
0.1181026 -0.02369215 0.32542622
0.12707576 -0.0246672 0.32917303
0.14915195 -0.0227171 0.3274323
0.15363538 -0.02369215 0.32484248
0.16723602 -0.022717098 0.32587326
0.07849212 -0.0227171 0.3396565
0.10214153 -0.0227171 0.33169946
0.14292051 -0.0246672 0.33320588
0.17415041 -0.0227171 0.33233571
0.094583094 -0.0246672 0.34587181
0.14441493 -0.02369215 0.34606886
0.15319763 -0.0246672 0.34141272
0.16401473 -0.02369215 0.34014928
0.080693103 -0.0227171 0.35306168
0.1048082 -0.0246672 0.35796696
0.12659599 -0.0246672 0.35498345
0.176258 -0.022922216 0.35867545
0.092870623 -0.0246672 0.36417818
0.11380605 -0.0246672 0.36599857
0.17167147 -0.0227171 0.36329725
0.10363581 -0.0246672 0.37997571
0.16034637 -0.0227171 0.37240958
0.10714773 -0.0227171 0.38609204
0.12754284 -0.0246672 0.38292885
0.14045984 -0.0227171 0.38239095
0.15630409 -0.0227171 0.38422751
0.176258 -0.023943037 0.38305008
