# .PCD v0.7 - Point Cloud Data file format
VERSION 0.7
FIELDS x y z
SIZE 4 4 4
TYPE F F F
COUNT 1 1 1
WIDTH 811
HEIGHT 1
VIEWPOINT 0 0 0 1 0 0 0
POINTS 811
DATA ascii
-0.17499314 -0.064261273 -0.20011854
-0.15665069 -0.060741164 -0.20100877
-0.099507354 -0.060293138 -0.20104593
-0.064905182 -0.062967785 -0.20114967
-0.040653698 -0.061685681 -0.20023841
-0.15827802 -0.058135085 -0.20072573
-0.16185996 -0.072284989 -0.19614117
-0.14085287 -0.072663233 -0.19586582
-0.1309786 -0.073393926 -0.19451107
-0.07190071 -0.071862385 -0.19502464
-0.061378226 -0.071760006 -0.19583799
-0.058846802 -0.073126435 -0.19326214
-0.035337001 -0.072256245 -0.1917129
-0.23599783 -0.065598473 -0.19475877
-0.22220042 -0.064947978 -0.19513944
-0.036590241 -0.069760129 -0.19587952
-0.0042275824 -0.066193119 -0.19426218
0.006931785 -0.064628027 -0.19278508
-0.22200742 -0.058887135 -0.19087702
-0.21136612 -0.0561295 -0.19147873
-0.20576786 -0.05419264 -0.19024678
-0.19615051 -0.05758369 -0.19590031
-0.16224995 -0.054195497 -0.19839597
-0.15080546 -0.055480298 -0.19955143
-0.12646081 -0.05201498 -0.19736519
-0.083448581 -0.054035429 -0.1992382
-0.070159279 -0.050035059 -0.19588986
-0.067842223 -0.051102471 -0.19711453
-0.055589337 -0.051238343 -0.19734094
-0.03630152 -0.053816471 -0.19765615
-0.0060513802 -0.055251539 -0.19554621
0.004377068 -0.055945784 -0.19408676
-0.17912418 -0.074456148 -0.18292391
-0.15765075 -0.075725675 -0.18751341
-0.12110067 -0.07537286 -0.18617469
-0.023577545 -0.071988344 -0.18386742
-0.23415856 -0.063227892 -0.18443531
-0.013100692 -0.069704309 -0.18165898
0.0037301923 -0.067999311 -0.18506171
-0.22367954 -0.05186069 -0.18837434
-0.21380246 -0.055146825 -0.18761301
-0.2044476 -0.053405914 -0.18514927
0.017900171 -0.059105895 -0.18227965
-0.23618433 -0.043400198 -0.18999225
-0.17257497 -0.049242094 -0.18582407
-0.16456875 -0.048520245 -0.18683819
-0.088958547 -0.04709224 -0.18764004
-0.071930014 -0.048608102 -0.18019152
-0.16499913 -0.072766647 -0.17857315
-0.14670473 -0.072855994 -0.17839682
-0.041792199 -0.071882367 -0.17993039
-0.22434558 -0.062260553 -0.17811224
-0.21994147 -0.062027395 -0.17320576
-0.1947276 -0.063402742 -0.17588168
-0.16604912 -0.06830366 -0.17485103
-0.13127722 -0.063531831 -0.17290282
-0.12597758 -0.060277909 -0.17274681
-0.10144899 -0.06411811 -0.1729486
-0.053603124 -0.066390529 -0.17427227
-0.040706232 -0.069840588 -0.17775515
-0.009495954 -0.061094668 -0.17660326
-0.20691189 -0.058900483 -0.17839786
-0.18486615 -0.05478552 -0.17765972
-0.17071059 -0.054746501 -0.17574954
-0.15202957 -0.058092758 -0.17527847
-0.14002748 -0.056718022 -0.17110993
-0.13745092 -0.056703363 -0.1712479
-0.11017226 -0.059595846 -0.17667915
-0.096310705 -0.056947492 -0.173464
-0.085042134 -0.058147434 -0.17297792
-0.065919824 -0.050299577 -0.17753014
-0.050190546 -0.051055126 -0.17715916
-0.045343012 -0.0575158 -0.17372042
-0.034262389 -0.05664295 -0.17466715
-0.14558655 -0.049643442 -0.17982484
-0.073581554 -0.049220521 -0.17891401
-0.15563154 -0.058777187 -0.1677098
-0.13839841 -0.055228245 -0.16263336
-0.12552254 -0.058989462 -0.1661856
-0.11868566 -0.054885365 -0.16177677
-0.15567337 -0.054978952 -0.15402296
-0.13471985 -0.054146178 -0.15659538
-0.12274332 -0.057004441 -0.15304735
-0.11340204 -0.055846382 -0.15670924
-0.10591374 -0.056474287 -0.15873034
-0.1499754 -0.056153294 -0.14509317
-0.130899 -0.051819999 -0.14333192
-0.1050414 -0.052260041 -0.1453543
-0.15231214 -0.055196539 -0.13871239
-0.14564744 -0.051075365 -0.13671288
-0.13064875 -0.050461806 -0.13544798
-0.11587918 -0.053644337 -0.13237667
-0.13336024 -0.053629778 -0.12957595
-0.10201682 -0.052259799 -0.12687321
-0.1576656 -0.04931622 -0.12239826
-0.14558113 -0.049100854 -0.12525713
-0.11896811 -0.047561992 -0.12034026
-0.15647742 -0.052076623 -0.11846645
-0.14358008 -0.051048867 -0.11166563
-0.12881868 -0.051805738 -0.11800985
-0.10779595 -0.046610851 -0.11523435
-0.12258294 -0.044601157 -0.10275693
-0.089144483 -0.045487337 -0.10914895
-0.15066464 -0.043441586 -0.090904787
-0.10203882 -0.043470737 -0.097669244
-0.40282488 0.086424254 -0.093751967
-0.1368368 -0.041350134 -0.082013302
-0.12613367 -0.04171934 -0.08563742
-0.10636381 -0.041592896 -0.087131485
-0.087264121 -0.043562837 -0.084903121
-0.40314773 0.084643669 -0.084235631
-0.38688228 0.084782295 -0.084097281
-0.15783593 -0.04246033 -0.07096874
-0.13200636 -0.045418624 -0.075499088
-0.088149019 -0.044153642 -0.073553294
-0.075160578 -0.043035626 -0.07027553
-0.11970337 -0.039121844 -0.071621582
-0.10400973 -0.039263643 -0.074054852
-0.40215358 0.084552959 -0.077968858
-0.37489966 0.085225098 -0.070059732
-0.14584126 -0.04383707 -0.064218163
-0.10568073 -0.042850003 -0.062007699
-0.089185789 -0.043345656 -0.067904249
-0.073857814 -0.042331751 -0.063113995
-0.15530063 -0.038675576 -0.061872661
-0.1350024 -0.038626298 -0.06652005
-0.085010283 -0.037569921 -0.064813949
-0.39807931 0.084390104 -0.064518109
0.0014459478 -0.052020706 -0.051462233
0.028048053 -0.052355602 -0.050490994
-0.15695041 -0.041440606 -0.053928152
-0.13613327 -0.042542048 -0.056016304
-0.12782997 -0.041500475 -0.050189234
-0.077427283 -0.040990204 -0.053600509
-0.062217377 -0.040186305 -0.052666001
-0.05873587 -0.040527962 -0.05578018
0.049751613 -0.040955324 -0.054047335
-0.17206869 -0.039174832 -0.050770458
-0.14126647 -0.036146734 -0.051168818
-0.10401939 -0.036696605 -0.059662126
-0.072201811 -0.035133459 -0.053670213
-0.064122632 -0.036831167 -0.054294664
-0.051222537 -0.037770953 -0.055760086
-0.045675769 -0.039206754 -0.052364361
0.027495945 -0.039662175 -0.05769499
-0.017038349 -0.024332434 -0.053648822
-0.0075243926 -0.027572358 -0.055760503
0.020795994 -0.029846428 -0.057170659
0.04521244 -0.027803555 -0.054047551
0.011170097 -0.019074516 -0.050566733
-0.41387904 0.086299926 -0.051062591
-0.40716031 0.086765416 -0.052665748
-0.39474955 0.084299877 -0.058238629
-0.08498618 -0.052151565 -0.042001687
-0.071968608 -0.051737405 -0.043994334
-0.044892058 -0.05385875 -0.043276418
-0.20309544 -0.041016378 -0.04829843
-0.11218091 -0.043737661 -0.049952574
-0.1046304 -0.047341943 -0.046968911
-0.092757598 -0.049885821 -0.045271002
-0.15849499 -0.030081075 -0.041697703
-0.10616133 -0.027608508 -0.047023579
-0.097846135 -0.024494629 -0.044728827
-0.088293225 -0.0243688 -0.045882188
-0.06069836 -0.024421019 -0.049730591
-0.075670391 -0.01963729 -0.040207032
-0.027122907 -0.017690916 -0.045922663
0.039524361 -0.016708819 -0.045226123
-0.39978915 0.084224746 -0.049388498
-0.38203657 0.084331214 -0.042055294
0.0021512036 -0.061930168 -0.030571783
0.026290571 -0.061048038 -0.031280108
-0.27371609 -0.0506122 -0.031588782
-0.24638325 -0.052293297 -0.03232481
-0.23230776 -0.055654559 -0.030384541
-0.16061395 -0.055409711 -0.034032106
-0.15627538 -0.053086497 -0.035998326
0.031908445 -0.058518946 -0.038674302
0.062169515 -0.051721059 -0.030087668
-0.30632532 -0.042044852 -0.033320464
-0.29639509 -0.047528911 -0.031149901
-0.28819904 -0.045930259 -0.032987058
-0.25105929 -0.040610462 -0.037816271
-0.24829981 -0.047486085 -0.035255354
-0.23074165 -0.048204921 -0.035670385
-0.22529598 -0.046836842 -0.036710862
-0.21922252 -0.042267334 -0.038225964
0.068414882 -0.041380063 -0.032780785
0.078245461 -0.041985676 -0.032541625
0.13102815 -0.040158916 -0.032147788
0.15685861 -0.041122895 -0.031663325
-0.35718012 -0.035118416 -0.030030619
-0.27232137 -0.038577065 -0.037566535
-0.21887468 -0.031986978 -0.039588183
-0.19884109 -0.031188402 -0.038951337
0.023756335 -0.031073708 -0.033339731
0.037987839 -0.032402951 -0.033295572
0.084904194 -0.032369431 -0.032761149
0.13589498 -0.037394807 -0.032333396
0.16509883 -0.030328026 -0.031454425
0.19498004 -0.035860412 -0.030491818
-0.26030147 -0.026624966 -0.038487114
-0.12973772 -0.023878116 -0.03953157
0.045446835 -0.026560949 -0.03244723
0.052412238 -0.029865809 -0.032870144
0.077709913 -0.02394814 -0.031386696
0.10447627 -0.029208627 -0.032269839
-0.34352714 -0.018106099 -0.032252178
-0.30617347 -0.019495137 -0.034913596
-0.23615138 -0.015849564 -0.034571532
-0.22065684 -0.014633715 -0.033784717
-0.12113999 -0.01865357 -0.035480957
-0.071541019 -0.014130095 -0.033449732
-0.042082466 -0.01207846 -0.033262435
0.042546041 -0.011992482 -0.031663477
-0.42468604 0.084528692 -0.036425661
-0.38034779 0.084301218 -0.036950365
-0.20902291 -0.064905345 -0.021949733
-0.160989 -0.061525621 -0.029373296
-0.14806655 -0.06533362 -0.02579841
-0.13174357 -0.064782485 -0.026395626
-0.1175807 -0.063878611 -0.026983278
0.026666597 -0.063234918 -0.023738366
0.04391747 -0.062823176 -0.023727361
0.083794661 -0.060684215 -0.024409411
0.093262896 -0.061780214 -0.023507057
0.11130439 -0.06250377 -0.022560863
0.13729504 -0.0621236 -0.02229527
0.19356193 -0.062518343 -0.021271719
-0.32578552 -0.053540327 -0.020383073
-0.3136251 -0.050733767 -0.026042154
-0.29362121 -0.053832699 -0.025724547
-0.28446364 -0.056174509 -0.024258956
-0.22303385 -0.057002872 -0.029857481
-0.1875926 -0.059485383 -0.029969834
0.013503673 -0.057044823 -0.028477039
0.051648766 -0.054339573 -0.029138425
0.11232246 -0.050477065 -0.02981022
0.13110775 -0.057033595 -0.026340118
0.1695925 -0.057358883 -0.025022969
0.21372536 -0.053480707 -0.024807353
0.23073328 -0.052089732 -0.025098283
-0.34396553 -0.047152713 -0.024445165
-0.33840948 -0.04634095 -0.026246682
0.16734478 -0.048018448 -0.029498618
0.23528366 -0.044407766 -0.027555674
0.2505489 -0.042799879 -0.026637569
0.28630421 -0.045795552 -0.022369225
-0.34520465 -0.039531179 -0.029857924
0.27598363 -0.032087594 -0.023710156
0.29893684 -0.033467714 -0.020502632
0.21207412 -0.028892945 -0.02878321
-0.38555408 -0.016201168 -0.027744606
0.017880851 -0.011624597 -0.027150175
0.033963367 -0.016778225 -0.029355831
0.05779893 -0.017589048 -0.029402476
0.13233519 -0.01882185 -0.028166141
0.1631265 -0.012440767 -0.022258092
0.2030409 -0.014168736 -0.021130063
0.21984223 -0.018671265 -0.023257468
0.23196177 -0.018732404 -0.02211752
-0.38760927 -0.0034985256 -0.020648817
-0.36222595 -0.0064444095 -0.024651162
-0.35040832 -0.0045234356 -0.023668535
-0.3384971 -0.0018493212 -0.020872895
-0.32161728 -0.0045201406 -0.024748379
-0.2976512 -0.0010790962 -0.020048667
-0.26881433 -0.0051363772 -0.025696268
-0.24119857 -0.0043988815 -0.024031477
-0.21842822 -0.0072203027 -0.026889203
-0.15397502 -0.0071296631 -0.025277071
-0.10350493 -0.0076472005 -0.025738755
-0.030254573 -0.0075166626 -0.025883408
-0.01797221 -0.008959109 -0.027783465
0.096548349 -0.0093450285 -0.023480022
0.10589508 -0.0086727273 -0.022443859
0.13375838 -0.0085618105 -0.020787591
-0.43175721 0.08482936 -0.024836704
-0.42870528 0.084263854 -0.024863321
-0.41788962 0.084021278 -0.026601527
-0.394113 0.08749254 -0.026291
-0.16205825 -0.071836583 -0.013948603
-0.15783384 -0.072678372 -0.011776851
0.00024636858 -0.071599029 -0.012452506
0.019314721 -0.071383394 -0.012833172
0.023661353 -0.070665881 -0.014680205
0.072235912 -0.070593737 -0.01303323
0.085588627 -0.07098183 -0.011406136
-0.27277932 -0.0640499 -0.010677967
-0.26789066 -0.061879661 -0.017829889
-0.25945678 -0.064501718 -0.01317277
-0.20364261 -0.068199277 -0.01526447
0.088247776 -0.069624864 -0.014041219
0.094743386 -0.067958899 -0.016551644
0.11484089 -0.068303384 -0.01557203
0.1297669 -0.069811545 -0.012999368
0.14145717 -0.068175822 -0.014583137
0.16371311 -0.066223219 -0.016989088
0.19646278 -0.065987401 -0.014417268
0.20728219 -0.065519191 -0.014000768
-0.32346457 -0.056369923 -0.015634056
-0.3049885 -0.059493497 -0.013620459
0.2713283 -0.05727008 -0.016924296
-0.37874582 -0.046052184 -0.018019211
0.26587495 -0.02097832 -0.018701233
0.27701429 -0.022358995 -0.018079486
0.28657141 -0.020832619 -0.013777628
0.29842106 -0.02101302 -0.010469889
-0.35927099 -0.00020902626 -0.018007195
-0.29706624 -0.00013770501 -0.018082751
-0.19853935 -0.0016590056 -0.01737359
-0.16330838 -0.0022047006 -0.016305476
-0.13355222 -0.001134758 -0.013420749
-0.12851687 -0.0031900862 -0.018713461
-0.096191511 -0.0017353703 -0.015927631
-0.025472971 -0.001863648 -0.016672181
-0.015280366 -0.00079875952 -0.014802608
0.043751586 -0.0021327166 -0.018136866
0.11879396 -0.0023793878 -0.017239764
-0.37747175 0.00056362583 -0.016363332
-0.33484086 0.00040804883 -0.017392384
-0.26845279 0.00043781547 -0.016322166
-0.23055574 0.0015816218 -0.010660013
0.053913936 0.00039523799 -0.013154536
0.085499197 0.0015493765 -0.010822697
0.12318523 0.0026134509 -0.011493753
-0.41039461 0.083810538 -0.014763299
-0.40782937 0.087106362 -0.014892207
-0.38333458 0.085792989 -0.016660422
-0.2088396 -0.070636891 -0.0046675014
-0.19911158 -0.071548373 -0.0035647294
-0.1751242 -0.073419683 -0.002861043
-0.13524103 -0.074819334 -0.0035323785
-0.12103425 -0.074264832 -0.0078518391
-0.047646537 -0.074340686 -0.0027345135
-0.015813287 -0.073674411 -0.0052210614
0.014442878 -0.073607057 -0.0029553408
0.026524128 -0.073090628 -0.0068620807
0.053848747 -0.072032876 -0.0093629202
0.070818178 -0.071673259 -0.009887509
0.10490654 -0.073112398 -0.0010556221
-0.27334601 -0.065112263 -0.0046963342
-0.24371442 -0.067683697 -0.0045715873
-0.21491462 -0.06986393 -0.0072289356
0.22445992 -0.067681804 -0.0051908158
0.2315104 -0.066713125 -0.0082845604
0.24429128 -0.066423565 -0.004023619
0.25567234 -0.065203331 -0.0033537452
-0.37856266 -0.05180661 -0.0040559033
-0.35328317 -0.055371951 -0.0045784363
-0.33238351 -0.058415417 -0.0038329063
0.27549672 -0.014530543 -0.0040819617
0.29024091 -0.018174058 -0.0075431764
-0.13715898 -0.0002198017 -0.0093739154
-0.42578673 0.0060615903 -0.0027627172
-0.41262224 0.0054567438 -0.0052246633
-0.39395362 0.0052609839 -0.0036760713
-0.37132451 0.0052656471 -0.00027611176
-0.3347854 0.0068238061 -0.0034195329
-0.31662363 0.0050496627 -0.0033640594
-0.29676616 0.0039171036 -0.0042470824
-0.25572249 0.0059626512 -0.0041712024
-0.24418652 0.0049160081 -0.0014465479
-0.21753089 0.0017792686 -0.0086836517
-0.20094132 0.0018228838 -0.0034106025
-0.19731838 0.0020880839 -0.0038776039
-0.12690616 0.00042421598 -0.0074431216
-0.11287943 0.0013363175 -0.00081901177
-0.10605457 0.0010034272 -0.0053736344
-0.07342951 0.00047791252 -0.0093699396
-0.058573328 0.0015675046 -0.0040597031
-0.028248269 0.0023058527 -0.00022370824
-0.012111112 0.0029546926 -0.0030672599
-0.0014365574 0.0011907099 -0.009383522
0.0042401925 0.0048952405 -0.0023524063
0.028881149 0.0027861784 -0.003920191
0.081266917 0.0020745834 -0.0090954024
0.1072154 0.0047731064 -0.0035513174
0.13228971 0.0042287237 -0.0086757196
0.14683847 0.0065951478 -0.0037905918
-0.41805494 0.010524672 -0.00091592205
-0.39774862 0.012460048 -0.0018262974
-0.38415045 0.010569951 -0.0024474862
-0.2649073 0.011835955 -0.00043748334
-0.40444934 0.026296683 -0.0013920119
-0.35930893 0.020982482 -0.003422929
-0.33419833 0.020742903 -0.0029483307
-0.40415558 0.035600133 -0.001312616
-0.33787382 0.036866769 -0.0026954587
-0.32792443 0.033190124 -0.0024330292
-0.2888912 0.035234116 -0.00029037404
-0.37041771 0.04982334 -0.0025207778
-0.36164433 0.041250411 -0.0029405477
-0.39355427 0.053168871 -0.0016077575
-0.36242405 0.058441505 -0.0025303331
-0.33495376 0.052008778 -0.0022336231
-0.32585913 0.052524738 -0.001580118
-0.30677465 0.052199256 -0.00038454993
-0.40021074 0.067353874 -0.00074539054
-0.39235708 0.062060699 -0.0015724733
-0.38591653 0.060482584 -0.0018720087
-0.35669947 0.061871238 -0.0025220388
-0.38761428 0.070476241 -0.0016189495
-0.37425059 0.07075236 -0.001983189
-0.43100202 0.083999962 -0.005115204
-0.41675738 0.086850114 -0.0034192703
-0.40414003 0.087325089 -0.0074085635
-0.39015165 0.087658726 -0.0088632694
-0.37732786 0.085118823 -0.003237688
-0.36941814 0.084307648 -0.0078261048
-0.35549986 0.086532302 -0.005495715
-0.36692378 0.091567121 -0.0012760427
-0.18750244 -0.072761536 0.0010920577
-0.17262229 -0.072650425 0.0087973494
-0.16494694 -0.074150361 0.002020464
-0.15876381 -0.073604211 0.0084575731
-0.13632737 -0.073927619 0.0088551985
-0.094852678 -0.074831262 0.0032781516
0.00075013633 -0.073999286 0.00076694146
0.047585391 -0.073210895 0.0046147336
0.10242029 -0.073265903 1.0147639e-05
-0.31444046 -0.060309578 0.0058405818
-0.24318445 -0.067883663 0.004497963
0.21408163 -0.067979574 0.0066701178
0.22674906 -0.068139687 0.0036923497
0.29535094 -0.060705204 0.0020923347
-0.34621972 -0.056261331 0.0058403905
-0.33493322 -0.057079196 0.0092997923
0.28814164 -0.017631477 0.0052549914
-0.39137506 0.0051533883 0.0042938157
-0.38524544 0.0059138732 0.0064031114
-0.31446818 0.0044245292 0.0015479822
-0.30315304 0.0051413658 0.0030220957
-0.28069746 0.0029863231 0.008914304
-0.26269123 0.0037515403 4.1628609e-05
-0.16960475 0.0010457211 0.00052018132
-0.14781207 0.0024334339 0.0027784188
-0.11751689 0.00095712638 0.0039380882
-0.092068598 0.00046001596 0.0090742707
-0.060103431 0.0018053126 0.0039074863
-0.056927644 0.0043332679 0.0021145421
-0.020178234 0.0018068238 0.0061178403
0.033144873 0.0029227003 0.0012748649
0.049546454 0.0040565953 0.0035781534
0.065718412 0.0016386893 0.0099569857
0.080985203 0.0032465667 0.0037225485
0.098289557 0.0036090864 0.0060979556
0.10080529 0.0068136035 0.00021191503
0.12734771 0.0069761649 0.00097419275
0.13642406 0.0058960244 0.0021173931
-0.42977229 0.012254468 0.00059928308
-0.39757943 0.017313104 0.0017855776
-0.36141533 0.010798903 0.0034523916
-0.3537699 0.013270784 0.0037352776
-0.29950601 0.012758432 0.0017727807
-0.39238682 0.024259398 0.0019466206
-0.38374829 0.029802606 0.0022742588
-0.36223242 0.025688011 0.0032450433
-0.34390587 0.022807075 0.0030502055
-0.30868784 0.025019959 0.0018355453
-0.29495907 0.029907987 0.00096506212
-0.39073202 0.031977281 0.0019432722
-0.37732232 0.039046846 0.002467117
-0.36674601 0.035500325 0.0029178723
-0.39477426 0.048186846 0.0016031924
-0.30313861 0.04050291 0.0010319722
-0.39253679 0.055548482 0.0016291924
-0.37373406 0.058680184 0.0022468071
-0.36534303 0.057385691 0.0024257097
-0.35969466 0.052359466 0.0025393828
-0.34260014 0.059211046 0.0020293526
-0.38819215 0.069463164 0.0016240093
-0.38712192 0.073382914 0.0015728255
-0.36135978 0.076277323 0.0018842509
-0.35983175 0.077973366 0.0019080408
-0.33986062 0.070149332 0.001931509
-0.43980753 0.084588751 0.0035145278
-0.42958054 0.084014572 0.0082001518
-0.41358197 0.083722867 0.0073443628
-0.39283109 0.083695114 0.00030410918
-0.3870433 0.084530927 0.0037405917
-0.37485006 0.087632015 0.0030697146
-0.35230309 0.086379305 0.0035835742
-0.17658067 -0.071488298 0.012086194
-0.14677671 -0.071331948 0.016299454
-0.12356627 -0.072516583 0.013787632
0.011546052 -0.071655959 0.012253811
0.031411879 -0.071515575 0.011868393
-0.25561869 -0.065597974 0.010395617
-0.18432406 -0.069292195 0.016839165
0.013677677 -0.06944982 0.016980987
0.085164443 -0.065941907 0.019415751
0.10480298 -0.066240378 0.018728973
0.12543121 -0.068477124 0.015122382
0.14107296 -0.066618055 0.017522333
0.15624504 -0.066944405 0.016184263
0.16184038 -0.067988701 0.013638602
0.19621982 -0.064775079 0.016785461
0.20257348 -0.064573422 0.016398627
-0.32179618 -0.056633014 0.015110433
-0.31709012 -0.055983491 0.018063664
-0.30706689 -0.059746455 0.011826747
0.26309821 -0.059054904 0.015981931
-0.38218385 -0.04729161 0.015443422
0.2929208 -0.02317873 0.015181206
0.25903463 -0.019881267 0.018879149
-0.36342967 -0.00014797668 0.017784221
-0.16286349 -0.00080914248 0.011562003
-0.13185021 -0.00172503 0.015392293
-0.12736684 -0.0022772895 0.016717169
-0.10744835 -0.0027226806 0.017983923
-0.081891976 -0.0018467789 0.01576592
-0.077792719 -0.0030329938 0.018411716
-0.059583083 -0.0026002261 0.017621078
0.016445845 -0.00020603043 0.013953403
0.04039241 -0.0032101488 0.019993523
-0.37926552 0.0032147099 0.011224922
-0.36279222 0.0015366951 0.01463212
-0.32585216 0.0020242084 0.014040943
-0.30078369 0.002140821 0.01291283
-0.26812547 0.0012313185 0.013831662
-0.25876024 0.0012225497 0.013980696
-0.20869224 0.00045109668 0.012472641
-0.031918485 0.00026525077 0.011407943
0.011905305 0.00081627071 0.010853224
0.075576134 0.0011933029 0.011510106
-0.39547506 0.085054398 0.01368378
-0.36213386 0.084736377 0.01110167
-0.21762741 -0.061236612 0.025763057
-0.1846287 -0.064087123 0.025423337
-0.14290902 -0.066270098 0.024779335
-0.13946269 -0.065556988 0.02534759
-0.12803702 -0.061825324 0.02927563
0.077866293 -0.060992587 0.024328055
0.090299651 -0.064932607 0.020380653
-0.30584958 -0.052406099 0.025451928
-0.28370419 -0.052167751 0.028807525
0.029075287 -0.055599973 0.029060444
0.096934244 -0.053351905 0.028667064
0.11332779 -0.053746842 0.028306788
0.13329223 -0.05708706 0.026273686
0.15341024 -0.051407922 0.028863499
0.16267954 -0.053169642 0.027690589
0.19907404 -0.055185705 0.025111334
0.22926462 -0.056935087 0.022083631
0.23973113 -0.057897829 0.020411229
-0.37769991 -0.042181935 0.022365415
-0.34235698 -0.043843403 0.027230863
-0.32349131 -0.044555675 0.029991835
0.13355142 -0.049729727 0.029918049
0.19127344 -0.046858236 0.029043216
0.20256026 -0.042931717 0.029541822
0.21626766 -0.048279651 0.027459038
0.23470458 -0.041871388 0.028042067
0.25086042 -0.043950498 0.026404019
0.26495495 -0.047624417 0.024149152
0.28566903 -0.043780737 0.023067392
0.29701453 -0.045695104 0.020757107
0.22821565 -0.039145555 0.028672103
-0.38396862 -0.026776336 0.028496979
-0.37673941 -0.021678545 0.029510308
0.25863194 -0.022079445 0.020713586
0.26308438 -0.025419451 0.022324029
0.28485593 -0.028342439 0.020741455
-0.38402355 -0.015958766 0.027874641
-0.35426247 -0.011069201 0.028342053
0.020585895 -0.011296884 0.026868593
0.067317314 -0.015010198 0.028051432
0.074543186 -0.016153971 0.028594211
0.08914116 -0.015683249 0.028216017
0.094700575 -0.015576858 0.028080413
0.10503973 -0.010541117 0.02456085
0.12246948 -0.013484295 0.026471039
0.14336763 -0.010825699 0.022626353
0.15374672 -0.012543151 0.023580015
0.23279606 -0.018835569 0.022116337
-0.36266488 -0.0071229395 0.025229637
-0.34965271 -0.0078771785 0.026667733
-0.27073175 -0.005280572 0.025939975
-0.2272694 -0.0049039023 0.024453767
-0.16705963 -0.0064396281 0.024598768
-0.1062701 -0.0079125436 0.026113156
-0.081542842 -0.0051021576 0.022082001
-0.015897002 -0.0086803436 0.027264688
0.005387974 -0.0086492356 0.027616421
0.01691897 -0.0078129368 0.024787501
0.025115654 -0.0089474805 0.02526762
0.039634462 -0.006220255 0.022676285
0.06461937 -0.0043412317 0.020541791
0.085404411 -0.007151213 0.022358751
-0.41109094 0.083953902 0.028710872
0.012768804 -0.060548969 0.035918206
-0.25261706 -0.052293248 0.031808041
-0.22340122 -0.054691061 0.031999346
-0.21568851 -0.057107117 0.030175086
-0.19334723 -0.050675932 0.035197847
-0.141837 -0.05379336 0.036404021
-0.0037106513 -0.058992192 0.037473809
-0.30146492 -0.046582501 0.031165853
-0.27377212 -0.046583544 0.034157254
-0.2672593 -0.043358538 0.0359523
-0.25590008 -0.047352683 0.034889452
-0.23691989 -0.048410449 0.035375241
-0.22124358 -0.049785763 0.035198715
-0.21609446 -0.045600109 0.037226163
-0.19954902 -0.044389434 0.038026914
0.04728251 -0.044698779 0.032613263
-0.34968799 -0.034983054 0.031124014
-0.30277386 -0.031153688 0.036505587
-0.26697123 -0.035263754 0.038268182
-0.24439174 -0.031550527 0.039380021
-0.2104086 -0.030670701 0.039334707
0.020184774 -0.033788312 0.033649899
0.063119151 -0.038312014 0.033139814
0.070208684 -0.039278485 0.032922845
0.12376691 -0.038439199 0.032359749
0.13311332 -0.037182156 0.032378446
-0.26531661 -0.029180199 0.038527101
-0.20992562 -0.023022234 0.037497088
-0.17902336 -0.025031868 0.038037833
-0.15490904 -0.022764843 0.037376028
0.066060245 -0.021520268 0.030851245
-0.36423883 -0.017667713 0.030216349
-0.34871691 -0.01359466 0.030236457
-0.2346766 -0.015258329 0.034234457
-0.20433694 -0.011955554 0.031521082
-0.19246443 -0.019481845 0.036026858
-0.18297823 -0.013581051 0.032529783
-0.16101137 -0.012951091 0.031441677
-0.091322042 -0.014606367 0.033305194
-0.081218943 -0.014063408 0.032952193
-0.04178419 -0.012972015 0.034432195
-0.033758648 -0.012680047 0.034343567
0.00010603998 -0.012756882 0.038937714
0.013052621 -0.013509465 0.03554561
-0.30056375 -0.0099993953 0.030230101
-0.42691711 0.084416598 0.037000153
-0.39323017 0.087416105 0.038101625
-0.38138568 0.085858867 0.037334889
-0.37434992 0.087157831 0.033326272
-0.076243289 -0.051406588 0.044239204
-0.049055908 -0.050267011 0.048935294
-0.037535809 -0.053394064 0.045606919
0.022283625 -0.057522021 0.043088473
-0.20059128 -0.041658901 0.043738104
-0.19578405 -0.041480824 0.046771657
-0.1700592 -0.044084981 0.044384286
-0.16215292 -0.042341709 0.049000349
-0.10223112 -0.048500389 0.045999579
-0.094884373 -0.045745865 0.049265068
-0.13888605 -0.035796866 0.049663238
-0.10852007 -0.030917905 0.049696669
-0.10878883 -0.024079386 0.042274453
-0.085189797 -0.020454356 0.040250484
-0.056113496 -0.02144416 0.047013532
-0.054698996 -0.017200775 0.040329404
-0.023768321 -0.019782435 0.048866533
-0.0078180861 -0.015362686 0.044161294
0.040006418 -0.017504105 0.046260942
-0.41862667 0.085169509 0.04476383
-0.3947095 0.08735393 0.044914968
0.038559623 -0.050041437 0.0518139
-0.16848233 -0.040511332 0.050818697
-0.11849332 -0.042318851 0.053141583
-0.076155752 -0.042290922 0.054284986
-0.062675469 -0.047645114 0.05027879
-0.058364645 -0.04070127 0.054425299
-0.037414379 -0.041784063 0.055358022
-0.0034538037 -0.046571936 0.055469826
0.0012036953 -0.047451194 0.055171572
0.041158024 -0.040181451 0.056202423
-0.15173197 -0.038091019 0.059501495
-0.14690779 -0.036874887 0.053805225
-0.13076258 -0.034681059 0.050807547
-0.082962081 -0.034266144 0.05310744
-0.075791135 -0.034987573 0.054069482
-0.052918207 -0.033532824 0.054667424
-0.036033634 -0.038933363 0.055938445
-0.010080053 -0.035131902 0.057194855
0.020125441 -0.038347598 0.057930581
-0.028961936 -0.022796692 0.05163141
-0.00023212912 -0.02108093 0.052314006
0.015731903 -0.023651218 0.054510806
-0.4146795 0.084446713 0.057681371
-0.39879698 0.084214613 0.051075142
-0.38195261 0.085412413 0.05297697
-0.1271954 -0.043998003 0.066743821
-0.11499696 -0.043725144 0.06647303
-0.090544164 -0.043073386 0.065866008
-0.1382705 -0.038661323 0.066280656
-0.11222968 -0.038221251 0.067540772
-0.098363899 -0.037329007 0.063290909
-0.40214103 0.084364288 0.065080114
-0.38926131 0.084525689 0.064516976
-0.14204313 -0.040068403 0.073756747
-0.10641062 -0.045064513 0.076857485
-0.11077763 -0.039534163 0.075315185
-0.1060188 -0.039429173 0.074986495
-0.091829762 -0.039294936 0.074398302
-0.40643677 0.08653599 0.070228323
-0.1427139 -0.044878878 0.087171853
-0.13440993 -0.04144223 0.082832552
-0.092011757 -0.045483984 0.082088232
-0.38289642 0.084970586 0.083973728
-0.37737003 0.086068958 0.080829218
-0.15523684 -0.049133249 0.099290259
-0.14459628 -0.0481419 0.092373043
-0.13142897 -0.044215832 0.099243678
-0.12805411 -0.04312589 0.09346237
-0.39640895 0.086053513 0.093407713
-0.38269868 0.086135395 0.093788117
-0.11976488 -0.050138451 0.10815694
-0.15332183 -0.046121467 0.10572404
-0.14294396 -0.04744184 0.10323344
-0.12734184 -0.045346715 0.10635684
-0.11555047 -0.044886868 0.10544065
-0.10639999 -0.046177521 0.10426971
-0.14958215 -0.051256951 0.11287071
-0.13545395 -0.051128719 0.11282841
-0.12806506 -0.051380843 0.11530685
-0.13436007 -0.047065068 0.11543352
-0.10626748 -0.049941909 0.11049587
-0.092971019 -0.045915548 0.11149955
-0.12275691 -0.052924883 0.12615266
-0.11937617 -0.053286612 0.12896127
-0.1456905 -0.049170129 0.12563173
-0.12723085 -0.04794341 0.12132759
-0.11921653 -0.048789836 0.12738025
-0.1372035 -0.055024184 0.13844113
-0.098034054 -0.051666819 0.13624412
-0.12840077 -0.049633745 0.13089082
-0.11306266 -0.049249787 0.13010991
-0.14614521 -0.054219134 0.14410526
-0.12767583 -0.053840697 0.14428023
-0.10579385 -0.053734243 0.14658833
-0.14584404 -0.058002263 0.15756528
-0.13568905 -0.057916079 0.15772599
-0.12215565 -0.057364687 0.15560657
-0.11922308 -0.056984466 0.15407893
-0.14374176 -0.056896485 0.1611107
-0.13661499 -0.058811769 0.16356502
-0.11270936 -0.055197701 0.16339333
-0.15778226 -0.073016599 0.17845878
-0.13312471 -0.070530809 0.17597385
-0.085089862 -0.070161819 0.17619224
-0.23267736 -0.062848635 0.17451721
-0.16277626 -0.062616602 0.17313401
-0.1253549 -0.066263601 0.17362739
-0.11913161 -0.064828113 0.17297448
-0.1033368 -0.069872469 0.17562872
-0.07035356 -0.060459558 0.17278831
-0.050343301 -0.066551104 0.17457415
-0.046374664 -0.061018094 0.17341059
-0.0053230324 -0.063595816 0.17796326
-0.17220196 -0.059043221 0.17398201
-0.15717892 -0.058497824 0.17562525
-0.13923998 -0.055109225 0.17338166
-0.12606685 -0.055245217 0.17477846
-0.11021127 -0.05881492 0.17033307
-0.1026862 -0.054382544 0.17442727
-0.027288415 -0.05333358 0.17658103
-0.015633162 -0.052848049 0.1784915
-0.0093247201 -0.056860968 0.17713661
-0.21801166 -0.074420966 0.18511494
-0.20583478 -0.072049886 0.1899987
-0.17145298 -0.075246319 0.1886366
-0.15708688 -0.075680964 0.18859661
-0.13469048 -0.074992597 0.18359223
-0.051232297 -0.074319243 0.18497622
-0.034631111 -0.071946859 0.18150696
-0.24195696 -0.067771144 0.18600559
-0.23254013 -0.066764913 0.18710829
-0.22618565 -0.068088159 0.185399
0.0043020044 -0.067392342 0.18362597
-0.23013228 -0.055916205 0.18870004
-0.22151785 -0.057315331 0.1860408
-0.21862078 -0.051440414 0.18899506
0.010667048 -0.054192793 0.18405055
-0.23790361 -0.043307327 0.18982229
-0.12165789 -0.047466602 0.18784556
-0.10523956 -0.047270872 0.18790676
-0.092524156 -0.047378145 0.18995848
-0.079883993 -0.04751106 0.18275605
-0.062598929 -0.046878211 0.18561594
-0.022468472 -0.049034722 0.18261333
-0.19116822 -0.072331868 0.19292468
-0.16939215 -0.073196158 0.19462539
-0.094546348 -0.070033439 0.19779171
-0.067820922 -0.071386509 0.19625275
-0.22768533 -0.065553203 0.19648951
-0.20508666 -0.065218665 0.19482172
-0.16291352 -0.069701433 0.19846874
-0.1140521 -0.068310373 0.19913587
-0.030057965 -0.06524647 0.1985614
-0.02364845 -0.068918966 0.19551291
-0.19097662 -0.057740994 0.19716083
-0.18824741 -0.052941605 0.19355816
-0.14473404 -0.050542962 0.19547819
-0.11744973 -0.055027612 0.19952258
-0.080794975 -0.054292727 0.19937672
-0.07631924 -0.052164756 0.1981916
-0.040343486 -0.057005938 0.19987714
-0.1245133 -0.048354082 0.19165726
-0.059844285 -0.04905713 0.19493088
-0.045376524 -0.048022404 0.19143784
-0.086425453 -0.063254528 0.20113827
-0.07322412 -0.063208327 0.20109856
-0.05423034 -0.061831772 0.20101824
-0.15550143 -0.05746204 0.20047516
-0.13599923 -0.05781173 0.20075248
-0.046519246 -0.057266347 0.20018396
