# .PCD v0.7 - Point Cloud Data file format
VERSION 0.7
FIELDS x y z
SIZE 4 4 4
TYPE F F F
COUNT 1 1 1
WIDTH 811
HEIGHT 1
VIEWPOINT 0 0 0 1 0 0 0
POINTS 811
DATA ascii
0.01890799 -0.048399638 -0.36017501
-8.7317079e-05 -0.048021562 -0.35234079
0.026539486 -0.047671534 -0.35991561
0.0021900553 -0.050074439 -0.34955239
-0.0090492927 -0.050115202 -0.33072218
0.030104978 -0.050289489 -0.3360424
0.023598656 -0.047717027 -0.33457935
-0.00093622669 -0.051813785 -0.32345667
0.0013560664 -0.052008055 -0.32379663
0.018902089 -0.052956715 -0.32009572
0.020793138 -0.04798989 -0.32675713
-0.0039782058 -0.050065801 -0.31573176
-0.0013605321 -0.049688943 -0.3157078
0.0010461924 -0.049180873 -0.31923318
-0.00064582657 -0.053166114 -0.30637783
0.0011559649 -0.05325627 -0.30745161
0.024549425 -0.053936169 -0.30239707
0.0034453385 -0.04952962 -0.30471218
-0.0062328707 -0.053317446 -0.29749158
0.018298924 -0.054869801 -0.2944617
0.027592365 -0.050213113 -0.2934871
0.011670507 -0.049502339 -0.29273507
-0.00079500506 -0.050908208 -0.28714624
0.0050731818 -0.053599298 -0.28443062
0.017996226 -0.049963001 -0.28604999
-0.0060553718 -0.054929171 -0.27692741
-0.013515828 -0.054781564 -0.26973173
-0.0022856297 -0.056255195 -0.2645064
0.017614294 -0.056794848 -0.26868621
0.029965993 -0.052162655 -0.26062655
0.03426696 -0.052827898 -0.26746535
0.0004065372 -0.057222243 -0.25377208
0.017218346 -0.05758756 -0.25745153
0.029077217 -0.052535966 -0.25295436
-0.015911672 -0.056690115 -0.24226658
0.0065802368 -0.052173935 -0.24927972
-0.0011894614 -0.058252178 -0.23837633
0.037693564 -0.055163663 -0.23878679
-0.024654821 -0.056887798 -0.22554806
-0.0069539575 -0.054604169 -0.22576052
0.019670898 -0.053262517 -0.22392394
0.021105699 -0.05341376 -0.22329283
0.035975255 -0.056434855 -0.22755972
0.01054756 -0.060790494 -0.21441007
0.038020395 -0.05897025 -0.21781012
0.0070429733 -0.054427572 -0.20343111
0.031435389 -0.05525532 -0.20395312
0.019007266 -0.054697722 -0.19462845
-0.010502526 -0.061521523 -0.18571734
-0.0071130013 -0.0615809 -0.18793507
0.0032132962 -0.062389582 -0.1861749
-0.0085078627 -0.056891482 -0.18431523
0.029517513 -0.056145128 -0.18333152
0.011774509 -0.063504919 -0.17783049
0.0234365 -0.063241929 -0.17571601
0.034841906 -0.062479183 -0.17764756
-0.030307662 -0.059974939 -0.17159131
0.0021578488 -0.056195922 -0.17695716
0.034419172 -0.057030708 -0.1713061
-0.028169442 -0.061175652 -0.1686302
-0.015983634 -0.062439341 -0.16536891
0.014390901 -0.064200558 -0.16869359
0.020112257 -0.064313784 -0.16270153
0.034094166 -0.063342869 -0.16555929
0.020145247 -0.056197867 -0.16213977
0.032767065 -0.057236705 -0.1625984
-0.025625728 -0.06241833 -0.15430786
0.023170007 -0.064471103 -0.15787542
-0.017536137 -0.0589687 -0.15861629
-0.0013136039 -0.064696923 -0.14463428
0.016441185 -0.06584058 -0.14304195
-0.039086472 -0.062674239 -0.13318291
-0.0088831279 -0.065080218 -0.13040227
0.044116642 -0.063451871 -0.13642004
0.017975431 -0.05687448 -0.13895735
-0.26763585 0.027192788 -0.13280399
-0.005449594 -0.065626979 -0.12479857
0.012014173 -0.057938576 -0.12582496
0.034045991 -0.058867116 -0.1234442
0.043418594 -0.05974048 -0.12150978
-0.26693055 0.026246654 -0.12693886
-0.2473238 0.026061706 -0.1292105
-0.027622435 -0.062004678 -0.11469644
-0.0093892086 -0.066021092 -0.11420995
0.008132644 -0.0672158 -0.11152288
0.013845684 -0.067267492 -0.1163523
0.0074997894 -0.093553945 -0.100445
0.0044377446 -0.085048445 -0.10036898
-0.014661498 -0.061032228 -0.10173403
-0.0074222353 -0.060270712 -0.10999372
0.00013399939 -0.067119673 -0.10227321
0.026511246 -0.067722991 -0.10774753
0.043120418 -0.063601881 -0.10617136
0.0045256452 -0.059427958 -0.1084535
0.024021002 -0.058557447 -0.1041062
-0.26448816 0.022905299 -0.10760096
0.0095889699 -0.10112463 -0.099947385
0.010124194 -0.10306767 -0.099653207
-0.0050123706 -0.09131109 -0.095468611
0.00037617225 -0.084940605 -0.09907636
-0.034785066 -0.064856693 -0.092883721
-0.028911583 -0.063863374 -0.094149455
-0.012911872 -0.060842257 -0.095351771
-0.0066117151 -0.066780157 -0.093257219
0.022620205 -0.068420559 -0.097833887
0.0044415058 -0.059507105 -0.096068144
-0.25291058 0.019650836 -0.095660955
-0.24867685 0.020986049 -0.091757022
-0.034786511 -0.062755264 -0.083767414
-0.018229859 -0.061162848 -0.084804721
-0.0045138476 -0.063528687 -0.085283443
0.05660725 -0.063930891 -0.081420034
0.022239221 -0.058265723 -0.088136315
-0.24157634 0.017385602 -0.081792846
-0.043065395 -0.064459749 -0.072540037
0.0012966187 -0.067353599 -0.072589979
0.049773507 -0.06773413 -0.073137306
0.0042036995 -0.059430458 -0.076347746
-0.071218595 -0.043274064 -0.076502383
-0.104037 -0.03079538 -0.07215111
-0.063772194 -0.038041156 -0.07817997
-0.054798927 -0.039481129 -0.077333331
-0.12130842 -0.029563721 -0.078757502
-0.11856084 -0.022404447 -0.071898401
-0.09249045 -0.021989081 -0.07525146
-0.078509577 -0.02388401 -0.077179432
-0.035941247 -0.025203252 -0.076414414
-0.052915767 -0.015715431 -0.071123928
-0.26496163 0.015888967 -0.073673241
-0.24570343 0.018021595 -0.07387694
-0.025960904 -0.065777324 -0.064127751
-0.014535871 -0.06652391 -0.060907908
-0.00774616 -0.066898413 -0.063413076
0.016875165 -0.068181522 -0.062726401
0.029418085 -0.068839177 -0.060054965
0.047956452 -0.068280056 -0.064215817
-0.0011765794 -0.059775591 -0.062839285
-0.11095409 -0.04129586 -0.067350179
-0.072338633 -0.049892493 -0.06935668
-0.047649555 -0.044483863 -0.067880929
-0.047342099 -0.030109707 -0.068525165
-0.060730398 -0.015216976 -0.069886595
-0.046386626 -0.013490168 -0.064127728
-0.034226064 -0.015813891 -0.066920169
-0.2335851 0.01517476 -0.067780495
-0.015373142 -0.063324906 -0.057345875
-0.0015641055 -0.067233346 -0.055778254
0.0041753473 -0.067541383 -0.050417066
0.01883848 -0.068303972 -0.050919916
0.064571276 -0.060192633 -0.055628024
0.072742946 -0.064340614 -0.054556362
0.012088576 -0.058949094 -0.059160359
0.030766683 -0.057789668 -0.051282339
-0.04836338 -0.046583828 -0.057016928
-0.034102395 -0.040330648 -0.057611357
-0.1173145 -0.036852941 -0.05521284
-0.047342099 -0.03272333 -0.059248947
-0.11651092 -0.029011494 -0.051695656
-0.1022343 -0.025715563 -0.051944248
-0.10497303 -0.018995969 -0.053790241
-0.093731537 -0.016790567 -0.056786638
-0.084828742 -0.014864854 -0.059636749
-0.062152423 -0.018101186 -0.050480183
-0.037015319 -0.018369947 -0.052668683
-0.27481031 0.013339555 -0.056286685
-0.26223633 0.011902953 -0.054067157
-0.25214463 0.012666133 -0.058782648
-0.24493513 0.013749043 -0.056312907
-0.012083073 -0.066698492 -0.048311718
0.014151911 -0.068281077 -0.041503586
-0.0092366599 -0.059859905 -0.041331075
0.033960804 -0.05759348 -0.048634622
0.041430581 -0.057126272 -0.047687136
-0.12453143 -0.031795725 -0.049279373
-0.11935323 -0.031605531 -0.047848996
-0.10638949 -0.031680122 -0.048129611
-0.060329873 -0.031688675 -0.041551288
-0.053755529 -0.031321459 -0.047540925
-0.04344197 -0.034857158 -0.049519222
-0.11404244 -0.026138939 -0.047469098
-0.10470176 -0.026232775 -0.047167525
-0.073296092 -0.026851308 -0.046397656
-0.047043595 -0.024624985 -0.048915796
-0.26699457 0.011198825 -0.045853991
-0.25223401 0.010079877 -0.044760529
-0.24848437 0.013144235 -0.044952113
-0.22528224 0.011800331 -0.043380488
-0.0016352036 -0.070695594 -0.031003742
0.058612064 -0.071123496 -0.031722546
-0.0020220466 -0.068809099 -0.037058577
0.051926423 -0.069747396 -0.039467923
0.073566079 -0.068243742 -0.037872866
0.11960511 -0.06186999 -0.032023717
0.15079147 -0.063447773 -0.031352147
0.16841581 -0.061420739 -0.032215048
0.17069434 -0.065986462 -0.030271424
0.19418493 -0.065258794 -0.030581187
-0.070828162 -0.05682252 -0.03134428
-0.040923093 -0.051427536 -0.033791799
-0.01631338 -0.057918701 -0.036456056
0.079929836 -0.052525431 -0.033791799
0.12271837 -0.050931182 -0.033791799
0.13224003 -0.055282615 -0.033619426
0.14984259 -0.05874712 -0.033353154
0.20541747 -0.057495948 -0.033791799
0.2682963 -0.052109513 -0.030305192
-0.071454875 -0.044602111 -0.033384256
-0.038136873 -0.043630265 -0.033791799
-0.015220213 -0.04680879 -0.033791799
0.036669053 -0.040424418 -0.03365352
0.043892488 -0.040739242 -0.033694126
0.077587262 -0.040048692 -0.033605032
0.083098829 -0.046486035 -0.033791799
0.11741601 -0.044422872 -0.033791799
0.12322914 -0.042559806 -0.033791799
0.18816766 -0.042421736 -0.033791799
0.21651539 -0.043743119 -0.033374406
0.23534873 -0.040560395 -0.030910183
-0.12251952 -0.030373275 -0.037009288
-0.072122037 -0.037665639 -0.032657698
-0.068855375 -0.031679377 -0.033395097
0.038668443 -0.034106839 -0.032562945
0.043796834 -0.03948836 -0.033532765
0.063561253 -0.032326363 -0.032060936
0.078950763 -0.035531491 -0.032964505
0.18705502 -0.037958127 -0.033335321
0.19940399 -0.035315402 -0.032541417
0.2214383 -0.03983254 -0.031909369
-0.14077955 -0.029370988 -0.035040375
-0.12624562 -0.027450679 -0.03345561
-0.074905626 -0.026012886 -0.036061235
-0.038939755 -0.028228929 -0.030672882
0.073037535 -0.0288314 -0.031076109
0.17549016 -0.025910754 -0.030220995
-0.26847774 0.0089477468 -0.035717253
-0.25627458 0.0082195681 -0.035524875
-0.25543898 0.010661764 -0.030359387
0.14591408 -0.071985126 -0.025879992
0.17450342 -0.070418134 -0.028384902
0.18694758 -0.072425768 -0.024823753
0.19852501 -0.074108683 -0.020789081
0.20515233 -0.073336154 -0.022641169
0.21111844 -0.07372462 -0.021708135
0.26090911 -0.072360881 -0.020322545
-0.050184906 -0.06630823 -0.028360218
-0.037475776 -0.069798522 -0.023587566
0.10612395 -0.069300488 -0.028860671
0.2815823 -0.069233224 -0.022173785
0.29842034 -0.067300789 -0.020307774
-0.080604821 -0.056487285 -0.029408
-0.1020981 -0.043032147 -0.028508801
0.26097018 -0.041848686 -0.028584674
0.27744061 -0.046810172 -0.02863441
0.28427243 -0.044740122 -0.024412379
-0.12796666 -0.039109319 -0.024393158
-0.11036937 -0.03232016 -0.026298761
-0.1017972 -0.033882134 -0.028485788
-0.098751977 -0.038792722 -0.028966924
0.2178241 -0.033451449 -0.025897153
0.22285236 -0.031050427 -0.023319589
-0.13636141 -0.02777992 -0.022533305
-0.12616943 -0.02318765 -0.021068534
-0.10662569 -0.026202418 -0.02784151
-0.06068597 -0.025997587 -0.029629894
-0.044498671 -0.026060501 -0.029704951
0.066483006 -0.022988981 -0.028317839
0.13293499 -0.023060031 -0.028364129
0.16016483 -0.020977385 -0.027007625
0.20480852 -0.023437578 -0.021989454
0.21505135 -0.025787421 -0.020017561
-0.091130294 -0.019469002 -0.022585981
-0.054876536 -0.019517574 -0.025304794
-0.028516447 -0.013959501 -0.0206894
0.0048090322 -0.018454835 -0.025364459
0.016300481 -0.018219581 -0.025211202
0.021674084 -0.01294872 -0.020242717
0.039548885 -0.01555163 -0.023176797
0.066861309 -0.017181648 -0.02453501
0.12270156 -0.015367194 -0.022968892
0.13384101 -0.016050976 -0.023739673
0.14043717 -0.017445881 -0.024707271
-0.2658768 0.0060464987 -0.021731822
-0.25456327 0.0097102169 -0.02468317
-0.053195573 -0.072977327 -0.012927213
-0.037188657 -0.071503639 -0.019555433
-0.022620562 -0.074092351 -0.01616668
0.017629176 -0.076248385 -0.015659139
0.056609534 -0.074823484 -0.019075181
0.06099458 -0.077584609 -0.012455817
0.085750014 -0.075191468 -0.018193187
0.16044566 -0.076710373 -0.014551739
0.20737341 -0.078081697 -0.010349719
0.22682726 -0.075204961 -0.017398153
0.24744415 -0.075860739 -0.01482725
0.27180523 -0.074043252 -0.015663031
0.31670231 -0.055856802 -0.017090844
-0.1929017 -0.040233117 -0.012447551
-0.1632742 -0.049070694 -0.012411701
0.3057763 -0.047817409 -0.017959967
-0.19397777 -0.036666691 -0.013736927
-0.18340975 -0.036128804 -0.015502529
0.20895582 -0.022329113 -0.019743051
0.22007601 -0.027860401 -0.017899366
-0.12901849 -0.01591656 -0.015203048
-0.11430298 -0.017237451 -0.018346583
0.074936271 -0.010993233 -0.017608689
-0.02755012 -0.0094154458 -0.011020321
-0.016301865 -0.0090695731 -0.010670348
0.12470417 -0.0095408848 -0.013204561
0.16808559 -0.0096010938 -0.013387142
0.17147976 -0.009615263 -0.013430106
-0.21991219 0.006823617 -0.018537
0.22610646 -0.095603123 -0.0020975252
-0.023811404 -0.076041318 -0.0089935744
0.011651375 -0.078081697 -0.0041030925
0.024421608 -0.078081697 -0.0046300483
0.065995857 -0.078081697 -0.0019466074
0.077864565 -0.078081697 -0.0021099672
0.10300584 -0.078081697 -0.0037281036
0.21724325 -0.078081697 -0.0032932018
-0.088885888 -0.068008542 -0.0037431272
0.32597998 -0.063123472 -0.0044628219
-0.15473855 -0.053401753 -0.0047106873
-0.14954463 -0.054669794 -0.0053713317
-0.23974311 -0.034542438 -0.0028474783
0.24957062 -0.034949213 -0.0047182404
0.25525996 -0.035634838 -0.0088734357
0.21705644 -0.022342969 -0.0039125374
0.2267651 -0.028608445 -0.0048474865
-0.28033727 -0.010631852 -2.01619e-07
-0.2720024 -0.010934629 -2.01619e-07
-0.2664575 -0.015586785 -0.00038023846
-0.24987888 -0.016178088 -2.01619e-07
-0.22027361 -0.011301339 -0.0028615985
-0.19093657 -0.015502891 -0.0077644787
-0.18511222 -0.013744921 -0.0040068221
-0.17482567 -0.01182523 -0.003333041
-0.13217762 -0.010749388 -0.0029679432
0.19442593 -0.010132536 -0.0048298272
-0.25531715 -0.0067701661 -2.01619e-07
-0.23947397 -0.0099697374 -2.01619e-07
-0.22360782 -0.0060913493 -0.0027595912
-0.19971105 -0.0026917804 -2.01619e-07
-0.18725514 -0.0040007499 -2.01619e-07
-0.1585505 -0.0068834852 -2.01619e-07
-0.14372528 -0.0046478724 -0.0012684735
-0.13151786 -0.0088863177 -2.01619e-07
-0.10390246 -0.0070174616 -0.0024153756
-0.093156964 -0.0078940587 -2.01619e-07
-0.074069016 -0.0018322156 -2.01619e-07
-0.066018097 -0.003643699 -2.01619e-07
-0.050624955 -0.0033407374 -2.01619e-07
-0.035814319 -0.0069911196 -0.0047364081
-0.025404301 -0.0065153241 -2.01619e-07
-0.015016905 -0.0086918594 -0.0088456357
0.032623231 -0.0083260555 -0.0084675616
0.048993211 -0.0080238469 -0.0043494329
0.14745566 -0.007835215 -0.0017789764
0.1537246 -0.0081180613 -0.0056332713
-0.28840542 0.0078909751 -2.01619e-07
-0.25621524 0.0041785021 -0.00044283233
-0.24605195 0.0004879022 -0.0017940174
-0.21432796 0.0036210713 -2.01619e-07
-0.2046842 0.0050589624 -2.01619e-07
-0.18796271 0.0087667741 -0.00061989139
-0.16244996 0.0049769739 -0.00057318679
-0.15054187 0.0088885166 -2.01619e-07
-0.14564051 0.0077701947 -2.01619e-07
-0.13592349 7.899967e-05 -2.01619e-07
-0.12689379 0.001721072 -2.01619e-07
-0.10948871 0.0034072686 -2.01619e-07
-0.28456277 0.016356457 -2.01619e-07
-0.27576336 0.014312707 -0.00025134356
-0.26580054 0.016653914 -2.01619e-07
-0.24589989 0.014052365 -0.0010397544
-0.23067029 0.01530769 -2.01619e-07
-0.22468626 0.011653863 -0.0028837691
-0.20903808 0.016220484 -0.0015870587
-0.19699118 0.013149147 -2.01619e-07
-0.17551875 0.014429687 -2.01619e-07
-0.29407394 0.020735901 -2.0161899e-07
-0.26005495 0.026115216 -2.01619e-07
-0.25585505 0.022424161 -2.01619e-07
-0.24909092 0.022492293 -0.0018699716
-0.22361988 0.020428251 -0.0028453842
-0.21460161 0.02319064 -2.01619e-07
-0.20929219 0.027145015 -2.01619e-07
-0.29578868 0.038809262 -2.01619e-07
-0.28586507 0.03523609 -0.0003469754
-0.26042426 0.030755321 -2.01619e-07
-0.24091558 0.034816593 -2.01619e-07
-0.23510815 0.035593886 -2.01619e-07
-0.22358859 0.036785141 -0.0010209789
-0.21981446 0.034204766 -2.01619e-07
-0.28335744 0.044150371 -2.01619e-07
-0.25687578 0.044304866 -2.01619e-07
-0.2410135 0.045994692 -2.01619e-07
-0.237783 0.041336901 -0.0022686811
-0.22655565 0.045436829 -2.01619e-07
-0.2986913 0.053628221 -2.01619e-07
-0.28840923 0.058252599 -0.0011322814
-0.27848956 0.050879322 -2.01619e-07
-0.25356638 0.055977233 -2.01619e-07
-0.23861921 0.057561748 -2.01619e-07
-0.30704582 0.066175558 -0.00011123193
-0.29628253 0.068580613 -2.01619e-07
-0.28882617 0.067670882 -0.00113247
-0.26396039 0.066086166 -0.0010809695
-0.25554371 0.063564733 -2.01619e-07
-0.2435153 0.062894501 -2.01619e-07
-0.31384161 0.074451432 -2.01619e-07
-0.30298066 0.078646727 -0.00035849519
-0.29297292 0.078175545 -0.0005663358
-0.28876284 0.075222082 -2.01619e-07
-0.25720263 0.077396944 -2.01619e-07
-0.30457011 0.084395207 -0.00034857437
-0.28662562 0.083519608 -2.01619e-07
-0.27271581 0.083968639 -0.00065284228
-0.31448403 0.09480039 -0.00025771713
-0.29280725 0.090747252 -2.01619e-07
-0.28723872 0.09335883 -2.01619e-07
-0.2759845 0.097399049 -3.956537e-05
-0.30974483 0.10385868 -0.0010263773
0.21634267 -0.096996628 0.0019169165
0.24232131 -0.091265291 0.0027548
0.23975357 -0.089908957 0.0026612133
-0.077230051 -0.070571631 0.0022471859
-0.0041067498 -0.077630773 0.0031023626
0.001941018 -0.078081697 0.0086678835
0.020764276 -0.078081697 0.0098484438
0.030522684 -0.078081697 0.0022643455
0.055615135 -0.078081697 0.0013611036
0.08127334 -0.078081697 0.0043982374
0.097129278 -0.078081697 0.0042598723
0.10152993 -0.078081697 0.0063242046
0.19303361 -0.078081697 0.0042409897
0.21991545 -0.078081697 0.0021004828
0.22124267 -0.078081697 0.0049360339
0.2515429 -0.078081697 0.0022280039
0.30685911 -0.072539762 0.0089949016
-0.095839188 -0.066479519 0.0067420145
0.32778972 -0.062480014 0.0020365522
-0.14334361 -0.054926202 0.0099445805
-0.13040875 -0.05887774 0.0073899659
-0.12944713 -0.059089199 0.0002481523
0.29157877 -0.041323178 0.0093321148
0.30103016 -0.043219406 0.0081292754
0.31892908 -0.049348615 0.0028245272
-0.23254974 -0.035811648 0.0039804787
-0.22625712 -0.033187781 0.0083534298
-0.27483955 -0.023864832 0.00088840374
-0.2686078 -0.022940934 0.0019308161
-0.25868636 -0.021682519 0.0035848285
-0.26186356 -0.019295529 0.0029906095
-0.25402176 -0.018569857 0.0036859619
-0.23214637 -0.010951008 0.002320135
-0.22018063 -0.018140908 0.0072114943
-0.21545888 -0.015404129 0.0036176187
-0.18895224 -0.011993983 0.003434666
-0.16720828 -0.014773482 0.0092752324
0.20873904 -0.016975332 0.0066192565
-0.19410937 -0.0037555438 0.0026179894
-0.18502118 -0.00051097851 0.0022300198
-0.16771957 -0.0024866157 0.0023300243
-0.12757707 -0.0065000895 0.0025033844
-0.11851329 -0.001144876 0.0018984498
-0.089506529 -0.0034345309 0.0017461604
-0.078795463 -0.0097650094 0.0030467401
-0.057375606 -0.0057887072 0.0012806871
-0.035605609 -0.0084878327 0.0045786295
-0.009618761 -0.0080949273 0.0022182765
0.0020023487 -0.0078569427 0.002074732
0.010112034 -0.0078530377 0.0020215197
0.074065596 -0.0080957869 0.0053295447
0.08612296 -0.0081422776 0.0059630931
0.11468204 -0.0084469877 0.0098873889
-0.28863597 0.0051527508 8.2521343e-05
-0.26567116 0.0072572888 0.00113246
-0.2416307 0.0029967478 0.0036194797
-0.22959332 0.0070388149 0.0082217837
-0.21903032 0.0016580638 0.00304546
-0.20346567 0.0059464835 0.0020506931
-0.19623446 0.005452638 0.0016834715
-0.17055121 0.0061501563 0.0014584996
-0.11409723 0.0051676049 0.00054653391
-0.26274544 0.011745203 0.001138084
-0.25616908 0.015538424 0.0014770351
-0.22338855 0.019680133 0.0029540199
-0.1650627 0.01325356 6.9978756e-05
-0.25331357 0.032831363 0.0017773863
-0.22969326 0.032453492 0.0021167239
-0.29363093 0.044180546 0.00057140022
-0.29517424 0.053134549 0.00068361679
-0.27453193 0.054425348 0.00113246
-0.24489816 0.055770017 0.0013372233
-0.24731785 0.063503891 0.00079921947
-0.27554262 0.07179746 0.0011386873
-0.2676605 0.078111984 0.0015622259
-0.28433782 0.088383481 0.00113246
-0.29331514 0.097637929 0.00113246
-0.019067574 -0.07412573 0.016773717
0.047824629 -0.07753098 0.012584397
0.062794499 -0.075141072 0.018313874
0.075998046 -0.076501578 0.014436904
0.10690961 -0.075993627 0.016270086
0.12826478 -0.076431818 0.015219554
0.14466903 -0.076894082 0.014111309
0.16219532 -0.076174557 0.015836321
0.18249324 -0.075907357 0.016476903
0.23543122 -0.074418113 0.018867766
0.3032805 -0.07255885 0.010241284
0.31135198 -0.063796289 0.018135928
-0.15212846 -0.051125295 0.013956533
0.31913584 -0.054313887 0.013643084
-0.16098203 -0.049092472 0.013689993
-0.19069608 -0.03663335 0.014298656
-0.17530081 -0.036987327 0.016503084
-0.16013649 -0.038598023 0.019239435
0.24904704 -0.035696998 0.016255908
0.26298177 -0.03726992 0.014490533
-0.19494581 -0.02129974 0.012106208
-0.16334349 -0.01840272 0.013772367
-0.15372828 -0.018215002 0.014731163
-0.10928091 -0.013001275 0.012989189
-0.08610943 -0.012853785 0.016177263
-0.063974068 -0.011259541 0.014349377
-0.044648845 -0.011030395 0.014855204
-0.035750538 -0.013078798 0.019529503
-0.02210927 -0.011079805 0.016405424
0.14840627 -0.012124619 0.019313768
-0.0059350315 -0.0093875295 0.012278614
0.032911342 -0.0095638903 0.013274314
0.082271695 -0.0099066067 0.014313573
0.15178053 -0.0092322761 0.012268717
-0.25422201 0.004904117 0.017133467
-0.015728591 -0.071456768 0.023817733
-0.0089231823 -0.07260859 0.022372445
0.016822588 -0.073848367 0.021412741
0.031864017 -0.072202101 0.029272281
0.097197607 -0.072340712 0.025027435
0.25011426 -0.072843902 0.020534202
0.2640712 -0.071531594 0.021585641
-0.10020941 -0.061091125 0.02020631
-0.040314995 -0.0693544 0.024103222
-0.023033861 -0.069714412 0.027400905
0.22993779 -0.065337941 0.029398602
0.23081425 -0.069301262 0.028085701
0.2963165 -0.067237347 0.021113835
-0.1052845 -0.059833944 0.02027389
-0.098144613 -0.054196272 0.026653409
-0.089683414 -0.052649125 0.029111285
-0.10890833 -0.04808386 0.026966508
0.25566787 -0.040724166 0.027878199
-0.153632 -0.039925568 0.020267112
-0.1037509 -0.03419989 0.028831685
-0.096469522 -0.033178911 0.028341629
-0.15307464 -0.028817201 0.025859965
-0.14437991 -0.028748343 0.025460837
-0.1330646 -0.027705956 0.027558286
-0.11379056 -0.026529003 0.02421014
-0.070222743 -0.023723427 0.027707715
-0.068747707 -0.021230867 0.026235638
-0.0074007912 -0.024111964 0.028930809
0.034454584 -0.021499842 0.027347863
0.092789762 -0.023779603 0.028832791
0.12298818 -0.025340663 0.029849656
0.18566132 -0.022230655 0.027823947
0.20262986 -0.028669223 0.027623212
-0.043172903 -0.014514603 0.020976655
-0.039280973 -0.014336618 0.020865902
-0.02927473 -0.015686516 0.022618633
0.017108418 -0.019091751 0.025779307
0.097217202 -0.014416455 0.021897193
0.12062789 -0.018510796 0.025401
0.13496879 -0.016638473 0.024181459
0.14203323 -0.019963102 0.026346914
0.1988169 -0.018983439 0.020368589
-0.26412129 0.0058573429 0.021552127
0.045350879 -0.070528693 0.037272774
0.052269638 -0.070409432 0.036515865
-0.05420832 -0.064353175 0.03269266
0.002668459 -0.068945706 0.0374077
0.09643852 -0.061439831 0.032206804
0.10639966 -0.064040706 0.03109966
0.20216602 -0.060284771 0.032698534
-0.038523208 -0.059687696 0.031578973
0.011960916 -0.053154901 0.033791799
0.030562211 -0.053858906 0.034494381
0.043009825 -0.054383397 0.03693077
0.071098953 -0.051402804 0.033791799
0.13621716 -0.05707119 0.033791803
0.17709509 -0.058001157 0.033670656
0.19290882 -0.053288899 0.033791799
0.26714602 -0.053176492 0.030325729
-0.053576995 -0.04387714 0.033791799
-0.014007264 -0.041802999 0.033790402
0.0044585941 -0.048248883 0.033791799
0.010677838 -0.048084021 0.033791799
0.041519903 -0.042787619 0.033791799
0.11430485 -0.048103079 0.033791799
0.13233265 -0.046064526 0.033791799
0.16712423 -0.042727236 0.033740386
0.17513496 -0.040146433 0.033617638
0.19368836 -0.04988509 0.033791799
0.23518872 -0.047653802 0.032322783
0.24112186 -0.0416217 0.030887309
-0.099498384 -0.031698238 0.038426124
-0.082778111 -0.031677656 0.031173602
-0.054905668 -0.038417395 0.033251908
-0.04107831 -0.030533165 0.03786936
-0.018497963 -0.038573369 0.033361841
0.077802472 -0.03782646 0.033318307
0.14434226 -0.038252566 0.033373281
0.17627729 -0.035002608 0.032758433
0.20108348 -0.038342439 0.033081889
-0.14793131 -0.028978506 0.034264371
-0.13992751 -0.028262597 0.039282002
-0.082203791 -0.02601058 0.03442258
-0.071262069 -0.026019294 0.038899016
0.030854432 -0.026715446 0.030479714
0.051715422 -0.026347063 0.030375896
0.13572566 -0.027015027 0.030564137
-0.27229106 0.010527054 0.039483011
-0.24725699 0.011432867 0.034751497
-0.031158786 -0.061942235 0.044036381
-0.028999915 -0.061703637 0.042140391
-0.015279979 -0.066530257 0.049351688
0.061647601 -0.067685381 0.047544703
-0.075461254 -0.037153702 0.048533123
-0.054391354 -0.03465493 0.045295797
-0.044909712 -0.031971961 0.048687946
-0.10852012 -0.026700635 0.046543963
-0.091181949 -0.026032528 0.044207919
-0.087892167 -0.027121713 0.048700299
-0.076354563 -0.026025608 0.04196085
-0.06008517 -0.025859011 0.047917023
-0.056197762 -0.026165696 0.047879707
-0.041499194 -0.026935589 0.043336518
-0.25322598 0.0096855611 0.042865992
-0.27446187 0.012197427 0.049902134
-0.014535964 -0.066563196 0.052734151
0.0032188096 -0.067486823 0.053182259
0.020028101 -0.068350486 0.059921749
-0.0032544346 -0.059915695 0.056771494
0.028164525 -0.057952497 0.051569585
0.046209298 -0.058122531 0.057774272
-0.082017377 -0.042593818 0.052686483
-0.06365522 -0.047172103 0.05542174
-0.047969863 -0.040314723 0.050357409
-0.11375861 -0.021954708 0.054033242
-0.030944329 -0.022715284 0.052647918
-0.075682804 -0.014891739 0.057949543
-0.059295312 -0.01702635 0.051964205
-0.039984994 -0.016627703 0.056089938
-0.24218738 0.015651653 0.05970848
-0.22851771 0.012359715 0.050580658
0.040859923 -0.06881357 0.064525358
0.058810413 -0.063853055 0.063394286
-0.075869054 -0.050181985 0.063590437
0.0092328452 -0.059118938 0.064999729
0.052078873 -0.059254836 0.066005409
-0.044434555 -0.041466877 0.060111068
-0.047342099 -0.037890859 0.068169571
-0.063647889 -0.012865504 0.064926818
-0.047171831 -0.014492834 0.067193642
-0.036432799 -0.015936418 0.068108156
-0.27106813 0.015153252 0.065880433
-0.2334898 0.01724733 0.06898962
-0.0079800822 -0.060275767 0.073745191
0.0070723779 -0.067651302 0.074365437
0.018920962 -0.068274833 0.070444323
0.036994942 -0.068463773 0.077839382
0.0016739946 -0.059572075 0.078222193
0.014961785 -0.058747411 0.07251364
0.022284742 -0.058281578 0.076457672
0.032359518 -0.057847902 0.076682329
-0.11880378 -0.031841703 0.078757502
-0.10462233 -0.030002264 0.076777533
-0.10440674 -0.026559466 0.075771526
-0.07223507 -0.021564979 0.076980606
-0.046086118 -0.022640618 0.076690644
-0.084609568 -0.018137114 0.074527517
-0.046427771 -0.016726663 0.072733097
-0.26038831 0.014840732 0.070297651
-0.24814476 0.016803134 0.073950194
-0.23313066 0.01762522 0.071229756
-0.030442096 -0.065326422 0.081695259
-0.025139103 -0.064463712 0.081836097
-0.0093797883 -0.060522329 0.089880437
0.023633249 -0.068497591 0.08364328
0.03289599 -0.068340324 0.086176187
0.057418935 -0.06460157 0.086037993
0.003862605 -0.059477374 0.086881846
0.02593063 -0.058033682 0.088391989
-0.23734824 0.018994678 0.089478709
-0.0041284692 -0.096568175 0.095293477
0.0050620502 -0.095408082 0.094959296
0.0025400519 -0.085645907 0.095271371
0.011295421 -0.087849751 0.095390424
-0.024087664 -0.065606423 0.099435464
-0.019646447 -0.061375618 0.093766838
0.035913922 -0.067614123 0.0991299
0.04453316 -0.067290567 0.095225044
0.052630097 -0.062051829 0.094070822
0.034413524 -0.058850765 0.092058539
0.040447138 -0.059598908 0.096129008
-0.2554692 0.018690614 0.09071774
-0.2363943 0.020607289 0.098002777
0.00033923233 -0.10112742 0.10002977
0.0075072073 -0.099551104 0.100725
0.0073272018 -0.08405865 0.10708081
0.0056428481 -0.077127263 0.103119
-0.017657882 -0.061312366 0.10509241
-0.0077696787 -0.06662371 0.10564961
0.0075241607 -0.067600697 0.10198417
0.010825831 -0.067748368 0.10278082
0.030256528 -0.067822263 0.10179181
0.043327447 -0.067141071 0.10032179
0.023497079 -0.058531128 0.10390304
0.038255118 -0.059830703 0.1040671
-0.25742263 0.022981806 0.10519202
-0.017184149 -0.063166387 0.11779324
0.040201902 -0.066419102 0.11538586
-0.0053553423 -0.059669107 0.11842309
-0.26461756 0.023181738 0.11234024
-0.013154313 -0.06004582 0.12408348
0.018753354 -0.066969663 0.12515008
0.02676785 -0.066415831 0.12657113
0.046070568 -0.064257294 0.12724681
0.034960993 -0.058717333 0.12961558
-0.24506864 0.025369849 0.12545399
-0.021501582 -0.060381807 0.13637099
-0.0046503507 -0.065263629 0.13173276
0.0063902051 -0.065908894 0.1318558
0.015472374 -0.066095978 0.13691016
0.04453855 -0.064389713 0.13365316
-0.25077793 0.027464315 0.13377699
0.047164813 -0.062342852 0.14157104
-0.013030719 -0.058898918 0.14944038
0.028207952 -0.05768773 0.14126566
-0.024314929 -0.062172048 0.15949535
-0.0011929949 -0.063760325 0.1599367
0.016188517 -0.065199994 0.15304859
-0.015503857 -0.058831736 0.156699
0.019354466 -0.056515697 0.15178698
0.039633147 -0.058295526 0.15019822
-0.034556858 -0.060642868 0.16791536
-0.025490515 -0.061434433 0.16842932
-0.01616955 -0.062244724 0.16829067
0.041523438 -0.062304307 0.16920847
0.040433645 -0.057916515 0.16150175
-0.025257537 -0.061114699 0.17326295
0.017446147 -0.063286275 0.17993905
0.029808782 -0.056559578 0.17354694
-0.0086549856 -0.061847664 0.1829408
-0.016573831 -0.057809878 0.18378022
0.0060043531 -0.055663094 0.18053652
0.019311616 -0.055313319 0.18302432
0.043146465 -0.059077077 0.18334782
-0.0068251779 -0.060777098 0.19909632
0.029683199 -0.061200771 0.19938327
0.0093360962 -0.054526355 0.1970294
0.017652757 -0.054684285 0.19268179
0.0046585687 -0.060801376 0.20900983
0.035547093 -0.060521204 0.20423156
-0.023656188 -0.058019869 0.20338851
0.015871422 -0.053889468 0.20539813
0.018000951 -0.060579792 0.21669754
0.027863637 -0.060357228 0.21228054
-0.0011091258 -0.059912145 0.21592876
0.014748838 -0.053403269 0.21312325
0.040620357 -0.058187164 0.21460235
-0.023124937 -0.056526687 0.22930311
-0.013383127 -0.05848287 0.22210151
0.0021345404 -0.05403975 0.22065233
0.026635829 -0.053715356 0.22639066
0.037136804 -0.056116652 0.22321615
-0.016516691 -0.055595234 0.23184252
0.013492865 -0.059312597 0.23593089
0.036418889 -0.056489412 0.23751983
-0.018916927 -0.055957176 0.24818659
0.016678693 -0.051970176 0.24444394
-0.0068885451 -0.054183654 0.25206041
0.0070460541 -0.051887218 0.25409892
0.028442699 -0.052331507 0.25600463
-0.0066945096 -0.054248914 0.26292154
0.024606554 -0.056656379 0.2652908
-0.012323135 -0.052959487 0.27796888
-0.0096648494 -0.052717995 0.27552944
0.00028534594 -0.055420514 0.27818891
0.018933913 -0.050770432 0.27170864
0.028378259 -0.055527277 0.27777487
-0.014589578 -0.052877918 0.28582901
0.0057338662 -0.052811563 0.28673524
0.019605368 -0.055536672 0.28436553
-0.011142207 -0.053364374 0.29082683
-0.0074952114 -0.053077608 0.29901761
0.0062217312 -0.05426681 0.29908389
0.0097126877 -0.049755752 0.29146335
-0.0073830583 -0.051095814 0.30391115
0.029966116 -0.049895018 0.30925801
-0.0038129813 -0.050210804 0.31202447
0.029502256 -0.052035101 0.31972364
-0.003367519 -0.051465593 0.32492912
0.031452082 -0.050838586 0.32575655
0.025629157 -0.048023228 0.33112082
-0.0050845984 -0.049068056 0.34264553
0.027703557 -0.04825706 0.34561598
0.0023241949 -0.049813513 0.35288259
0.019449107 -0.04702083 0.3501476
0.02725294 -0.048032194 0.35692006
