# .PCD v0.7 - Point Cloud Data file format
VERSION 0.7
FIELDS x y z
SIZE 4 4 4
TYPE F F F
COUNT 1 1 1
WIDTH 796
HEIGHT 1
VIEWPOINT 0 0 0 1 0 0 0
POINTS 796
DATA ascii
-0.089326136 -0.031502001 -0.39540577
-0.066852532 -0.032568522 -0.37471855
-0.085697472 -0.037087731 -0.36717781
-0.057597648 -0.033264611 -0.36197668
-0.073787063 -0.031044681 -0.35562044
-0.06790746 -0.03156285 -0.34969619
-0.055463117 -0.037127126 -0.33406818
-0.056447648 -0.037243236 -0.32229543
-0.02804446 -0.033780776 -0.32045153
-0.025976662 -0.034327954 -0.31545359
-0.041242149 -0.036977615 -0.30354929
-0.03529489 -0.033324033 -0.30392674
-0.034651712 -0.036925282 -0.28717971
-0.023478113 -0.033323161 -0.28385469
-0.054373141 -0.037577957 -0.27103338
-0.049792189 -0.037427574 -0.2746233
-0.028903414 -0.032960907 -0.27019733
-0.013956593 -0.033371706 -0.27078718
-0.0084344372 -0.033637639 -0.27820545
-0.039120235 -0.037237573 -0.26193601
-0.0022455864 -0.035010114 -0.26863414
-0.051506303 -0.030380327 -0.25806284
-0.047552403 -0.037481621 -0.25962874
-0.029114647 -0.037024524 -0.25462404
-0.051788788 -0.036393456 -0.24760325
0.0078001083 -0.034129322 -0.24604385
0.01131231 -0.033711016 -0.2493833
-0.046333712 -0.030338313 -0.23862155
0.0092469631 -0.036154587 -0.23356415
0.016280536 -0.03562142 -0.23131917
-0.044110354 -0.030036664 -0.22216
-0.031260356 -0.03731136 -0.22453164
-0.020516865 -0.03249738 -0.22675635
-0.0067997929 -0.032909889 -0.22953703
-0.032730151 -0.03110965 -0.21269542
-0.023125421 -0.034690134 -0.21148705
-0.0172555 -0.037017711 -0.21369888
0.031845622 -0.033729248 -0.21575116
-0.023844592 -0.031900901 -0.20397584
-0.01713961 -0.037069917 -0.20643619
0.038827445 -0.033727482 -0.20381263
-0.024118496 -0.031486094 -0.19308646
0.043458741 -0.03364037 -0.19047308
-0.010543205 -0.032078855 -0.18346491
-0.0038943924 -0.03686804 -0.18623365
0.015939951 -0.034600355 -0.18868843
0.041002821 -0.035641029 -0.18900737
2.3622066e-05 -0.032209948 -0.17383312
0.01996181 -0.032828189 -0.17905152
0.026627162 -0.032995787 -0.17833117
0.0367525 -0.035838678 -0.17804529
0.028191151 -0.032839652 -0.1658344
0.049158044 -0.033370305 -0.16378601
0.067600682 -0.033817928 -0.16077667
-0.026176346 -0.034142341 -0.15728435
-0.016127411 -0.037456103 -0.15216327
0.031961266 -0.036155991 -0.15328009
-0.010318451 -0.037371255 -0.14281841
-0.00035502017 -0.037081979 -0.14566377
0.0012407799 -0.037032336 -0.14655435
0.027836094 -0.034381896 -0.14559928
0.039426547 -0.032753706 -0.14138171
0.04316961 -0.032873441 -0.14259276
0.065315068 -0.033547584 -0.14759786
-0.010428945 -0.037407756 -0.13841626
-0.00038142502 -0.031529412 -0.13159791
0.0075028711 -0.034361057 -0.13202575
0.012436012 -0.031885725 -0.13235855
-0.016630946 -0.036991004 -0.12362373
0.0042598564 -0.031516805 -0.12294081
0.087382369 -0.03381886 -0.12732632
-0.015097045 -0.031828571 -0.11821462
-0.0086169345 -0.030771501 -0.11799893
0.029057436 -0.034343611 -0.1155072
0.036999945 -0.03628787 -0.11819725
0.05868049 -0.032930672 -0.11992776
0.0089414958 -0.037145808 -0.10450067
0.0246404 -0.035469763 -0.10886243
0.0099020218 -0.031261228 -0.097263902
0.047504082 -0.034212552 -0.095716804
0.053535186 -0.034204036 -0.091616869
0.066941433 -0.032821197 -0.099029422
0.075024545 -0.032911081 -0.091006093
0.022670109 -0.031459503 -0.088140704
0.032713193 -0.034251988 -0.082976624
0.061650775 -0.032499116 -0.087677956
0.076900825 -0.032788564 -0.080100663
0.096158877 -0.034927398 -0.088201016
0.10532236 -0.034162898 -0.08146821
0.11161878 -0.034314547 -0.082504049
-0.0004183061 -0.030177582 -0.072113194
0.01803064 -0.037101552 -0.078259677
0.020871527 -0.037079688 -0.071111932
0.045288417 -0.036367081 -0.078568995
0.055144493 -0.032125227 -0.075118035
0.079328075 -0.035474598 -0.07570982
0.085685223 -0.035272345 -0.079846509
0.10500614 -0.033387121 -0.070242696
0.0057934709 -0.03749736 -0.069445014
0.032319754 -0.03134786 -0.064753167
0.053211968 -0.031916164 -0.065205932
0.091540545 -0.035218328 -0.066290565
0.10055406 -0.033261854 -0.069883794
0.11097912 -0.034692813 -0.066739082
0.0083926879 -0.030478524 -0.050455313
0.014494495 -0.034024671 -0.057139657
0.022291167 -0.030961342 -0.057363484
0.04596753 -0.031569317 -0.055601828
0.0563091 -0.031800792 -0.052682944
0.062225711 -0.03193656 -0.05122358
0.07658343 -0.032389767 -0.055485964
0.090772659 -0.035311732 -0.056734543
0.10472415 -0.034175724 -0.058383767
0.0068432894 -0.032899629 -0.040844906
0.04380301 -0.031356171 -0.045825269
0.10712565 -0.034086373 -0.043872058
0.11768039 -0.033401214 -0.049661972
0.12007509 -0.034586586 -0.048610386
0.0097921668 -0.034347497 -0.030446079
0.014113884 -0.030376093 -0.034303706
0.020252733 -0.030502455 -0.031874415
0.039032906 -0.036874413 -0.034019567
0.059209768 -0.036303926 -0.037768949
0.068948552 -0.036044583 -0.037476357
0.11337423 -0.033112954 -0.038775913
0.12008658 -0.033213522 -0.033748355
0.14105535 -0.033803847 -0.035460301
0.03061429 -0.03716597 -0.025426943
0.05597638 -0.036508366 -0.022330014
0.11034201 -0.035040539 -0.023331305
0.13254014 -0.033418797 -0.02559926
0.033324763 -0.032780256 -0.01559285
0.043787457 -0.030877884 -0.015686139
0.07902091 -0.031843416 -0.016898798
0.13905282 -0.034334321 -0.014808133
-0.11011825 -0.042492073 -0.0009756519
-0.077426128 -0.040287528 -0.0018888832
-0.049160361 -0.04390341 -0.00039100621
0.10253691 -0.044641379 -8.5302963e-05
0.2441147 -0.040451486 -0.0018209636
0.25687236 -0.041221723 -0.0015018929
-0.014203031 -0.037377495 -0.00284801
-0.0055575874 -0.031771787 -0.0036114219
0.017369747 -0.039181732 -0.0023469587
0.025943995 -0.039116137 -0.0023741322
0.054295052 -0.032625642 -0.0035910138
0.060192823 -0.034558475 -0.0033330801
0.085784152 -0.033624269 -0.0049449038
0.094173133 -0.036613286 -0.0027463238
0.10546337 -0.035312198 -0.0048683058
0.11364915 -0.035092667 -0.0048257057
0.13407864 -0.034629241 -0.0038120227
0.1543829 -0.035433985 -0.0032333899
0.16034156 -0.033831906 -0.0045600915
0.20008624 -0.033107579 -0.0034100951
0.25825346 -0.037173007 -0.0028749281
-0.10172489 -0.022174463 -0.0027944772
-0.08987166 -0.020185122 -0.0021017967
-0.073575012 -0.027020112 -0.0025780017
-0.060750492 -0.028718684 -0.0033330801
-0.044657234 -0.021108944 -0.0033330801
-0.0079568736 -0.02278124 -0.0028743485
0.0056330226 -0.029592933 -0.0037709854
0.02644241 -0.024238631 -0.0033330801
0.049935903 -0.020272769 -0.0021381062
0.103914 -0.024082184 -0.002868115
0.14548984 -0.022264391 -0.0028063147
0.23865022 -0.029979501 -0.0035511144
0.24897859 -0.026785599 -0.0033765864
-0.069231391 -0.018843902 -0.0015461674
-0.055727288 -0.01734758 -0.0033330801
-0.028877456 -0.011809491 -0.0033330801
-0.017429395 -0.011599516 -0.0033330801
0.0090391878 -0.011541988 -0.0033330801
0.029415023 -0.015816424 -0.00029197137
0.056792393 -0.016487388 -0.00056993234
0.091083661 -0.015675146 -0.0033330801
0.1557093 -0.016954131 -0.0022280461
0.00024486333 -0.0070436755 -0.0033330801
0.011175742 -0.0098123373 -0.0033330801
-0.043348461 0.0020749511 -0.0033330801
0.0097857332 0.0077168206 -0.0025025439
0.010727779 0.0083638132 -0.0031232641
0.032706 0.0077008484 -0.0030283846
0.096104853 0.0030737794 -0.0033330801
-0.042562217 0.013357709 -0.0020064595
-0.035353042 0.010845542 -0.0018789724
0.025661964 0.011879541 -0.0033330801
0.084101588 0.013414731 -0.001608214
-0.10500138 -0.052580178 0.0055459337
-0.092885815 -0.055624533 0.0095134564
-0.085510716 -0.053085543 0.0062045436
-0.068440035 -0.053623129 0.0069051525
-0.039526463 -0.051344842 0.0045943027
-0.021215409 -0.054492153 0.0080376994
-0.012236517 -0.052021258 0.0051133279
-0.0031359734 -0.050327439 0.00381364
0.032018043 -0.054023772 0.0074272826
0.07748352 -0.052933227 0.0060060415
0.20798141 -0.054260835 0.0077362359
-0.0589661 -0.047290299 0.0014832064
-0.021947898 -0.049729474 0.0033548118
0.04639297 -0.048978761 0.0027787834
0.055650793 -0.047972348 0.0020065517
0.068800956 -0.04861144 0.0024969359
0.13268737 -0.047933135 0.001976463
0.18379067 -0.046191435 0.00064003689
0.24617186 -0.030135125 0.0052274279
0.29307595 -0.035158556 0.0094867917
-0.15728603 -0.02570839 0.0026706648
-0.14335984 -0.02001727 0.00022040063
-0.12363791 -0.029979501 0.0043817442
-0.095689923 -0.029979501 0.006168176
-0.010807062 -0.029979501 0.0034473254
-0.0099962903 -0.029979501 0.0030965586
0.037674703 -0.029979501 0.0049672797
0.052108243 -0.029979501 0.0061407201
0.079426989 -0.029979501 0.0081636263
0.099772088 -0.029979501 0.0080417898
0.15771089 -0.027376171 0.0048954152
0.16809729 -0.028123451 0.0086100884
0.17249075 -0.020254549 0.0043048421
0.18383519 -0.026818456 0.0021319634
0.20193817 -0.02892939 0.00076901249
0.23743257 -0.029979501 0.0026690771
0.24135089 -0.026267398 0.0090247933
0.25528029 -0.026267398 0.0071318704
-0.15498698 -0.012189263 0.0043940074
-0.073045798 -0.010160302 0.0051274397
-0.029364942 -0.010277987 0.0033176478
0.02892315 -0.014617605 0.00020466399
0.1269991 -0.013622135 0.00075162703
-0.1727999 -0.0081356242 0.0089003071
-0.15767398 -0.0063200411 0.0092563061
-0.074902982 -0.0064627752 0.0068031452
-0.052924324 -0.0049527395 0.0087074907
-0.043473072 -0.006291728 0.0069626123
-0.021094576 -0.0071221357 0.0058804811
0.034111671 -0.0069892388 0.0065020113
0.06465739 -0.0050245579 0.0086139021
0.12099866 -0.0054340907 0.0080802264
-0.073045798 0.0005898606 0.0036868802
-0.054553244 0.0079765702 0.0060490947
-0.046491977 0.0096407132 0.0048076576
-0.018867116 0.0079427194 0.0049345945
0.076775208 0.0080419946 0.0082030203
-0.071627334 0.013169559 0.0051898789
-0.0270421 0.010956545 0.0070884703
-0.0035180619 0.013263598 0.0071323048
0.0030611018 0.012763641 0.0030640431
0.023530822 0.017272078 0.0058229826
0.055465423 0.013803498 0.00051354949
0.087071262 0.013727722 0.0086963074
0.096752442 0.015222812 0.0051472923
0.10563217 0.015250511 0.0041009053
-0.022972908 -0.06004642 0.017937541
-0.126141 -0.058513343 0.018737782
-0.096620828 -0.056910228 0.011189024
-0.0023622867 -0.058437053 0.014052223
0.016302099 -0.056682304 0.010891982
0.042023353 -0.057494711 0.011950743
0.060124043 -0.059794366 0.017329033
0.097791255 -0.059521876 0.016671199
0.16794999 -0.057965346 0.012913432
0.18889028 -0.056904636 0.011181735
0.22536114 -0.058888942 0.015143173
0.23141909 -0.058256127 0.013615424
0.25483528 -0.056932457 0.011217993
0.18833788 -0.033199232 0.014703953
0.2200463 -0.030005736 0.017718608
0.24474603 -0.030110948 0.017575329
0.27980772 -0.037464485 0.015753809
-0.26247641 -0.021421026 0.01543279
-0.22417781 -0.020922258 0.010418527
-0.21573196 -0.028070532 0.01348841
-0.20297994 -0.02879907 0.013834708
-0.15408982 -0.029550139 0.011363143
-0.14064725 -0.021475 0.017082181
-0.12197532 -0.023407912 0.018565191
-0.10293648 -0.029979501 0.017544582
-0.093419082 -0.029979501 0.015840197
-0.073045798 -0.025263315 0.014593951
-0.057220064 -0.029979501 0.011599106
-0.031287245 -0.029979501 0.016971378
0.0058085024 -0.029979501 0.017939795
0.034829784 -0.029979503 0.015787138
0.04903521 -0.029979501 0.016489888
0.059880432 -0.029979501 0.012559684
0.10458447 -0.029979501 0.012975323
0.1355858 -0.029979501 0.01100435
0.16174956 -0.028742135 0.014146265
0.19434792 -0.029979501 0.01140849
0.20155741 -0.02834239 0.0170072
0.21356601 -0.028480681 0.019914471
0.22372717 -0.029979501 0.014280551
0.24830008 -0.024550667 0.015270119
0.2538121 -0.029979501 0.014413876
-0.26317793 -0.015242736 0.014098624
-0.23740786 -0.018152764 0.015609749
-0.20032254 -0.018798694 0.015877297
-0.17125662 -0.016068924 0.015310938
-0.14545015 -0.012342883 0.015441699
-0.13933381 -0.011750938 0.015519677
-0.073045798 -0.013604335 0.016888041
0.10391399 -0.012561902 0.010871261
0.210336 -0.016456978 0.018286381
0.2453704 -0.017691813 0.019238971
-0.25399002 -0.0084555103 0.016905056
-0.23839946 -0.003878844 0.0199051
-0.22889119 -0.0081693754 0.01689815
-0.18051678 -0.0090686241 0.016514009
-0.097039059 -0.0022933267 0.012189047
-0.05393168 -1.3875484e-05 0.017692136
-0.034262903 -0.0022917828 0.012192775
0.10391399 -0.0073636044 0.018874153
0.12921017 -0.0021423609 0.013250033
-0.087780654 0.0007186755 0.019460673
-0.070219561 0.0085191466 0.017948668
-0.062584855 0.0081501463 0.011763666
-0.048206709 0.0099336235 0.018069215
-0.0053699496 0.0081684124 0.012365052
0.057293683 0.0081170723 0.010674767
0.079295546 7.1306014e-05 0.017897781
0.090814218 0.0083547421 0.018499469
0.10391401 0.0055698222 0.018806051
0.11584769 0.0065630423 0.01536195
0.12203479 0.002046945 0.012352586
0.14352462 0.0048229108 0.016747089
-0.26642096 0.015800351 0.0199051
-0.25817999 0.016909393 0.01991312
-0.073045798 0.015140383 0.017245321
-0.032895572 0.010899132 0.017549321
-0.029275309 0.0152737 0.012875399
-0.011955108 0.0152737 0.019944789
0.042799555 0.013754037 0.017438931
0.059863776 0.01491126 0.019909661
0.060223125 0.015110734 0.018630875
0.076496579 0.014367778 0.015449088
0.080807172 0.014910745 0.014580281
0.091505252 0.014024816 0.018477414
0.10651483 0.01883639 0.016793828
0.11314268 0.027916512 0.011213105
-0.073491558 -0.061595008 0.025572095
-0.045450062 -0.061710313 0.029813306
-0.0013864823 -0.06175898 0.026817327
0.026372802 -0.061676271 0.026189193
0.065699399 -0.061608378 0.025673598
0.10750728 -0.060922295 0.020463306
0.11589362 -0.061267611 0.023085732
0.12641494 -0.061908625 0.028307257
0.14268449 -0.061099138 0.021806328
0.17236957 -0.061564457 0.025340039
-0.126141 -0.054930575 0.024298759
0.25984699 -0.046693586 0.026635321
0.17819864 -0.033261228 0.023391353
-0.27167928 -0.027674096 0.027919233
-0.26131281 -0.026440946 0.022790827
-0.24201205 -0.027404744 0.025872633
-0.21636671 -0.027478702 0.022339584
-0.20336884 -0.025947411 0.022093009
-0.18325692 -0.027480744 0.026450101
-0.17844164 -0.027692303 0.028057581
-0.16473986 -0.028287277 0.022965318
-0.14018846 -0.027316891 0.025205102
-0.13183348 -0.029892052 0.021921268
-0.12031131 -0.027337033 0.02535815
-0.1143257 -0.027515654 0.027958881
-0.073045798 -0.029798474 0.023656923
-0.062733456 -0.029979501 0.024007164
-0.04239051 -0.029979501 0.02797278
-0.019493943 -0.029979501 0.022297448
-0.0017706687 -0.029979501 0.028991478
0.016310748 -0.029979501 0.025325751
0.024081066 -0.029979501 0.02675548
0.06781169 -0.029979501 0.026777312
0.090793081 -0.029979501 0.029811528
0.11159681 -0.029979501 0.029962828
0.13381034 -0.029979501 0.023846844
0.15704064 -0.02435519 0.025964141
0.16391852 -0.0262674 0.026059275
0.18702014 -0.02710492 0.023109369
0.19381224 -0.025900876 0.025728039
0.20700817 -0.026470218 0.025894117
0.22333094 -0.025022961 0.026521455
0.23629293 -0.028559044 0.023514725
0.25686955 -0.028425148 0.023497105
-0.28498101 -0.012831241 0.025767844
-0.073045798 -0.01458755 0.024584098
0.14450184 -0.014352222 0.024923548
0.17703515 -0.016015477 0.028158562
0.23907816 -0.018550865 0.027108505
-0.27782473 -0.002703924 0.022673028
-0.22770543 -0.002722559 0.023669615
-0.20481095 -0.0020658376 0.023655608
-0.18644631 -0.0019048138 0.029663738
-0.13993123 -0.0018525621 0.029266708
-0.12300653 -0.0020795653 0.025568979
-0.106096 -0.0090412218 0.024528228
0.20950043 -0.0074765901 0.02967931
0.21032372 -0.007475384 0.026050229
-0.15509255 0.00037900914 0.024943497
-0.13517809 0.00072653987 0.026707668
-0.076318592 0.0021239882 0.022492519
-0.057323463 0.001862538 0.027292393
-0.042255674 0.0018302884 0.029213604
-0.0052930824 0.0017596447 0.029750278
0.01369841 0.0084814485 0.022670962
0.027730493 0.008598716 0.026531724
0.043730371 0.0085077528 0.023536973
0.066223778 0.0086010052 0.026607078
0.088555396 0.0084551079 0.0218038
0.10315806 0.0052063316 0.02569472
0.12345745 0.0010085157 0.024094883
0.14257216 0.0017996079 0.029446684
0.15378937 0.00682572 0.025985217
-0.028453078 0.0152737 0.026832335
-0.0039518694 0.013026114 0.026502997
0.01463109 0.014924468 0.026844122
0.024118198 0.015705209 0.0281305
0.049664736 0.014040231 0.020595348
0.064563967 0.01436707 0.029745389
0.090445042 0.014358647 0.029468048
0.10616274 0.018354097 0.022845397
0.14717717 0.011824884 0.028971415
0.017017102 0.029612491 0.0281305
0.0060148188 0.036395572 0.025008237
0.032391686 0.039572056 0.0281305
0.045814753 0.035643309 0.028130502
0.052145023 0.039023906 0.028217036
-0.0029802637 0.048501097 0.0281305
0.01456794 0.045460559 0.020255705
0.034188457 0.040930942 0.022528559
-0.013337096 0.054027058 0.024479486
-0.0066529033 0.055590287 0.0281305
0.0034896708 0.056723021 0.026638446
0.019476989 0.051235713 0.028130502
-0.036111951 -0.061138391 0.034156587
-0.0038364343 -0.061402835 0.032148365
0.082235739 -0.061498445 0.031422261
0.091512159 -0.06158457 0.030768203
0.14713371 -0.060264107 0.037797917
0.15760161 -0.061271474 0.033145957
0.20891941 -0.061201241 0.033679292
0.21346757 -0.061303049 0.032906111
-0.076858379 -0.059561461 0.039494235
-0.013631776 -0.059745077 0.039050963
0.25984699 -0.032613199 0.030169504
-0.26611117 -0.026702143 0.033627883
-0.22018896 -0.028534696 0.033932928
-0.20667486 -0.026947884 0.03661225
-0.19385293 -0.021174211 0.039399751
-0.17303792 -0.026454739 0.033436876
-0.1613065 -0.02254639 0.038356852
-0.15768488 -0.026446514 0.033456732
-0.12150161 -0.029979501 0.033164389
-0.063575238 -0.029979501 0.039827511
-0.040692084 -0.029979501 0.036462445
-0.035920151 -0.029979501 0.033200417
-0.0091647096 -0.029979501 0.036378086
0.0077127111 -0.029979501 0.03807684
0.013355643 -0.029979501 0.030018453
0.023114568 -0.029979501 0.036763944
0.045730397 -0.029979501 0.038270768
0.111944 -0.029979501 0.038788904
0.15775827 -0.025031675 0.03146217
0.16124877 -0.0262674 0.032752998
0.17145941 -0.028063331 0.034717504
0.18683025 -0.0262674 0.038050149
0.22816381 -0.026285537 0.031358954
0.23611401 -0.026267398 0.03533709
0.25541633 -0.027079407 0.033619877
-0.28579885 -0.019187085 0.031823628
0.18013367 -0.015633255 0.035147872
-0.27308607 -0.0055542965 0.037170283
-0.26939633 -0.0031344839 0.03429414
-0.22761965 -0.0078676743 0.039131347
-0.21210565 -0.0086676618 0.039580908
-0.19664612 -0.00098981208 0.035113253
-0.18851545 -0.0064600077 0.038051225
-0.16467382 -5.8856705e-05 0.035501204
-0.14225854 -0.003016185 0.033596188
-0.13535556 -0.0052653067 0.036062654
-0.12643564 -0.0020330152 0.030637866
-0.27623361 0.0054601999 0.034877457
-0.26270708 0.0089902626 0.0356079
-0.2425583 0.00024448882 0.0356079
-0.13929725 0.00065465568 0.033243213
-0.11941521 0.0013411127 0.032929834
-0.087761462 0.00012838894 0.038225405
-0.0035818666 0.0089341253 0.037574243
0.064801104 0.0088816909 0.035847988
0.093876652 0.0052076578 0.031658888
0.11147809 0.0097525092 0.037685506
-0.24576157 0.01145935 0.034135893
-0.063113645 0.0152737 0.033218764
-0.05100999 0.0152737 0.034544662
-0.027210485 0.011810463 0.035557028
-0.011243574 0.0152737 0.035897806
0.038099386 0.0152737 0.035506651
0.041177802 0.014420792 0.031514071
0.056805983 0.016344532 0.035582077
0.066286579 0.014869537 0.032612395
0.10991715 0.010891875 0.034843732
-0.2669796 0.021692585 0.0356079
0.012182127 0.024694726 0.033634122
-0.011427602 0.058285438 0.032543723
-0.0026937602 0.052731708 0.038190503
-0.016420374 0.060044095 0.030856825
-0.12467586 -0.053471915 0.049552955
-0.005019417 -0.053734951 0.04921015
0.030600566 -0.057919305 0.043458719
0.12781745 -0.057119299 0.044799507
0.18618917 -0.054977834 0.047590371
0.20277144 -0.057707317 0.043970507
0.25411195 -0.055816002 0.046498023
-0.126141 -0.041529238 0.041916657
0.17893293 -0.032754626 0.047297724
0.1830402 -0.033576939 0.048329681
0.21489201 -0.035385311 0.04554287
0.22066435 -0.03489849 0.043027624
0.23783499 -0.033745132 0.042279221
0.28305101 -0.033112206 0.04332944
-0.20561354 -0.024816053 0.045856338
-0.16215611 -0.029426223 0.045392659
-0.094077155 -0.029979501 0.047437645
-0.085380629 -0.029979501 0.04504849
-0.071065143 -0.029979501 0.043137684
-0.05716493 -0.029979501 0.043516707
-0.02365246 -0.029979501 0.046065416
-0.016824186 -0.029979501 0.04254001
-0.0066605387 -0.029979501 0.04332035
0.014262311 -0.029979501 0.044334184
0.05449111 -0.029979501 0.043341182
0.067679808 -0.029979501 0.045167357
0.16846168 -0.026267398 0.046323806
0.17790236 -0.024913147 0.049663961
0.20340136 -0.0262674 0.046884902
0.21820042 -0.029979501 0.042781003
0.23626825 -0.026267398 0.046366841
0.24309553 -0.029979501 0.045079842
-0.27200544 -0.014374062 0.040422052
-0.26122969 -0.010652516 0.041440036
-0.25481975 -0.015997164 0.042884998
-0.21093142 -0.01920362 0.046863474
-0.20803054 -0.017215108 0.047052499
-0.1984411 -0.017664269 0.040739927
-0.16112441 -0.010777767 0.040454932
-0.13373893 -0.012505842 0.040840805
0.17198172 -0.014057633 0.04642139
0.19197369 -0.016672675 0.04844908
0.20480761 -0.012475383 0.045904547
-0.098573789 -0.0061838147 0.049157798
-0.084001556 -0.0017023695 0.042645253
-0.070950925 -0.0016378656 0.042489529
0.0016727522 -0.0046527316 0.047162578
0.036746971 -0.0052072452 0.047885187
0.063018411 -0.0013970899 0.041908242
0.079858445 -0.00061599002 0.0400225
0.12826508 -0.0025006793 0.040004544
0.13332975 -0.0032681103 0.044657074
0.14862967 -0.0063100564 0.049322303
-0.060950823 0.009084139 0.042513113
-0.027046217 0.0091129206 0.043460678
0.025193144 0.0093041742 0.049757231
0.030880855 0.0090791751 0.042349674
0.054577336 0.0090195443 0.040386453
0.086628541 0.0092317872 0.047374066
0.1036214 0.0091802478 0.045677237
0.11301374 0.0086315982 0.04065305
0.1433253 0.0089377621 0.046098694
-0.0087347757 0.0152737 0.042494193
0.020022048 0.014809894 0.04432435
0.037569456 0.013626304 0.047502309
0.054786287 0.013451353 0.048073191
0.069076188 0.01488121 0.046672281
0.099940263 0.0152737 0.042119555
0.10620487 0.018411793 0.048011038
0.035089452 0.026207114 0.044034183
0.040459558 0.025888735 0.041912317
0.11126746 0.025347183 0.049040258
0.12916896 0.02149432 0.042429261
0.0083828745 0.033129748 0.042018332
0.01090128 0.039554056 0.044684213
0.0057835802 0.043524772 0.042080149
-0.068042621 -0.051752146 0.051354203
-0.03012263 -0.051940251 0.051209871
0.061668992 -0.052043878 0.051130358
0.14590874 -0.052199617 0.051010858
0.25984699 -0.051782135 0.051219493
-0.10184707 -0.049867455 0.052800354
-0.084372386 -0.044324391 0.056477666
-0.059756637 -0.040485576 0.058067881
-0.0085112061 -0.043365888 0.056874722
0.017976478 -0.046240225 0.055583578
0.059284888 -0.043139204 0.056968626
0.098857783 -0.0475954 0.054543734
0.10587861 -0.049330682 0.053212233
0.12292128 -0.046132743 0.055666048
0.13931139 -0.047038727 0.054970875
0.1415703 -0.049645193 0.052970901
0.16562852 -0.043033395 0.057012461
-0.10455263 -0.031419776 0.059893306
-0.014014043 -0.036638804 0.059391282
0.0363984 -0.032022182 0.055653699
0.12176025 -0.030330282 0.055653699
0.13902842 -0.032802075 0.058897793
0.14656806 -0.031346779 0.055653699
0.1777069 -0.030945653 0.054373689
0.22094333 -0.035964936 0.059494298
-0.17787497 -0.021680685 0.052039061
-0.15419912 -0.023566287 0.053896174
-0.14347966 -0.026878726 0.055658717
-0.13095632 -0.029349051 0.059083033
-0.11385208 -0.028034205 0.058590997
-0.075893067 -0.024077114 0.059245266
-0.054539569 -0.025367513 0.059766203
-0.041920967 -0.029979501 0.057634123
-0.01512724 -0.029979501 0.052967004
-0.0041037207 -0.029979501 0.055569559
0.055736423 -0.028478192 0.057036012
0.066638887 -0.025183823 0.059423879
0.075413644 -0.023959149 0.059085913
0.10234793 -0.028410677 0.056130983
0.13910878 -0.020601558 0.058535356
0.15259659 -0.02972977 0.059809037
0.17015322 -0.026267398 0.057713214
0.19699903 -0.026243895 0.056703016
0.20483133 -0.0262674 0.053388149
0.21830648 -0.029979501 0.051038355
0.22486527 -0.025763046 0.057421483
0.2521055 -0.0274918 0.059755325
-0.10637827 -0.011005441 0.053501591
-0.081712037 -0.012249706 0.054456335
-0.068710811 -0.012441583 0.059766196
-0.048226789 -0.015251035 0.059766196
-0.025959941 -0.012709117 0.059766196
0.015951838 -0.01341983 0.059766203
0.028921399 -0.017674845 0.059766199
0.03355461 -0.013494886 0.059766199
0.047302783 -0.019851785 0.059766203
0.053482849 -0.010937676 0.053449586
0.11555628 -0.015441307 0.056397617
0.13676769 -0.011697873 0.054032903
0.15539753 -0.017224884 0.057136506
0.16439697 -0.011362659 0.051381417
0.210336 -0.018656105 0.05220288
-0.066065341 -0.0067296932 0.055294849
-0.04349754 -0.0072832294 0.059766203
-0.023628503 -0.0077511449 0.059766203
0.0018944219 -0.0075892173 0.059766203
0.04158688 -0.0048728273 0.059766203
0.13186605 -0.0081271846 0.051293045
0.15764484 -0.008701154 0.051733464
-0.068016782 0.0035896308 0.059766199
-0.058283761 0.005444264 0.059766199
0.0025273785 0.0093317311 0.050664492
0.019395705 0.0010857284 0.059766199
0.070349917 0.009606936 0.059724934
0.084127471 0.006312211 0.059615113
0.1165686 0.006036839 0.05572065
0.15073736 0.0001106835 0.050551195
-0.062500961 0.0152737 0.052408528
-0.044837452 0.0152737 0.058305573
-0.026782071 0.013898529 0.057702512
-0.00503649 0.010731707 0.053492576
0.0062966598 0.014054235 0.055034008
0.031338733 0.015080739 0.053241298
0.041339532 0.013091496 0.05966039
0.069620512 0.010091532 0.059751518
0.085640326 0.012773786 0.052542944
0.10116411 0.010883784 0.055542298
0.1227824 0.018872224 0.051883582
0.11088485 0.024822943 0.051183011
-0.013620068 -0.030347573 0.06003445
0.026478412 -0.037292756 0.068366408
0.03230181 -0.030476561 0.060074348
0.042371638 -0.030752327 0.06568037
0.10524253 -0.032349363 0.060585462
0.15413585 -0.034004301 0.060560782
-0.074326463 -0.029903436 0.060072891
0.014370727 -0.030236736 0.078839466
0.089833058 -0.035450459 0.076194592
0.10370442 -0.035086937 0.075691044
0.12283532 -0.034578655 0.075382143
0.13538283 -0.033874117 0.073056951
0.15278174 -0.033799279 0.070218869
0.010688061 -0.030314991 0.089229941
0.032339603 -0.03689117 0.081953876
0.087246537 -0.032349605 0.08749672
0.094101205 -0.032490399 0.085086696
0.13114397 -0.034101799 0.089500062
0.14023022 -0.033678435 0.082254164
0.0046623917 -0.0332179 0.098440193
0.044566467 -0.036326475 0.095103703
0.054076821 -0.031587079 0.094639622
0.085905805 -0.032488152 0.097210959
0.10228204 -0.032863077 0.093598783
0.024239343 -0.036633011 0.10842736
0.043326259 -0.031428397 0.10187712
0.070363216 -0.035448264 0.10541756
0.092199899 -0.034876525 0.10459563
0.0027325908 -0.030514084 0.11864731
0.025745049 -0.036477737 0.11481763
0.034680724 -0.031472608 0.11725974
0.093755186 -0.033083234 0.11859548
0.0077375043 -0.033808295 0.12766418
0.080691352 -0.032877311 0.12666173
0.10412181 -0.033918422 0.12434161
0.084183872 -0.034498893 0.13759199
0.1042093 -0.033736613 0.13933074
0.027397146 -0.031688318 0.14015058
0.030267637 -0.035822887 0.14449948
0.043114953 -0.032166641 0.1432766
0.054810267 -0.032599416 0.14988022
0.077140749 -0.034570802 0.14411722
0.086576328 -0.034246728 0.14804868
0.094812788 -0.033869557 0.14441665
0.10204493 -0.033800449 0.14611831
-0.013228377 -0.037196521 0.15434413
-0.0089703258 -0.030533697 0.15457666
0.0018831538 -0.031250611 0.1539267
0.018361107 -0.031798981 0.15981476
0.022107368 -0.031740181 0.15094326
0.047512282 -0.035255618 0.15029261
0.077077501 -0.033918653 0.1554049
0.080397531 -0.034319498 0.15323439
0.0062060952 -0.031538837 0.16350535
0.048018776 -0.032696813 0.1654515
0.076447397 -0.03353823 0.1697854
0.08147914 -0.034075264 0.16520907
-0.018974129 -0.030166935 0.17498048
-0.006326152 -0.031364601 0.17254055
0.0050858287 -0.033786863 0.17400512
0.065150604 -0.033892993 0.1751602
0.081473961 -0.033866763 0.17678049
-0.010939481 -0.036235847 0.18468425
-0.0081577525 -0.03619948 0.18097576
0.021648621 -0.032339975 0.18500769
0.034565017 -0.033725835 0.18450299
0.041210566 -0.032926992 0.18843688
0.055583254 -0.034503259 0.18009707
0.071003929 -0.034065761 0.18139465
-0.026313089 -0.036442574 0.19214317
-0.013874588 -0.033348817 0.1973536
-0.0080155125 -0.031687792 0.19305131
0.053728651 -0.0334365 0.19808088
-0.02275113 -0.036921285 0.20197167
0.013390305 -0.033824682 0.20735189
0.02798165 -0.034788765 0.20546427
0.0021416154 -0.035294034 0.21596877
0.020840568 -0.032844733 0.21430548
0.044813111 -0.033783704 0.21572573
-0.034388352 -0.033808678 0.22456001
0.016036658 -0.034236807 0.22299056
-0.030215289 -0.036363631 0.23955651
-0.026511889 -0.036083356 0.23589502
-0.016933713 -0.033849731 0.23318005
-0.042835593 -0.033453021 0.24212487
-0.02410521 -0.035660028 0.2400053
-0.0090732872 -0.035038453 0.24695402
0.0062221945 -0.033851199 0.24601623
0.025193935 -0.03417863 0.24358423
-0.0026750646 -0.034681793 0.25723857
0.0031079471 -0.034592185 0.25358152
0.017776219 -0.033734448 0.2568402
-0.046548069 -0.035421565 0.26363835
-0.021301288 -0.035024259 0.26602066
-0.036876876 -0.035685938 0.2779434
-0.024256941 -0.032750983 0.27649376
-0.016017906 -0.033816069 0.27375609
-0.040130533 -0.03585881 0.28313428
-0.037853085 -0.032101005 0.2840775
-0.003313482 -0.033858359 0.28673562
-0.060025636 -0.030140944 0.29846546
-0.045365691 -0.035942405 0.2967217
-0.062286951 -0.036016151 0.30511987
-0.043988883 -0.035561338 0.30281046
-0.010039374 -0.033726681 0.30954126
-0.0668419 -0.030063545 0.31700471
-0.050461784 -0.031778648 0.31355482
-0.025656004 -0.033841107 0.3113896
-0.017941417 -0.034005448 0.31769451
-0.056970816 -0.036306985 0.32201791
-0.039033599 -0.033213239 0.32430467
-0.074239753 -0.036646895 0.33712462
-0.064195469 -0.031213628 0.33991271
-0.057795163 -0.035855807 0.3366518
-0.07529635 -0.035168819 0.34032089
-0.058733322 -0.03184044 0.3402378
-0.073311329 -0.036809556 0.35792607
-0.068278208 -0.031236742 0.35288456
-0.066744223 -0.033079084 0.36437991
-0.055311676 -0.032984842 0.36064801
-0.07104896 -0.035984099 0.37329352
-0.06930168 -0.034269087 0.38880834
-0.087141037 -0.032865703 0.39632344
