# .PCD v0.7 - Point Cloud Data file format
VERSION 0.7
FIELDS x y z
SIZE 4 4 4
TYPE F F F
COUNT 1 1 1
WIDTH 823
HEIGHT 1
VIEWPOINT 0 0 0 1 0 0 0
POINTS 823
DATA ascii
-0.14597917 -0.05555319 -0.30211699
-0.14615068 -0.054691073 -0.29292735
-0.13698184 -0.055847622 -0.29605785
-0.11499567 -0.054436129 -0.29094771
-0.14744969 -0.055043519 -0.28551278
-0.13496621 -0.054786816 -0.28309926
-0.13173608 -0.053034954 -0.27913812
-0.11503248 -0.051494502 -0.27567771
-0.12630838 -0.055419676 -0.26187283
-0.11314331 -0.055620387 -0.25898835
-0.10706053 -0.055574667 -0.25170839
-0.097258277 -0.055219069 -0.25361761
-0.088859528 -0.050819095 -0.2541675
-0.12142576 -0.053423889 -0.2477755
-0.09409824 -0.053747285 -0.24441516
-0.080134027 -0.054003008 -0.2423133
-0.12008836 -0.053929053 -0.23755379
-0.11532617 -0.054681711 -0.23225552
-0.10432643 -0.055312738 -0.23193276
-0.083296001 -0.055112813 -0.23081772
-0.082436703 -0.055256508 -0.2240005
-0.11152761 -0.054542452 -0.21309878
-0.10576582 -0.053697772 -0.21397206
-0.083932683 -0.052881446 -0.21691832
-0.055885166 -0.049050044 -0.20365013
-0.096727356 -0.0545118 -0.19146919
-0.073595583 -0.050104268 -0.1980302
-0.081833333 -0.051776342 -0.18216342
-0.048383981 -0.054687824 -0.18000385
-0.039989863 -0.053580526 -0.18452501
-0.036344759 -0.049893066 -0.18984228
-0.05088684 -0.054833874 -0.17915091
-0.02382293 -0.052146949 -0.17113495
-0.082498513 -0.056231674 -0.16747206
-0.069205932 -0.05485145 -0.1697492
-0.016156223 -0.050355103 -0.16479747
-0.044859968 -0.048551548 -0.16394114
-0.037415676 -0.048128072 -0.16534123
-0.058322303 -0.050290532 -0.15378937
-0.056822665 -0.049890488 -0.1578684
-0.02899326 -0.047794476 -0.15943179
-0.013454339 -0.047764845 -0.1524232
-0.062190123 -0.054527033 -0.14550018
-0.02156668 -0.054275747 -0.14430229
-0.014094485 -0.053270154 -0.14763394
-0.045671441 -0.054679085 -0.13655192
-0.038913444 -0.04892033 -0.13535452
-0.064804524 -0.053750612 -0.12663376
-0.038178246 -0.0564491 -0.12068452
-0.062255271 -0.05333624 -0.11131071
-0.043551918 -0.057637971 -0.11771613
-0.023228278 -0.054600459 -0.11097538
0.0016644263 -0.054040123 -0.11121526
0.020447612 -0.050091133 -0.11625982
-0.037402295 -0.049318559 -0.11561131
-0.051613726 -0.084445857 -0.10105735
-0.049889509 -0.081803925 -0.101266
-0.030158278 -0.076608092 -0.10159901
-0.015619919 -0.054265589 -0.102946
-0.00049416116 -0.054285433 -0.1070608
0.0016331678 -0.054210864 -0.10613148
-0.01553159 -0.048963834 -0.102946
-0.0094569409 -0.045817386 -0.10205512
0.0075856438 -0.045123585 -0.10946505
0.030566707 -0.049282223 -0.10510735
-0.38716254 0.083606414 -0.10685124
-0.36365244 0.081421159 -0.10501342
-0.040004551 -0.080756217 -0.094969667
-0.022923656 -0.083857983 -0.095143706
-0.019851828 -0.088389225 -0.096374199
-0.054519482 -0.075963996 -0.090482526
-0.03503491 -0.07870578 -0.094358765
-0.022168819 -0.07801073 -0.096374199
-0.015234487 -0.070398912 -0.092178658
-0.055044882 -0.06381128 -0.094986983
-0.0057933964 -0.067090422 -0.093912512
-0.1015322 -0.057385333 -0.096484743
-0.044875935 -0.051621556 -0.093368024
0.0045212219 -0.056647681 -0.095841818
0.010656355 -0.054133017 -0.093465544
0.030673333 -0.051234651 -0.097458243
-0.061958369 -0.045783285 -0.091850571
-0.054959547 -0.044979401 -0.096135415
-0.04647211 -0.044495422 -0.092982829
-0.0043383553 -0.044947118 -0.09771055
-0.37276864 0.083276972 -0.094412401
-0.053611755 -0.088029668 -0.086213134
-0.029957298 -0.088128448 -0.088642754
-0.014004035 -0.0858583 -0.085897602
-0.0622673 -0.061229147 -0.085388735
-0.030912422 -0.063158505 -0.088665001
-0.011960967 -0.062568739 -0.088574454
-0.090076782 -0.057543144 -0.08762522
-0.085392855 -0.057184909 -0.086993821
-0.071330413 -0.059236526 -0.085702524
-0.068824142 -0.050125957 -0.0855297
-0.038780428 -0.052469607 -0.0845505
-0.020598823 -0.054501839 -0.083475687
0.016631167 -0.054193072 -0.086999148
-0.044555452 -0.047754452 -0.0845505
-0.016451348 -0.04603 -0.083238423
0.053125404 -0.046197921 -0.081370078
-0.052872445 -0.05297783 -0.074405268
-0.03711082 -0.053818464 -0.078652821
-0.02224813 -0.054715492 -0.072402611
-0.017582869 -0.054277707 -0.074310638
-0.0074879611 -0.055064213 -0.073854856
0.018735155 -0.055002913 -0.073434919
0.035936974 -0.053106308 -0.078853957
0.00053526397 -0.043613937 -0.078690857
0.031726144 -0.040770233 -0.074197397
-0.3640838 0.083176538 -0.076596126
-0.35872877 0.084176168 -0.071449004
-0.3344073 0.080647871 -0.071485095
0.040362693 -0.054169528 -0.065830678
0.054926444 -0.051746324 -0.06379164
-0.030245461 -0.04815051 -0.068048783
-0.013978701 -0.045341372 -0.066054091
0.0047958768 -0.042638987 -0.06490352
0.020131094 -0.040608447 -0.060694996
-0.17378573 -0.030661386 -0.062404141
-0.13338867 -0.035518385 -0.062052544
0.055670865 -0.039563727 -0.063327894
-0.13006628 -0.015464084 -0.063341916
-0.12228256 -0.016589623 -0.064096101
-0.11606058 -0.01729724 -0.06307029
-0.36247388 0.083089188 -0.066331714
-0.34930828 0.084663503 -0.065876439
-0.040655285 -0.050273962 -0.054532357
0.067410037 -0.050548825 -0.054370318
-0.035871074 -0.049204897 -0.055586159
-0.1534991 -0.039107472 -0.058434788
-0.11089373 -0.032862626 -0.051097598
0.030328508 -0.039444283 -0.05743628
0.043233585 -0.038436964 -0.052365005
-0.20651631 -0.028055992 -0.055344589
-0.19653936 -0.020027805 -0.055949315
-0.15942989 -0.012871507 -0.057054482
-0.12343003 -0.0094726142 -0.052882854
-0.3351678 0.085084558 -0.055295616
-0.3217625 0.080272168 -0.05456442
-0.31516522 0.082969323 -0.053170089
-0.044985712 -0.052821122 -0.043742031
-0.025831671 -0.055037223 -0.044136882
-0.0026256959 -0.055825673 -0.048226576
0.0071268594 -0.05614562 -0.047140636
0.029623726 -0.056011122 -0.048992917
0.03860981 -0.055428434 -0.049636193
0.043553103 -0.055311382 -0.046683893
0.060932182 -0.054307114 -0.041605391
-0.17847297 -0.040729433 -0.046457954
-0.16329193 -0.040929526 -0.043307252
-0.15812759 -0.040059011 -0.041256726
-0.024791684 -0.047076851 -0.041556962
-0.004853921 -0.043549992 -0.045770142
0.0030305432 -0.042361259 -0.04746791
0.08537098 -0.042337682 -0.045185164
-0.2093924 -0.035301585 -0.044657327
0.023404019 -0.039539479 -0.040211163
-0.13476403 -0.028634287 -0.04156632
-0.12006543 -0.027197126 -0.042018145
-0.19608469 -0.016124487 -0.041150626
-0.16591313 -0.011285025 -0.047384862
-0.13185167 -0.010941676 -0.045330312
-0.11421999 -0.016160337 -0.046654787
-0.35092482 0.08296454 -0.046739221
-0.016626988 -0.060824558 -0.032094441
-0.054879144 -0.050086271 -0.032743558
-0.04187379 -0.05500342 -0.032221749
-0.036205158 -0.057131261 -0.030225124
-0.010720476 -0.056039907 -0.031380523
0.0025089476 -0.056194291 -0.039312508
0.021024676 -0.056659073 -0.037118521
0.051675133 -0.055477247 -0.036760312
0.079626955 -0.051034573 -0.037207618
0.08024618 -0.051400002 -0.034336932
-0.030274397 -0.045282681 -0.033242632
-0.013973927 -0.041834455 -0.033083316
-0.0038752349 -0.043344516 -0.037766539
0.0044309008 -0.041562032 -0.033985946
-0.18303442 -0.036689311 -0.036916893
-0.17682573 -0.030063108 -0.031758826
-0.15360533 -0.03033733 -0.03445746
-0.068984553 -0.031627741 -0.031249139
0.00079182186 -0.037594561 -0.031706385
0.014695996 -0.037604392 -0.030689228
0.039167307 -0.031412259 -0.031456456
0.057720024 -0.033310302 -0.031170277
0.065771744 -0.035978634 -0.03445749
0.10679886 -0.034753021 -0.030884463
-0.20538776 -0.029928554 -0.03456125
-0.19267988 -0.025738295 -0.03263928
-0.17592415 -0.022490414 -0.032909065
-0.13554417 -0.023867808 -0.037900098
-0.045142077 -0.027357418 -0.031136818
-0.029887378 -0.0281009 -0.031264462
0.035373837 -0.025668893 -0.031071806
0.090966344 -0.021407925 -0.030619517
0.1119224 -0.022256248 -0.030772416
0.1625887 -0.021216251 -0.030734437
0.194864 -0.028280942 -0.031564441
0.25249445 -0.028971856 -0.031360712
-0.16491917 -0.018238114 -0.035498001
0.20827115 -0.019238284 -0.030554159
-0.34381998 0.08332932 -0.035923939
-0.33750457 0.082682207 -0.034535401
-0.32578734 0.085065633 -0.039206114
-0.30736291 0.085689262 -0.037008315
-0.06591513 -0.053296357 -0.025465921
-0.033743601 -0.051635981 -0.023757813
-0.01983987 -0.054985859 -0.020088095
-0.00016899873 -0.056563817 -0.026696522
0.012341203 -0.051249109 -0.023529578
0.045262855 -0.054982029 -0.024951324
0.058792673 -0.056371301 -0.020769723
0.061252259 -0.05592097 -0.023865212
-0.17791863 -0.04049037 -0.020936869
-0.16304313 -0.041233506 -0.022875249
-0.14427575 -0.042868525 -0.024733566
-0.10963715 -0.043354213 -0.027010381
-0.081427589 -0.044488601 -0.028170563
-0.072907269 -0.046150628 -0.029814456
-0.061274424 -0.046189658 -0.027614962
-0.046156775 -0.048404492 -0.026378479
-0.010354343 -0.042680316 -0.029001914
0.007778035 -0.048721746 -0.025520544
0.024166288 -0.043557204 -0.028426519
0.075697221 -0.046734013 -0.026272183
0.1111673 -0.04981716 -0.02350237
0.12786576 -0.047503978 -0.025086995
0.14467292 -0.042263702 -0.028221238
0.1645776 -0.04342588 -0.027617458
0.21194035 -0.048470411 -0.023387514
0.22435136 -0.048419472 -0.023285214
0.24486214 -0.044011272 -0.02643385
0.25404006 -0.046023399 -0.024704158
0.27966848 -0.047057934 -0.022499328
0.28009602 -0.044403732 -0.024472088
-0.19452289 -0.030018626 -0.029341307
-0.17260385 -0.034987703 -0.024021342
-0.15249148 -0.034159891 -0.026677255
-0.10391696 -0.038709518 -0.029331222
0.26065698 -0.036983442 -0.029316772
0.28214687 -0.036956601 -0.028107176
0.3188476 -0.031261839 -0.025436081
-0.21302302 -0.02667881 -0.024999708
-0.20295043 -0.025509145 -0.026720192
-0.19589348 -0.024003126 -0.022147169
-0.18217708 -0.023447318 -0.024959646
-0.17867319 -0.02129326 -0.023619579
-0.1624285 -0.022407027 -0.028722595
-0.15076496 -0.027883835 -0.027382087
-0.142262 -0.028936811 -0.02585659
-0.13635153 -0.024976186 -0.024019904
-0.11945872 -0.024021376 -0.027023634
0.29814762 -0.025842723 -0.028177351
0.30962956 -0.020554928 -0.026192961
0.33058131 -0.027340358 -0.023890885
-0.16438454 -0.014953448 -0.022423727
-0.13095337 -0.019431811 -0.026587555
-0.12332648 -0.017727597 -0.026251327
-0.10948315 -0.014577165 -0.025237078
-0.097930759 -0.011333345 -0.023262292
-0.076081529 -0.015343062 -0.0267844
-0.046261199 -0.015068403 -0.027138291
0.027269069 -0.012342023 -0.025884647
0.051369317 -0.0121045 -0.025938332
0.088186666 -0.018013753 -0.02930844
0.10620753 -0.015824001 -0.02851231
0.1290952 -0.016314153 -0.028856097
0.15180472 -0.012893246 -0.027578797
0.25784311 -0.016100168 -0.029185282
0.30408457 -0.013744073 -0.024084305
-0.043247569 -0.0095791174 -0.022961151
0.045257732 -0.0066319481 -0.021241369
0.15737614 -0.0077144494 -0.023816137
0.18983902 -0.0075129047 -0.024031181
0.22425818 -0.0034134893 -0.02051061
0.26310188 -0.0043439204 -0.021259323
0.30079481 -0.0078064068 -0.020495838
-0.31094241 0.079980202 -0.029916028
-0.29159549 0.079898044 -0.028234087
-0.33245176 0.083898701 -0.029371366
-0.31486607 0.085223332 -0.027897861
-0.28647038 0.083526015 -0.026670432
-0.078363381 -0.060160257 -0.010573225
-0.048378631 -0.060655445 -0.011060629
-0.035257183 -0.060269963 -0.011520851
-0.14595462 -0.054741554 -0.01204616
-0.12564775 -0.054000296 -0.016381012
-0.076778747 -0.059160333 -0.013098671
-0.062031664 -0.059359476 -0.013755146
-0.00074894447 -0.059831448 -0.011342449
0.0094638057 -0.05804 -0.015301054
0.023152687 -0.058422178 -0.013887745
0.052850999 -0.056980059 -0.018661335
0.14916043 -0.056967307 -0.012883014
0.15688428 -0.05609056 -0.01472264
0.19514249 -0.054664351 -0.016347133
0.26486272 -0.051649127 -0.018410226
-0.19343272 -0.041422516 -0.017474473
-0.18496135 -0.040860247 -0.01935159
-0.17894182 -0.04206688 -0.019533858
-0.24111663 -0.033132665 -0.013554933
-0.23616411 -0.038786039 -0.010297555
-0.22577809 -0.030058946 -0.017154325
-0.21436518 -0.032208115 -0.018850485
-0.2558499 -0.026474547 -0.013406219
-0.24083844 -0.029881986 -0.014745035
-0.22767138 -0.026282657 -0.018147007
-0.21158962 -0.025802974 -0.017593455
0.36035937 -0.022271417 -0.01159393
-0.23875371 -0.011531513 -0.013578448
-0.21704891 -0.012755437 -0.016562223
-0.19079381 -0.010129241 -0.016948931
0.3465181 -0.012723251 -0.012440209
0.35450912 -0.017837796 -0.011315189
-0.19515507 -0.0051789018 -0.011920912
-0.12090722 -0.0041366769 -0.013005469
-0.1160623 -0.0028440047 -0.010290054
-0.065804839 -0.0065943068 -0.018979171
-0.053969957 -0.006819672 -0.019565759
0.0073643322 -0.0031864075 -0.015166891
0.018980645 -0.00082564616 -0.010902505
0.044586711 -0.0055560768 -0.019826345
0.078848712 -0.001785713 -0.015365427
0.15717819 -0.0029330878 -0.018586779
0.2516703 -0.0018763107 -0.019037757
0.2923505 -0.0056074262 -0.019659365
0.12545228 0.00063300831 -0.011197479
0.23065722 0.0025430361 -0.01035756
-0.13853027 0.01922329 -0.01000501
-0.11710268 0.019034868 -0.010178259
-0.28878301 0.079194106 -0.015394276
-0.27488053 0.079930894 -0.012194568
-0.32501796 0.082411438 -0.017735727
-0.31827846 0.080991924 -0.016983038
-0.27649283 0.082447335 -0.019757757
0.27762675 -0.08297924 -0.00010276691
0.28105733 -0.08731921 -0.0030749044
0.27983162 -0.079665631 -0.0020957801
0.28121746 -0.078115374 -0.0029249308
-0.098037131 -0.061555982 -0.00025262602
-0.0022914726 -0.061701156 -0.0040811435
0.27324131 -0.06363634 -0.0076385066
-0.15244201 -0.055940099 -0.0062260041
-0.14490867 -0.057089951 -0.0051354053
-0.11005296 -0.059721563 -0.0073860749
0.094737276 -0.059017248 -0.0098853791
0.18656051 -0.058743987 -0.0052441577
0.21402317 -0.058696583 -0.0025075199
0.22185731 -0.057914574 -0.0075629731
0.23186812 -0.057856806 -0.0068728901
0.25034079 -0.057982713 -0.0038337514
0.26506737 -0.057430033 -0.0083114132
0.27555263 -0.057108097 -0.0046947314
0.32314533 -0.053567834 -0.0062693525
-0.21843785 -0.045651965 -0.004116572
-0.20801648 -0.047926724 -0.0018641284
-0.26197004 -0.034495216 -0.0064491853
-0.25336701 -0.037630897 -0.0051075793
-0.2462576 -0.038718671 -0.0068236128
-0.27752948 -0.027844276 -0.0084591284
-0.1850109 -0.020701272 -0.0077832425
0.36574638 -0.022773124 -0.0095298393
0.37517312 -0.024955934 -0.005092252
-0.27298039 -0.012648386 -0.0099235252
-0.19279046 -0.01264219 -0.0011749255
-0.18550205 -0.014253667 -0.0070722857
0.35460365 -0.014714418 -0.0062521356
0.36240989 -0.019299449 -0.0070306556
-0.29654676 -0.007963079 -0.0014634673
-0.26774603 -0.0096509969 -0.0088877818
-0.18249723 -0.00039873307 -0.0018934624
-0.16472198 -0.004690405 -0.0067368918
-0.05651693 -0.00084849622 -0.0082526132
-0.044888034 -0.0010805296 -0.0092287716
0.30189958 -0.00024515606 -0.0089038108
-0.25106168 0.0058908882 -0.0034202654
-0.19654873 0.008476303 -0.006949591
-0.14720857 0.0085645523 -0.0072466973
-0.13724875 0.0084830727 -0.0066501303
-0.029886063 2.0957159e-06 -0.004925746
0.036354829 0.0016035803 -0.00023155533
0.052295472 0.0017872372 -0.00063456921
0.11826634 0.0025899326 -0.0019786155
0.12314228 0.0015411658 -0.0089226412
0.14519392 0.0022959807 -0.0072480161
0.25918826 0.0028552217 -0.0093967505
0.26711765 0.0027397852 -0.0085703582
0.27453172 0.0031153692 -0.0040168106
0.29096898 0.001863179 -0.0051678084
-0.26192346 0.010974003 -0.0023189993
-0.25129202 0.016844949 -0.0037034708
-0.14659251 0.012677299 -0.0098364074
-0.13795491 0.011673278 -0.0075409897
-0.12790188 0.015855562 -0.0077688275
-0.27356124 0.02397765 -0.0016983135
-0.24424185 0.024404882 -0.0044365949
-0.17567259 0.027423928 -0.0026361004
-0.14031336 0.024591096 -0.0081478236
-0.13448963 0.024486652 -0.0083506275
-0.12269734 0.021349713 -0.006706866
-0.10779171 0.026335474 -0.0075768009
-0.25036523 0.036015771 -0.0043051075
-0.21692125 0.034048654 -0.004964232
-0.12359264 0.030652281 -0.00040921004
-0.29996532 0.049836002 -5.1883333e-05
-0.25204396 0.047497001 -0.0042642499
-0.28410923 0.052146379 -0.0021798175
-0.24832544 0.053573932 -0.0043060514
-0.28699672 0.062528074 -0.0023936857
-0.23974752 0.063892081 -0.0036841347
-0.3356308 0.077566475 -0.0021593038
-0.29450369 0.079947338 -0.0040935935
-0.25963774 0.074591339 -0.0035524759
-0.25083333 0.085764512 -0.0035967294
-0.23118019 0.088949844 -0.0010982497
-0.10525012 -0.060122691 0.0074036578
-0.088702478 -0.060378708 0.0092561711
-0.057528492 -0.06194973 0.0070846458
-0.040104233 -0.061615609 0.0077102669
-0.0032270476 -0.060640775 0.0094777327
0.055591773 -0.060973942 0.0030772304
0.06942454 -0.060529217 0.0048948075
0.075088687 -0.060517583 0.0043444582
0.13231286 -0.064856187 4.1677002e-05
-0.18302378 -0.051874164 0.0019523109
-0.13108453 -0.057010859 0.0097518079
0.12704854 -0.058794245 0.0092658401
0.18985525 -0.057868537 0.0092493454
0.21600597 -0.058482938 0.0039066542
0.23964868 -0.058596831 0.00037597481
0.26789981 -0.0597113 0.0077186665
0.27617016 -0.057036437 0.0072749071
0.28604266 -0.056934029 0.0034385473
0.29083511 -0.05709599 6.5670254e-05
0.30787355 -0.055511635 0.0028682069
0.33229908 -0.052723739 0.0043131891
-0.255458 -0.038332239 0.0019590487
0.35495499 -0.014297308 0.0048132236
-0.26739252 -6.4430991e-05 0.0025238327
-0.16773182 -0.0069695031 0.0066564279
-0.11222093 -0.0021708808 0.0085777538
-0.096004874 -0.00089726527 0.0044208285
-0.088195659 -0.00094376615 0.0056891735
-0.06572859 -4.9229609e-05 0.0013083294
-0.03117775 -8.0271333e-05 0.0054057008
0.31947339 -0.00082896434 0.00017198577
0.34273475 -0.0064512594 0.0012126026
-0.26449853 0.0041995915 0.0017468615
-0.21725637 0.0058147674 0.006085197
-0.20409879 0.0022873243 0.0077846511
-0.19264688 0.0020448943 0.0085802507
-0.17213267 0.0032916251 0.0077863242
-0.15444569 0.0040393043 0.0070278691
-0.14510901 0.0060523469 0.0085814968
-0.12591675 0.0071276845 0.004982858
-0.11286238 0.006792929 0.0081932144
-0.046198603 0.00016370612 0.0018578827
-0.016380616 0.0001654849 0.0052077794
0.050649896 0.0012534769 0.0045032203
0.16703631 0.0022729966 0.0087293182
0.17495713 0.002960362 0.0055578519
0.23232107 0.0039811456 0.004274569
0.26796764 0.0028688298 0.0081427619
0.29231849 0.0016924173 0.0054699969
0.31230378 0.00023532659 0.001404414
-0.26507133 0.017791536 0.0023540137
-0.15524605 0.010679314 0.0092995325
-0.12672208 0.01897019 0.0074195084
-0.228865 0.025768887 0.0051175598
-0.21118285 0.025881197 0.005252515
-0.18080394 0.025254576 0.0054918313
-0.17635205 0.027087303 0.004055358
-0.16690588 0.027358064 0.0042019729
-0.12574273 0.025352862 0.0053460598
-0.11060843 0.024479721 0.0085724918
-0.10524485 0.023367748 0.0056034606
-0.26963839 0.033470903 0.0026883793
-0.25273013 0.03681685 0.0041510118
-0.23690794 0.030341551 0.0048368042
-0.21736279 0.038844179 0.0046653859
-0.10476815 0.030514769 0.00016704359
-0.22210073 0.054952927 0.0033745472
-0.30611694 0.061455999 8.8358596e-05
-0.2965107 0.068593405 0.0017589703
-0.28930151 0.063976198 0.0022389544
-0.25329924 0.069347754 0.0037335041
-0.24712145 0.069182679 0.0035712987
-0.31547505 0.077683903 0.0050840471
-0.2386377 0.072664604 0.00036814282
-0.33932412 0.082700603 0.00020596723
-0.30407053 0.084810145 0.0043927319
-0.2945902 0.085630246 0.0040046065
-0.28795034 0.084853731 0.0028346293
-0.27504224 0.081015065 0.0035109727
-0.26004446 0.082097977 0.003625134
-0.046555631 -0.06078339 0.010686569
-0.1146743 -0.053044405 0.019190421
0.0069587161 -0.057204742 0.016255349
0.038319647 -0.057260334 0.01868921
0.093873903 -0.054096695 0.019046562
0.15060087 -0.056469429 0.014033778
0.16211218 -0.057601862 0.010887573
0.23681238 -0.054978315 0.014543032
0.27546269 -0.053140722 0.0152607
-0.22278315 -0.040725995 0.011730684
-0.19220713 -0.044116173 0.015541054
-0.17931812 -0.044581681 0.017657487
0.34000164 -0.046879034 0.014038418
-0.21543516 -0.03266662 0.015349042
-0.1939989 -0.030357871 0.016351331
0.3736147 -0.036619529 0.010335786
-0.23439248 -0.029050021 0.017051892
-0.2045861 -0.024890603 0.013167352
-0.17478609 -0.022591226 0.014812536
0.37236547 -0.029316925 0.010498097
-0.26076141 -0.01605395 0.012664561
-0.25728911 -0.011060601 0.010939952
-0.23518559 -0.011535068 0.014028294
-0.19711986 -0.012530978 0.018178191
0.33156207 -0.012830424 0.018477466
-0.24174957 -0.0097733615 0.012025883
-0.16503426 -0.0038555732 0.012376704
-0.14433143 -0.0071349582 0.016369309
-0.11231114 -0.0042622616 0.013329956
-0.10450986 -0.004609264 0.015360487
-0.085497029 -0.002954524 0.012278195
-0.079651527 -0.007043994 0.01921868
0.025320465 -0.0010374121 0.01164104
0.032572877 -0.0022145424 0.014742399
0.074802749 -0.0048202351 0.01945224
0.15359569 -0.00011918761 0.014021998
0.2231608 -0.00036177022 0.01651288
0.26346582 -0.0019992224 0.018165167
0.2852841 -0.0018134504 0.015937412
0.29956424 -0.0050280876 0.01771652
-0.12314065 0.014045397 0.01024631
-0.28881443 0.079144582 0.014660066
-0.096629858 -0.053604864 0.020536523
-0.070918873 -0.053694859 0.021628324
-0.060599446 -0.051632896 0.023763735
-0.047443725 -0.055177726 0.020372191
-0.036979757 -0.05544572 0.020618545
-0.020553797 -0.05593849 0.02478751
0.035701044 -0.054548148 0.02253592
0.050911795 -0.052457787 0.022013307
0.081624947 -0.051861875 0.027509985
0.13451572 -0.052402422 0.020467872
-0.12188803 -0.04658385 0.024247807
-0.10161586 -0.049697611 0.023734402
0.029510565 -0.043110307 0.028578965
0.034470033 -0.046075389 0.027246978
0.12162123 -0.045282394 0.026862662
0.14652863 -0.046363831 0.025534606
0.16126001 -0.045944095 0.025903333
0.17697752 -0.047457863 0.024562806
0.20704854 -0.046518836 0.024940677
0.21880446 -0.04908077 0.022841053
0.22887395 -0.0482071 0.023396637
0.23709789 -0.04657482 0.024555344
0.24526659 -0.045165341 0.025543738
0.2851415 -0.048014812 0.021451563
0.30501008 -0.043279935 0.022790283
-0.18419649 -0.031173572 0.025006348
-0.17554757 -0.039878674 0.021623366
-0.16241121 -0.037144758 0.024639046
0.12499115 -0.039205905 0.029608902
0.17270841 -0.039441362 0.029217817
0.25032189 -0.038185865 0.029260527
0.26494735 -0.037779234 0.02873132
0.27948087 -0.039572041 0.027184727
0.31204614 -0.034378223 0.025962623
-0.22878429 -0.029120697 0.025824662
-0.17957973 -0.028265707 0.024152055
-0.16425416 -0.022531714 0.029740809
-0.1591194 -0.029548593 0.02193591
-0.14061117 -0.021361761 0.020385321
-0.11445011 -0.021963574 0.028414521
0.2885184 -0.020963255 0.02864101
0.31133285 -0.023115765 0.02632986
0.32880807 -0.024268892 0.023790542
-0.14287744 -0.0148401 0.023830988
-0.11235483 -0.013043487 0.023934852
0.040480923 -0.019051082 0.029444775
0.053225119 -0.012856785 0.026315529
0.078890815 -0.010789953 0.025281623
0.099155538 -0.017977808 0.02936101
0.11744679 -0.014530087 0.028045576
0.12580736 -0.017091257 0.029157747
0.14375587 -0.012186033 0.027091822
0.16783436 -0.011411462 0.026771976
0.21344474 -0.015889296 0.029198879
-0.08151795 -0.0089606438 0.02166919
-0.058374524 -0.008917748 0.022192765
-0.031766709 -0.0077212928 0.021170337
-0.013980521 -0.0097115804 0.02339616
0.0087530836 -0.00891208 0.023041727
0.020238852 -0.0066224579 0.02074476
0.03672298 -0.0070695048 0.021646202
0.088856213 -0.0054190783 0.020504378
0.12578928 -0.0061250329 0.022138817
0.13647011 -0.0085986443 0.024256265
0.18682663 -0.0056185513 0.02254362
0.20380594 -0.0048426469 0.021801353
0.24423651 -0.0033776541 0.02085077
0.2714994 -0.0096324049 0.024966562
-0.33471367 0.08201921 0.027875427
-0.32675141 0.081599489 0.020598972
-0.31097761 0.085297532 0.023004286
-0.035910282 -0.054641385 0.032971747
-0.021457953 -0.059359591 0.033320792
0.049746472 -0.055608407 0.036701452
0.055144027 -0.05503086 0.039847195
-0.066223085 -0.04892898 0.031236418
-0.048816446 -0.040453725 0.030762643
-0.030428145 -0.047201455 0.033821851
0.0017550588 -0.042338163 0.036322095
0.015264859 -0.040508986 0.037652306
0.096688971 -0.042143624 0.033158515
-0.17089203 -0.039079446 0.039751004
-0.15485746 -0.032979313 0.035536382
-0.14129031 -0.036817543 0.039853603
-0.080821462 -0.033946194 0.030655639
-0.065020524 -0.03754821 0.030566541
-0.033501916 -0.035009816 0.031125149
0.012878108 -0.031320445 0.031520288
0.049886078 -0.033412106 0.031172467
0.05590371 -0.033783503 0.031452041
0.064413667 -0.036493994 0.03917627
0.072444826 -0.035222817 0.033376321
0.090112984 -0.038408048 0.030153796
0.10528094 -0.032746471 0.03115184
0.14237127 -0.033197418 0.031019766
-0.21187067 -0.028485643 0.036827888
-0.20541835 -0.029703002 0.037862793
-0.19644809 -0.028811812 0.034558624
-0.17803755 -0.023997813 0.032881733
-0.16388598 -0.029683022 0.039826214
-0.15281233 -0.022170177 0.036682893
-0.1266638 -0.021638747 0.039265417
-0.041978888 -0.022616662 0.030414473
0.0075746756 -0.02847686 0.031387415
0.03149423 -0.029512223 0.031570304
0.058450066 -0.027107624 0.031306557
0.12480831 -0.02174871 0.030730823
0.17768186 -0.029210089 0.031475849
0.2014378 -0.029237682 0.031425774
0.22605477 -0.026965819 0.031615455
0.25011629 -0.028419241 0.03143838
-0.18194327 -0.018144656 0.035395075
-0.13410287 -0.015412636 0.039817378
0.1216324 -0.019754717 0.030235291
0.15908556 -0.019596294 0.030399935
-0.30477512 0.079594582 0.032992195
-0.31312233 0.085594222 0.037150964
-0.29724422 0.085181303 0.032087773
-0.041669168 -0.050632797 0.042994179
-0.039617013 -0.054187343 0.040407985
-0.0050795628 -0.055795535 0.046400744
0.02482006 -0.056065924 0.049370851
-0.15876421 -0.04210823 0.049686458
-0.14715835 -0.041563801 0.047590852
-0.02177049 -0.046554729 0.045335464
0.085491173 -0.04585873 0.045018654
-0.1320035 -0.038352787 0.044573948
0.051860772 -0.037681993 0.047951013
-0.21027865 -0.022891492 0.044540677
-0.2098714 -0.026719365 0.040878952
-0.12195386 -0.027438946 0.040494118
-0.11305515 -0.025678322 0.044686951
-0.21035881 -0.019011818 0.044774234
-0.19305481 -0.015169696 0.049357336
-0.18443786 -0.013451339 0.047511835
-0.14897779 -0.01083548 0.045391839
-0.11181477 -0.012209302 0.047639973
-0.31456476 0.085640378 0.040965397
-0.04987286 -0.052438296 0.052410498
-0.038702231 -0.054041244 0.054865293
-0.14400528 -0.040841833 0.055199631
-0.010325937 -0.044554926 0.053993154
0.017716868 -0.040695541 0.054979183
-0.18124539 -0.035900611 0.058267027
-0.17753488 -0.037108906 0.057639971
-0.13510677 -0.03855272 0.058461856
-0.12085366 -0.038200244 0.052249398
-0.11512548 -0.030178994 0.053565443
0.039964475 -0.038475901 0.051001992
0.046212256 -0.038602144 0.055945672
-0.2125456 -0.025015971 0.051194351
-0.206135 -0.024838295 0.054687493
-0.19141847 -0.029740851 0.059406891
-0.11404669 -0.026100148 0.053974867
-0.19236192 -0.017549915 0.05464885
-0.17604125 -0.013176039 0.052434318
-0.15639366 -0.010559121 0.05030258
-0.12835677 -0.010067537 0.056473035
-0.13075179 -0.0093277311 0.05154153
-0.34721231 0.084162578 0.054833725
-0.051011473 -0.053217128 0.061740927
0.016218448 -0.055391006 0.067693405
0.025059296 -0.055314168 0.063431136
0.033148814 -0.054843884 0.063007765
0.056577101 -0.050864458 0.0663919
-0.035318024 -0.049085975 0.0685229
-0.02345887 -0.046918511 0.06147752
0.0041965228 -0.042610947 0.061275579
0.013893031 -0.041486979 0.064549737
0.067902878 -0.042591672 0.062819391
-0.13972461 -0.03174036 0.064504348
-0.16652653 -0.024840971 0.063656084
-0.14253862 -0.022905383 0.06546662
-0.1130446 -0.026772955 0.062458824
-0.3615531 0.082980797 0.065752335
-0.33606881 0.085340887 0.061141323
-0.0059329704 -0.05779884 0.076143801
0.022258021 -0.054561038 0.076779217
-0.36015671 0.08237195 0.071680188
-0.34708992 0.085313536 0.07616917
-0.33308193 0.084595606 0.077732116
-0.041058179 -0.08535862 0.088238999
-0.05635307 -0.079008833 0.085897602
0.0025691052 -0.06058313 0.087553129
-0.022124557 -0.057107143 0.082851581
-0.014076117 -0.054788817 0.086314246
-0.0084681725 -0.05473128 0.08664228
-0.071238346 -0.048883859 0.086034939
-0.03472732 -0.046564568 0.084734917
-0.02579239 -0.047579646 0.086923361
-0.011630194 -0.04724855 0.084906638
0.0038669202 -0.046742603 0.087181307
-0.35251418 0.085367642 0.085836492
-0.34550235 0.081139341 0.087160937
-0.33777121 0.081063002 0.080193184
-0.04171595 -0.083762631 0.098294206
-0.032140486 -0.083384432 0.092258483
-0.021796282 -0.080289729 0.093015708
-0.028979521 -0.076355577 0.094524071
-0.082897611 -0.062406056 0.098003954
-0.06768734 -0.063307703 0.095128104
-0.055917427 -0.063776523 0.090991817
-0.036229424 -0.063324042 0.095858812
-0.0041676061 -0.062997222 0.092887655
-0.094738826 -0.054797009 0.098894522
-0.015778624 -0.054417633 0.092938118
0.016773442 -0.053703919 0.095230334
-0.066069134 -0.046255443 0.092118479
-0.050584722 -0.044697396 0.097790144
-0.021922052 -0.044033147 0.097535908
-0.010091193 -0.045458272 0.09397497
0.018765103 -0.043041091 0.094119407
0.033203617 -0.042756863 0.091431431
-0.35008854 0.083369009 0.095250167
-0.021069448 -0.088677377 0.10051857
-0.033222854 -0.07632903 0.10159899
-0.054433078 -0.053555772 0.10944754
-0.035681777 -0.054223608 0.10444536
-0.011950737 -0.054812863 0.102946
-0.0097592548 -0.054568697 0.1085903
0.0013149873 -0.053557105 0.10154032
-0.047743026 -0.044771183 0.10041147
-0.028695319 -0.049394619 0.102946
-0.37296873 0.082269378 0.10664375
-0.058307949 -0.05381256 0.11770142
-0.047515675 -0.053422429 0.11644302
-0.031925421 -0.054533746 0.11583406
-0.010994253 -0.054563958 0.11178172
-0.03279664 -0.046213999 0.1199505
-0.0021605208 -0.045591161 0.11042055
0.0011051322 -0.046136804 0.11653508
-0.041731041 -0.054494821 0.12151864
-0.061949737 -0.051797286 0.13483909
-0.040467303 -0.054676797 0.13139586
-0.02313498 -0.054480266 0.13937232
0.0046307128 -0.051245041 0.13459243
-0.078580618 -0.053995676 0.14965519
-0.067653023 -0.053460468 0.14437786
-0.031298392 -0.047824297 0.14888276
-0.025191503 -0.047607057 0.14951813
-0.010742359 -0.047467079 0.14682525
-0.07420022 -0.054380164 0.15671524
-0.043178473 -0.054886661 0.15553239
-0.036984365 -0.054715343 0.15694371
-0.080492787 -0.054308072 0.16437395
-0.076346263 -0.05186196 0.16724397
-0.062166568 -0.052523199 0.16628185
-0.031731993 -0.053791884 0.16959746
-0.021452105 -0.052666277 0.16398409
-0.077333197 -0.057295993 0.17061093
-0.020566499 -0.051021732 0.17024836
-0.030299805 -0.048077293 0.17150165
-0.059909806 -0.049244449 0.18554865
-0.093843371 -0.054798085 0.19723436
-0.089875326 -0.054903433 0.19544357
-0.075913027 -0.055085026 0.19045651
-0.044595245 -0.053054109 0.19586745
-0.052062791 -0.048889183 0.19845405
-0.10203929 -0.053404696 0.20362526
-0.090605326 -0.055109434 0.20617637
-0.075949982 -0.055232979 0.20733091
-0.060436077 -0.054464623 0.20730063
-0.072018065 -0.049813941 0.20255777
-0.11124989 -0.054765821 0.21962526
-0.092239007 -0.05484993 0.21315277
-0.053596955 -0.05279395 0.21085732
-0.06203384 -0.0494201 0.21346179
-0.11186088 -0.054835729 0.22275192
-0.082477592 -0.052758042 0.22264782
-0.073077135 -0.054835387 0.22189681
-0.11767337 -0.055063345 0.23824435
-0.089384511 -0.050372936 0.23756385
-0.073414259 -0.050308209 0.23486149
-0.13427371 -0.054816879 0.25839925
-0.11170977 -0.055589985 0.25575301
-0.083724819 -0.051044472 0.25049865
-0.12231453 -0.052492589 0.26702636
-0.11660299 -0.055583317 0.26006356
-0.13781689 -0.055385835 0.27651632
-0.12652579 -0.055650227 0.27407858
-0.1034878 -0.053778466 0.27785623
-0.14775032 -0.054504767 0.29306006
-0.12532839 -0.051952332 0.29307309
