# .PCD v0.7 - Point Cloud Data file format
VERSION 0.7
FIELDS x y z
SIZE 4 4 4
TYPE F F F
COUNT 1 1 1
WIDTH 840
HEIGHT 1
VIEWPOINT 0 0 0 1 0 0 0
POINTS 840
DATA ascii
-0.079312384 -0.042258561 -0.30629671
-0.063456073 -0.045588549 -0.30676106
-0.053634275 -0.046581432 -0.30199152
-0.071924523 -0.033727802 -0.30771697
-0.077319033 -0.02908206 -0.30870616
-0.046534929 -0.051411252 -0.29031858
-0.069196723 -0.049842037 -0.29202771
-0.045416713 -0.047441103 -0.29839909
-0.032015577 -0.050884973 -0.28190544
-0.050633937 -0.047708917 -0.28457987
-0.065678917 -0.05058679 -0.27512205
-0.027410895 -0.050332997 -0.2788375
-0.031756803 -0.053656854 -0.2635884
-0.048637085 -0.049234502 -0.26427853
-0.057582088 -0.052058682 -0.25669032
-0.030033253 -0.054696687 -0.25431573
-0.037960805 -0.049260832 -0.254769
-0.027644204 -0.055375546 -0.2477521
-0.014250021 -0.052033529 -0.24672517
-0.031570941 -0.049851835 -0.24193862
-0.039274678 -0.055039287 -0.23144555
-0.019431986 -0.050051052 -0.23635796
-0.024442388 -0.054776449 -0.22530238
-0.016658302 -0.050282948 -0.22848399
-0.032730248 -0.053655025 -0.21605684
-0.023494765 -0.057101306 -0.21580149
-0.0099909268 -0.057726175 -0.21401964
-0.041219383 -0.053850584 -0.20856538
-0.033278413 -0.056010306 -0.20631376
-0.0010535866 -0.051496159 -0.20569921
0.0064972341 -0.053799309 -0.20728731
-0.031051435 -0.0561781 -0.19956627
-0.016204551 -0.05230562 -0.19284768
-0.0024268231 -0.059490889 -0.19234115
0.012479661 -0.052501261 -0.19269496
-0.019193199 -0.058400705 -0.18766579
-0.0080266595 -0.059406146 -0.18562008
0.0062691104 -0.060536083 -0.17672612
0.010093765 -0.060750231 -0.17218192
-0.0060543073 -0.05254798 -0.17945239
0.022279643 -0.055432305 -0.17275566
0.025759768 -0.060441669 -0.16478878
-0.022849783 -0.054511439 -0.16589944
-0.019971743 -0.056892112 -0.16430801
-0.0055029271 -0.053489059 -0.16591828
0.017275749 -0.052980818 -0.16287196
0.021313332 -0.053266834 -0.16182417
-6.0718274e-05 -0.053709779 -0.15724111
0.0098034441 -0.053219035 -0.15390839
-0.3523269 -0.017791472 -0.15104865
-0.0047611305 -0.055345215 -0.1426158
0.010561777 -0.053587753 -0.14738362
-0.35754323 -0.018281192 -0.14363095
0.07852713 -0.091734596 -0.131586
0.084089935 -0.091024563 -0.13264406
0.089415878 -0.079873316 -0.1344943
0.10268407 -0.070840582 -0.13140868
0.0043862718 -0.062352765 -0.13373683
0.026470734 -0.063807473 -0.13337184
0.032617941 -0.063116394 -0.13506031
0.098057985 -0.069973119 -0.13122347
0.046863891 -0.056877039 -0.13483612
-0.35953128 -0.018370926 -0.1387556
-0.33782965 -0.019489406 -0.13927175
-0.3264319 -0.018612973 -0.13427703
0.11821207 -0.095533907 -0.12694293
0.039600156 -0.086276397 -0.12000193
0.064408287 -0.085283712 -0.12775862
0.11621884 -0.088830963 -0.12422223
0.047192197 -0.077955484 -0.12162592
0.066421442 -0.072637014 -0.12721474
0.073488198 -0.070085451 -0.12880048
0.12062417 -0.070769042 -0.12682705
0.0089852782 -0.063137375 -0.12203266
0.076144248 -0.062562808 -0.12112973
0.10169625 -0.061884835 -0.12270897
0.11231263 -0.065982357 -0.12560338
0.12118229 -0.068127751 -0.12378639
-0.006079712 -0.059562169 -0.12582088
0.052928939 -0.056897119 -0.12292016
-0.35010415 -0.019575972 -0.12965623
-0.34688073 -0.017047442 -0.12903073
-0.32594511 -0.017349433 -0.12284915
0.067138292 -0.101945 -0.11675931
0.07808812 -0.10534335 -0.11080544
0.083690926 -0.10592452 -0.11200492
0.090622723 -0.10629448 -0.11285654
0.12122656 -0.098352835 -0.11215674
0.034811266 -0.085710272 -0.11902417
0.11671003 -0.081826553 -0.11326412
0.020570435 -0.071983241 -0.11307822
0.048726387 -0.0723432 -0.11745099
-0.0027279714 -0.060440369 -0.11798918
0.035470389 -0.069833353 -0.11287171
0.042829078 -0.067802161 -0.11192507
0.065325193 -0.06709674 -0.11415604
-0.004913216 -0.057767596 -0.11522239
0.035906039 -0.056268305 -0.11471692
0.041676298 -0.054872014 -0.11132435
0.076632902 -0.057856556 -0.11570288
-0.34426117 -0.021286231 -0.11114591
-0.33722779 -0.021580363 -0.11825341
0.085608847 -0.10461364 -0.10259856
0.097140901 -0.10602188 -0.10693647
0.036905035 -0.090882994 -0.10676065
0.066021226 -0.099405706 -0.10179102
0.036922015 -0.082148403 -0.10145095
0.113821 -0.082625531 -0.1023822
0.048047453 -0.070598766 -0.10967541
0.113821 -0.074660175 -0.10909793
0.0021683513 -0.061905656 -0.10025771
0.011500173 -0.06350521 -0.10844328
0.034187429 -0.065476231 -0.10325165
0.053799063 -0.064571783 -0.10456213
0.014554109 -0.055674758 -0.10572508
0.045362525 -0.055177212 -0.10739611
0.083977982 -0.05794397 -0.10672862
-0.34053582 -0.022258939 -0.10603237
-0.31677318 -0.023835946 -0.10189855
-0.30516407 -0.021106955 -0.10201971
-0.33843589 -0.018522855 -0.10346556
0.092393897 -0.10361293 -0.099366911
0.077141158 -0.098910458 -0.095271252
0.11938784 -0.09066277 -0.092058606
0.051206723 -0.077582896 -0.099130936
0.067220904 -0.07898128 -0.09080486
0.015543276 -0.064206161 -0.095758773
0.063406095 -0.064828344 -0.094609328
0.11583556 -0.065627515 -0.097883292
0.0015509007 -0.057260171 -0.092738494
0.035715308 -0.055135097 -0.093598835
0.052031439 -0.055695001 -0.092822671
-0.31087804 -0.025057849 -0.091389142
-0.33243975 -0.019149462 -0.092203774
-0.30808097 -0.018812161 -0.097560123
0.079481021 -0.091780439 -0.089897446
0.10141547 -0.090256251 -0.088480599
0.070923612 -0.078778528 -0.089874797
0.08474879 -0.075977996 -0.088054001
0.0045906948 -0.062721938 -0.084939122
-0.011469785 -0.059489198 -0.08014214
0.023634063 -0.055940256 -0.085902274
0.035918627 -0.055542197 -0.084131986
-0.34695521 -0.021837765 -0.089879796
-0.33108544 -0.019638611 -0.083968446
-0.32119828 -0.019396437 -0.086281165
0.015785007 -0.10303357 -0.077288546
0.020672059 -0.10386078 -0.074306488
0.031195151 -0.10260063 -0.077239297
0.020178691 -0.092632733 -0.075638294
0.0324836 -0.093777753 -0.077271238
0.017341383 -0.086634755 -0.071647681
-0.0087741837 -0.06007617 -0.075844266
0.048080012 -0.067246452 -0.07760305
0.068404093 -0.066428408 -0.074936375
0.0082158828 -0.057202507 -0.073452525
0.018667482 -0.056437798 -0.079444237
0.063251518 -0.056500312 -0.071529754
-0.34162337 -0.022021104 -0.076600581
-0.33665636 -0.020950694 -0.078449972
-0.31701314 -0.02600462 -0.076304391
-0.29138336 -0.023786645 -0.079704598
-0.31774569 -0.019883884 -0.077723011
0.012299553 -0.10288344 -0.069528893
0.025461297 -0.094611272 -0.067791
-0.0039652451 -0.061002158 -0.069023088
0.0240115 -0.062134653 -0.064501442
0.03289146 -0.066437595 -0.065728374
0.054308571 -0.06788215 -0.065121286
0.058902163 -0.05622768 -0.068436474
0.066240206 -0.05664809 -0.069308124
0.07323508 -0.057008006 -0.060219556
0.083286256 -0.057446823 -0.068847843
0.091433309 -0.058517288 -0.06050222
-0.29423368 -0.020571316 -0.062536947
0.017356349 -0.10950535 -0.051417116
0.03729669 -0.095884465 -0.053126354
0.016886976 -0.089616254 -0.0589904
0.010015602 -0.064106718 -0.058470026
0.092823081 -0.063372016 -0.059305429
0.0021544292 -0.058596388 -0.054463103
0.035886429 -0.056889951 -0.053328253
0.049377911 -0.05640576 -0.054123178
-0.30030578 -0.02094833 -0.057379737
-0.29783008 -0.028691031 -0.055030823
-0.28988409 -0.02076875 -0.058577161
0.030721303 -0.10226502 -0.049557731
0.031743307 -0.096050091 -0.049548391
-0.0069743861 -0.06120225 -0.048899464
0.016525261 -0.057740625 -0.048623286
0.055480819 -0.056406431 -0.049457528
0.066202193 -0.05675042 -0.040492535
-0.32572669 -0.022711646 -0.046341203
-0.3122327 -0.022077084 -0.040895138
-0.30504078 -0.021971619 -0.041418869
-0.28140602 -0.021251233 -0.04926046
-0.26806191 -0.023620158 -0.041057013
-0.027026936 -0.060012944 -0.035080638
-0.015663937 -0.066778079 -0.033345617
0.0014106611 -0.06280154 -0.037482522
0.016817754 -0.066697881 -0.033371679
0.032180104 -0.063202016 -0.03450758
0.069580644 -0.069078088 -0.039518449
0.079202458 -0.069316119 -0.030494398
0.098576486 -0.068474889 -0.030530654
-0.090458408 -0.050828144 -0.030794606
0.029399347 -0.054649409 -0.037285984
0.031061685 -0.057962708 -0.032466702
0.063074455 -0.052899558 -0.037854441
0.082546994 -0.057535537 -0.034726586
0.096634477 -0.05433207 -0.035760507
0.10504611 -0.056401886 -0.033914223
0.22927959 -0.050228037 -0.032090109
-0.2180943 -0.044116199 -0.030468857
-0.18623602 -0.047490507 -0.03139497
-0.12877634 -0.047463723 -0.032219581
-0.079767123 -0.044182532 -0.033142265
-0.038829673 -0.045382813 -0.034971893
-1.1403463e-05 -0.040878084 -0.034799777
0.0087339366 -0.040914997 -0.034811754
0.027648628 -0.049202986 -0.037504315
0.10588883 -0.047063686 -0.033612393
0.11358449 -0.048554964 -0.032534197
0.13900128 -0.045296904 -0.033139482
0.14838499 -0.041139871 -0.033914044
0.15292481 -0.041918851 -0.033768091
0.17672764 -0.048668902 -0.032506004
0.20466611 -0.041694328 -0.03380581
0.21272253 -0.046541207 -0.032899488
0.22938663 -0.043717466 -0.033425678
0.23108703 -0.041983977 -0.03374951
-0.29148871 -0.030967724 -0.030976612
-0.28594336 -0.031106044 -0.032650586
-0.1745466 -0.036467884 -0.03414147
-0.06421341 -0.038682789 -0.034269042
-0.034147508 -0.031873636 -0.034160912
0.014381434 -0.031081514 -0.034016095
0.022417357 -0.036620937 -0.034762885
0.040983524 -0.031743828 -0.034140229
0.077525839 -0.034632944 -0.034678545
0.09029083 -0.031273238 -0.034055375
0.13180001 -0.03082246 -0.033973545
0.15586311 -0.034742869 -0.03415218
0.23695838 -0.037364978 -0.034612261
0.29239196 -0.032594081 -0.030792391
-0.31944817 -0.02878537 -0.034419537
-0.14817391 -0.026926618 -0.03338813
-0.12921444 -0.023095269 -0.032623261
-0.11455849 -0.023999743 -0.032775909
-0.078040883 -0.028378874 -0.033550836
-0.045440815 -0.022708874 -0.032463957
-0.028358312 -0.025886875 -0.033049621
0.085810378 -0.029347863 -0.033697452
0.17428863 -0.024173511 -0.032741066
0.18415453 -0.029188303 -0.033672642
0.22525565 -0.023126593 -0.032549117
-0.1566139 -0.017385058 -0.030269602
-0.034100022 -0.073631614 -0.020368185
-0.015067579 -0.073584937 -0.021763727
-0.0040386636 -0.074091077 -0.020835342
0.05537539 -0.072002903 -0.024665549
0.080705881 -0.070759811 -0.026692528
-0.17313305 -0.060472019 -0.021399405
-0.063463733 -0.064491473 -0.024307828
-0.045622744 -0.067702219 -0.028147731
-0.019727957 -0.069434784 -0.029376073
0.01376039 -0.065088153 -0.024765307
0.042652495 -0.068855003 -0.020812444
0.057661373 -0.069735453 -0.020151153
0.096480429 -0.069013029 -0.024361955
0.12395117 -0.063836366 -0.02530928
0.14137915 -0.063222498 -0.022779178
0.18379991 -0.061516505 -0.024879007
0.21501161 -0.062604524 -0.023527637
0.23482656 -0.062355094 -0.02384612
0.28090763 -0.063286126 -0.022068486
-0.20714527 -0.053412829 -0.025778193
-0.13254824 -0.059499387 -0.024260117
-0.095390856 -0.058039658 -0.026021037
0.15481657 -0.053725652 -0.029873539
0.20155869 -0.05975632 -0.025986526
0.28685763 -0.058253765 -0.026086058
-0.2470495 -0.044772118 -0.024668805
0.33126336 -0.045777708 -0.021887518
-0.26344475 -0.034613434 -0.025344279
-0.3060016 -0.023069313 -0.023610245
-0.26685983 -0.023776477 -0.024481915
-0.25365612 -0.02722048 -0.026854016
-0.23180044 -0.022849042 -0.02972861
0.29678643 -0.024340129 -0.025674047
-0.25076517 -0.016709086 -0.025074258
-0.2426199 -0.011631558 -0.022932969
-0.19007313 -0.011447004 -0.026349017
-0.082285009 -0.011153245 -0.025837651
-0.050198942 -0.016948363 -0.029352847
-0.039093301 -0.013879644 -0.027382461
-0.018474087 -0.017856041 -0.029888533
0.0017097271 -0.013272522 -0.027006969
0.025604608 -0.014446659 -0.027749831
0.066313468 -0.015659802 -0.028519904
0.076754704 -0.011366101 -0.025819087
0.11552657 -0.011895714 -0.026158838
0.12793551 -0.01561317 -0.028500412
0.22854471 -0.012429625 -0.026513141
0.24156414 -0.012485214 -0.026467089
0.27919903 -0.013845333 -0.024366312
0.28703302 -0.014317458 -0.022568388
-0.19511397 -0.0065875538 -0.021274714
-0.092874721 -0.0061736247 -0.020199314
0.035154477 -0.006963857 -0.020999795
0.040085312 -0.0062631927 -0.020014888
0.063038848 -0.0087070204 -0.023464447
0.14123119 -0.0089025311 -0.023768336
0.17471464 -0.0065299319 -0.02043923
0.18550983 -0.0092394706 -0.024258722
-0.07120955 -0.070230044 -0.012189513
-0.05842137 -0.072367445 -0.016131241
0.0036894388 -0.07599625 -0.011982058
0.1686165 -0.070196532 -0.011935122
0.23583722 -0.070356466 -0.010838307
-0.16783668 -0.062948674 -0.017927496
-0.12731043 -0.067538276 -0.010189217
-0.081838831 -0.067058891 -0.014766773
0.1483148 -0.065210305 -0.019968785
0.18494871 -0.066662945 -0.01786291
0.21677805 -0.069898352 -0.01309132
0.22416463 -0.069536477 -0.013752165
0.23881999 -0.068570949 -0.015084371
0.29729766 -0.066476688 -0.016592642
0.30626518 -0.066095486 -0.016237564
0.33662263 -0.063218415 -0.013631471
-0.24499533 -0.053775355 -0.018009428
-0.21948694 -0.057524886 -0.018983532
-0.32701918 -0.026363473 -0.015494373
-0.30717909 -0.023451509 -0.01755107
0.31597668 -0.024258494 -0.017958861
-0.29437375 -0.014782898 -0.01578637
0.29674011 -0.014854133 -0.019622857
0.30873469 -0.017360521 -0.01444004
-0.27829245 -0.00938999 -0.015926752
-0.21135129 -0.0045169997 -0.017446663
-0.086140789 -0.002673774 -0.015227681
-0.054268312 -0.0038439415 -0.016668189
-0.022918794 -0.001969713 -0.013946987
0.022383478 -0.0036919604 -0.016388485
0.069440059 -0.00083683827 -0.01019413
0.070901699 -0.0028485726 -0.015218587
0.082669511 -0.0053087804 -0.018686574
0.090296067 -0.00079435355 -0.010019511
0.17633516 -0.001252091 -0.012277342
0.1926477 -0.00097268808 -0.01098255
0.21407384 -0.0025171337 -0.014116241
0.2221611 -0.0023913265 -0.014629206
0.24910137 -0.0023452654 -0.013851015
0.28025717 -0.0056446535 -0.013569074
0.29869029 -0.10232606 -0.0055867494
0.30765751 -0.098918267 -0.0091253696
0.29800498 -0.084508374 -0.00018730166
-0.064699233 -0.072845601 -0.0030547767
-0.036590613 -0.076222241 -0.0061001959
0.00377532 -0.077565774 -0.0005285308
0.015906036 -0.077367187 -0.0019776849
0.125386 -0.07396622 -0.0019593865
0.14637269 -0.071068436 -0.0079468768
0.16723083 -0.071266964 -0.0069058901
0.17263854 -0.071011968 -0.00807798
0.25337297 -0.070715562 -0.0085445773
0.29410514 -0.078534506 -0.0092117926
-0.22240287 -0.063530698 -0.0020057105
-0.21294764 -0.064414024 -0.0042163329
-0.12670368 -0.069266379 -0.00042190915
-0.26383597 -0.056062706 -0.0049459073
-0.2597146 -0.057719108 -0.0016299167
-0.31121662 -0.04079609 -0.0036454122
0.36545393 -0.045973897 -0.0028747106
-0.31653342 -0.038273577 -0.0055453079
0.32834411 -0.025865596 -0.0067867925
0.33799815 -0.029167783 -0.0023333454
-0.34172618 -0.017250529 -0.0087298322
-0.33972454 -0.010731159 -0.0063030971
-0.3141349 -0.011393348 -0.0058905608
-0.33995926 -0.0080016963 -0.0029077816
-0.30201429 -0.0081611881 -0.0087946989
-0.27429324 -0.0036455062 -0.0040915688
-0.25557894 -0.0014711404 -0.003503602
-0.24099967 -0.0012945265 -0.0080826404
-0.22613025 -0.00072700635 -0.0081222355
-0.15265147 -0.0073316926 -0.0010696935
-0.14765301 -0.0088175861 -0.0022650883
-0.002622921 -0.00064412534 -0.009200138
0.049408711 -3.9968218e-05 -0.0064206892
0.12778479 -0.00060704129 -0.0091836471
0.16413587 -0.00036282185 -0.0080786636
0.20280823 -0.00040310479 -0.0083150398
0.28900307 -0.0061361878 -0.0077579198
-0.2984179 0.002437437 -0.0030604668
-0.2716285 0.0071283611 -0.0041431198
-0.20991969 0.0075155306 -0.0017977026
-0.19216378 0.00019680511 -0.0069911163
-0.14796346 0.0014572828 -0.0012249638
0.0094178524 0.0008798475 -0.0020446242
0.017612064 0.00074041006 -0.0027105869
0.057667218 0.00069725496 -0.0029621515
0.10975122 0.00021329493 -0.005302221
0.11644517 0.00043894173 -0.0042486908
0.14163131 0.0012879524 -0.00028471428
0.22152047 0.00035431806 -0.0047741304
-0.29228157 0.013724737 -0.0033152113
-0.27163035 0.018408563 -0.0027973703
-0.26720604 0.011310234 -0.0041431198
-0.23877737 0.01802915 -0.00025160963
-0.32064253 0.023626635 -0.0023418881
-0.34205395 0.032636493 -0.00028797929
-0.33470559 0.034822296 -0.0012698945
-0.29383349 0.033362471 -2.33591e-05
-0.34383258 0.042904511 -0.0005213613
-0.32979193 0.04925441 -0.0020678584
-0.29309759 0.048539978 -0.001454738
-0.34007043 0.052209411 -0.0013618682
-0.31972885 0.057347216 -0.0035797576
-0.30032364 0.052124918 -2.33591e-05
-0.35156211 0.064221434 -0.00050684868
-0.29766336 0.060055591 -0.0029812749
-0.28721765 0.061995946 -0.0013322957
-0.33243835 0.074454851 -0.00057815696
-0.32961285 0.076883748 -0.0023787448
-0.30351022 0.073370717 -0.0012623494
-0.32249439 0.08328563 -0.00011245633
-0.35723829 0.099975795 -0.0012699673
-0.34437788 0.094637021 -0.0017071681
-0.33374146 0.096026152 -0.0019994506
-0.35770452 0.11186199 -7.994927e-05
0.2998156 -0.10485266 0.0055125766
0.30423889 -0.10476709 0.0068279337
-0.04711584 -0.075717323 0.0024718698
0.11879566 -0.073056795 0.0098706856
0.1666339 -0.071617909 0.0052758749
0.21519166 -0.072674841 3.6368445e-05
0.22394809 -0.0717116 0.0045390199
0.26534712 -0.07119666 0.0058471882
0.28048381 -0.070700973 0.0076479656
-0.15293771 -0.068159096 0.0044031665
-0.14035335 -0.068981498 0.0008535395
-0.12903672 -0.067659117 0.0094516575
-0.11777772 -0.068168506 0.0081439558
0.34373 -0.067078099 0.0024645734
0.3614825 -0.063228115 0.0012994341
-0.31360403 -0.040890954 0.00059002149
0.36331713 -0.043575566 3.4711396e-05
-0.3535212 -0.020638965 0.0023971666
-0.34724101 -0.0200902 0.0084442403
-0.33499542 -0.022869751 0.0095999334
-0.36383331 -0.013519737 0.005317918
-0.35600922 -0.015579836 0.0045060585
-0.3499198 -0.0106213 0.0050971354
-0.29846987 -0.012377225 0.0034533322
-0.26429635 -0.010475925 0.0044070864
-0.24751583 -0.01029198 0.0041432632
0.31103021 -0.014236903 0.0042546783
-0.32004279 -0.0062924749 0.0012615122
-0.30714813 -0.0099196974 0.0024986861
-0.29793841 -0.0040600812 0.0033005504
-0.28929442 -0.0085431002 0.0037077374
-0.24058387 -0.0043124687 0.0035851307
-0.20824228 -0.0056803511 0.0034621414
-0.18212211 -0.002486072 0.0026493471
-0.08422675 -1.2745091e-05 0.0071887826
-0.073972754 -0.00051897351 0.0093475031
0.15519288 -0.00010526576 0.0068798903
0.17806998 -0.00053963315 0.0089584487
0.1895296 -0.00017537439 0.0072526312
0.19282019 -0.00027303502 0.0077177091
0.21086803 -0.00021994609 0.0074890051
0.30240583 -0.0098779751 0.00410933
-0.32295871 0.0058978228 0.0015438506
-0.31604028 0.0092373881 0.00065745797
-0.30244979 0.0040197112 0.0030166726
-0.28979647 0.00098829751 0.0034332357
-0.25584275 0.0021347888 0.0032572434
-0.22266184 0.00074077654 0.00092053646
-0.20893791 0.0010268592 0.0029307676
-0.11450072 0.00085573737 0.0036232111
-0.083819553 0.00072391413 0.0036870302
0.0056719482 0.00012793019 0.005597149
0.021880157 0.001315817 8.568898e-06
0.076278165 0.0012652796 0.00031329819
0.15044865 0.00017370822 0.005557023
-0.3243643 0.012746737 0.0016749463
-0.31552961 0.010672961 0.0026092781
-0.28558925 0.015589055 0.0033659588
-0.27919182 0.018976683 0.0040964
-0.22723681 0.011838585 0.0024441986
-0.31236866 0.024298783 0.002606533
-0.3116228 0.041063674 0.0026963972
-0.30773124 0.044099305 0.0040235552
-0.34033006 0.058041219 0.0015703483
-0.31324345 0.055204049 0.0033490197
-0.34071663 0.069597326 0.0017876308
-0.30674964 0.067837112 0.0019863448
-0.34525973 0.079866603 0.0016521836
-0.33330339 0.075740039 0.0021453472
-0.32921255 0.071423307 0.0021252041
-0.35864192 0.083018586 0.00048573897
-0.34369296 0.09361627 0.001760175
-0.33182204 0.097117148 0.0040964
-0.32269961 0.097506136 0.0014465114
-0.36930126 0.10126975 9.1026681e-07
-0.36934546 0.11041631 0.00037839534
-0.34134674 0.11113687 0.0013804599
0.0099940402 -0.076169461 0.010718301
0.065251917 -0.075504363 0.015571696
0.30908036 -0.07432238 0.010889716
-0.21612722 -0.06058073 0.015286845
-0.18410906 -0.063118882 0.016863884
-0.17579947 -0.06302657 0.01753737
-0.15206836 -0.061952576 0.019947086
-0.12898812 -0.067398317 0.010847734
-0.10642193 -0.067364097 0.013688129
-0.096475951 -0.065409146 0.016827887
-0.086602733 -0.064785004 0.018068928
0.18690406 -0.065348156 0.01975139
0.21176703 -0.06868507 0.015014726
0.24065085 -0.069967844 0.012594738
0.25426495 -0.06754443 0.016391944
0.26483572 -0.065134175 0.01970334
0.30824149 -0.069154322 0.011364731
0.33783379 -0.063118786 0.01337707
0.34775612 -0.057376295 0.014251844
0.35447791 -0.051001992 0.013562787
-0.27183908 -0.043793548 0.019543547
-0.26583019 -0.045986433 0.019939581
0.35931087 -0.049758106 0.010985544
-0.30182326 -0.033873569 0.014051504
-0.31173569 -0.027841263 0.01344151
-0.30109459 -0.023326399 0.018580742
-0.29142717 -0.028866965 0.019384502
-0.27008682 -0.022951614 0.019531434
0.29494667 -0.013056746 0.018570531
-0.24867883 -0.008075906 0.019124633
-0.22657022 -0.0034056476 0.014952858
-0.20239393 -0.0047727204 0.018326521
-0.17670435 -0.0041631516 0.0182027
-0.081072018 -0.001568716 0.013702529
-0.011692181 -0.00097640901 0.010789876
0.027001295 -0.0060379328 0.019739665
0.031776398 -0.0011144599 0.011494489
0.052288011 -0.0037161405 0.016479559
0.064281106 -0.0058944672 0.019551344
0.070618436 -0.0027367938 0.015107391
0.082354225 -0.0032962332 0.015899613
0.09280961 -0.0025571489 0.014350261
0.12961367 -0.0034636906 0.016152313
0.15498206 -0.0050373753 0.01837738
0.18188117 -0.0014699945 0.013355529
0.21882005 -0.0057174177 0.019357976
0.25911742 -0.0019800134 0.010449912
0.2759209 -0.0035378202 0.010036364
0.29597858 -0.0090881959 0.011097523
-0.036856629 -0.070349395 0.025964465
0.045258746 -0.071387701 0.025794163
0.0510718 -0.073520839 0.021881374
0.064549483 -0.070030794 0.022469029
-0.17565751 -0.060943324 0.020629112
-0.12008434 -0.062124025 0.020795928
-0.10025845 -0.060008641 0.024686718
-0.076146297 -0.062503859 0.022060387
-0.015507048 -0.069724277 0.028845372
0.0077696638 -0.069883846 0.028552672
0.044614188 -0.068636999 0.02875712
0.05012852 -0.069255888 0.021391956
0.1511839 -0.064126067 0.021526918
0.22214857 -0.060609285 0.025483342
0.24879554 -0.06080275 0.025261939
0.25603876 -0.061747313 0.024021909
-0.15979901 -0.053811681 0.027770882
-0.13240558 -0.051661707 0.029595569
-0.11891453 -0.05577622 0.027094644
-0.084343582 -0.05499379 0.028141504
-0.074562132 -0.05783001 0.026484864
0.1235 -0.056816511 0.027992066
0.18286556 -0.057908237 0.027246546
0.21166565 -0.056275114 0.02827264
-0.24813372 -0.044207089 0.025231816
-0.21756974 -0.045426678 0.029834304
0.32894808 -0.044854693 0.022219729
-0.27195725 -0.032602634 0.022803152
-0.26617894 -0.032749336 0.024515884
-0.25860021 -0.031415012 0.025485359
0.30593371 -0.031953864 0.026912656
-0.32390386 -0.025164399 0.021607861
-0.30148074 -0.022706896 0.028786484
-0.28786987 -0.022824578 0.024583835
-0.27408159 -0.022519175 0.023246819
0.27016196 -0.021498544 0.029782701
0.30532944 -0.024414249 0.022737514
-0.25605041 -0.014867833 0.023179622
-0.23135561 -0.01194302 0.024540802
-0.22151077 -0.014800202 0.027281176
-0.18970828 -0.01555019 0.029308543
-0.17458041 -0.015948817 0.029518872
-0.12827423 -0.013358525 0.027603541
-0.044862919 -0.011325447 0.025849449
0.00241438 -0.01380501 0.027388794
0.016993675 -0.017253082 0.029560953
0.042658698 -0.010039771 0.025025647
0.12761766 -0.014115134 0.027604047
0.17139429 -0.012672288 0.026703099
0.18611251 -0.01450821 0.027860988
0.19643877 -0.014202867 0.027670646
0.20100942 -0.012689201 0.026718576
0.24562114 -0.015888367 0.028544782
-0.20726289 -0.0076916856 0.022498483
-0.17027073 -0.009981879 0.025554448
-0.16512476 -0.0080606835 0.023523597
-0.15464088 -0.0090819588 0.024891088
-0.12732212 -0.0094505819 0.025015403
-0.09575998 -0.0072911689 0.022053571
-0.0028039126 -0.0086584659 0.023419021
0.02864301 -0.0085577257 0.023288298
0.058501869 -0.0092655383 0.024211118
0.10059668 -0.0081611052 0.022756003
0.16731432 -0.0095537556 0.024740055
0.20986947 -0.0069508478 0.021091288
0.22528367 -0.0074049765 0.021736562
-0.033281531 -0.060178604 0.034587845
-0.011868902 -0.064850174 0.033972248
0.03843832 -0.064075284 0.037353672
0.046532817 -0.067335404 0.033642992
0.075163081 -0.067581668 0.035551652
0.092519604 -0.068469308 0.034222558
-0.035754059 -0.052499503 0.036908902
0.052005865 -0.052979447 0.037828498
0.21619819 -0.051760606 0.031166229
0.24219464 -0.052490421 0.030641805
0.27627155 -0.050498009 0.031456284
-0.19553335 -0.043623168 0.0319691
-0.14763434 -0.040367372 0.033544209
-0.1110208 -0.048969395 0.031713367
-0.020793576 -0.044047907 0.035804264
-0.01207654 -0.046337537 0.036573395
0.060562387 -0.044445705 0.035958726
0.095188707 -0.043506227 0.034491342
0.11377557 -0.044299696 0.03337501
0.14239196 -0.046678141 0.032928422
0.24331027 -0.042522073 0.033666506
0.25973904 -0.048950039 0.032251649
0.26030183 -0.04995627 0.032042366
-0.29255533 -0.030350886 0.037888795
-0.22845313 -0.036291413 0.030893911
-0.20183137 -0.035553202 0.033622265
-0.15855402 -0.039244767 0.033712562
-0.13169803 -0.034925252 0.034695052
-0.10241493 -0.035707269 0.034683116
0.0071538459 -0.034717612 0.0344062
0.035165329 -0.039306201 0.034309171
0.069593541 -0.032406989 0.034311268
0.085567012 -0.039510809 0.034270436
0.18131076 -0.036261786 0.034868106
0.24846879 -0.032772552 0.034276225
0.26522011 -0.033160031 0.033512738
-0.30285323 -0.022363016 0.034645289
-0.29570061 -0.022336151 0.033888906
-0.16145647 -0.025034469 0.033117492
-0.1573149 -0.028685089 0.033829872
-0.10781901 -0.028979871 0.033808514
-0.093301199 -0.027222035 0.033452366
-0.083221078 -0.02836032 0.033642814
-0.039811026 -0.025699662 0.033060864
-0.010441654 -0.024741532 0.032884218
-0.0075174584 -0.022356724 0.032441463
0.0051650126 -0.020076336 0.031335942
0.017761627 -0.023941761 0.032737002
0.050191484 -0.021977607 0.032373838
0.081906155 -0.022881977 0.032543354
0.1922646 -0.028718492 0.03363239
0.21303479 -0.024516828 0.032853175
0.22585711 -0.028819202 0.033652559
0.26848817 -0.027278338 0.031801507
-0.1698979 -0.018908281 0.031451445
0.017734669 -0.10925175 0.049873594
0.01278956 -0.098589763 0.049401168
0.026831988 -0.088555664 0.049456194
0.040384885 -0.067584671 0.048336815
0.094095111 -0.06781394 0.041408226
0.014317207 -0.05813675 0.041244879
0.10255634 -0.059759289 0.04419443
-0.33359954 -0.024409968 0.042843483
-0.31539604 -0.02392067 0.046975214
-0.30670297 -0.025345244 0.047088593
-0.28071907 -0.021279108 0.048688672
0.027168557 -0.11087068 0.056197383
0.011541048 -0.1002143 0.051131271
0.016899772 -0.093553223 0.0589904
0.025786765 -0.088605851 0.0589904
0.0071892827 -0.063697822 0.054024547
0.042467263 -0.067354195 0.056748804
0.055436123 -0.056036644 0.057950176
-0.32433015 -0.021769932 0.052708309
-0.31385121 -0.021383474 0.05251956
-0.29592493 -0.028545093 0.057976473
0.021997049 -0.071451068 0.063828528
0.011704531 -0.064243473 0.069828123
0.023129266 -0.06334687 0.065418616
0.036898591 -0.066891573 0.060272284
0.053003944 -0.068088412 0.060169462
0.065134905 -0.067065239 0.069923475
0.064035393 -0.056532573 0.069345534
-0.28318217 -0.022879576 0.065936737
0.01821311 -0.10155904 0.075464129
0.039364539 -0.066483825 0.079938851
0.023011478 -0.056260031 0.078164391
-0.33230588 -0.020281602 0.077963315
0.083783649 -0.084995821 0.087525859
0.09084323 -0.084729426 0.087006755
0.072784603 -0.07770966 0.089574873
0.082264848 -0.077430025 0.088010758
-0.0062080901 -0.058554687 0.086279869
0.020538718 -0.056207582 0.083028257
0.041441105 -0.055459596 0.081813298
0.06530945 -0.056546513 0.085376233
0.1160952 -0.10037405 0.099185407
0.062968098 -0.092161626 0.098815158
0.067598797 -0.074092582 0.096304961
0.1188901 -0.077538855 0.090701342
0.0012221653 -0.06177716 0.092602216
0.066070944 -0.067307517 0.097822577
0.092804499 -0.063033082 0.096874028
0.10312653 -0.067356184 0.092864759
-0.0063836658 -0.058399893 0.091833957
0.057202496 -0.05609756 0.094345406
-0.33208382 -0.023799259 0.094179161
-0.32381016 -0.018924776 0.094438404
-0.3160485 -0.018697854 0.096854128
0.08365228 -0.10437696 0.10253577
0.10869436 -0.10294569 0.10082123
0.038969185 -0.073640265 0.10653132
0.043049142 -0.071896389 0.10877451
-0.0025764348 -0.06068188 0.1033851
0.056167714 -0.063913181 0.10723868
0.06637308 -0.066797726 0.10630393
0.072417684 -0.062454242 0.10269688
0.080215126 -0.061360426 0.10170836
-0.010283887 -0.058536306 0.10451058
0.080783024 -0.059930146 0.10319833
0.09471947 -0.058841337 0.10714578
0.10445993 -0.058384903 0.10394568
-0.31528145 -0.023364533 0.10642396
0.065717958 -0.10108022 0.11508655
0.076741502 -0.10507556 0.11125986
0.11325641 -0.10411513 0.11425741
0.06525597 -0.097092643 0.11719325
0.030800171 -0.086377405 0.11281417
0.0020939403 -0.061707128 0.11315691
0.025186101 -0.064462885 0.11522032
0.036783855 -0.066758066 0.11301121
0.044546865 -0.061672963 0.11009391
0.056510888 -0.062667809 0.11598272
-0.011664717 -0.058363616 0.11584167
-0.0095301485 -0.05873806 0.11872351
0.036180191 -0.058288261 0.11480027
0.054402534 -0.058149915 0.11682856
0.073603556 -0.057884961 0.1110021
0.090119295 -0.059530243 0.11775638
-0.35138083 -0.02014767 0.11636763
0.10582931 -0.10345992 0.12065764
0.11538601 -0.081371516 0.12561579
0.067598797 -0.074760497 0.1260235
0.113821 -0.077153489 0.12386213
0.12065487 -0.073159017 0.12839365
0.0054066614 -0.062425278 0.12073126
0.016434886 -0.063574925 0.12615351
0.056797527 -0.060128726 0.12149187
0.082724072 -0.066086218 0.12761304
0.0040213922 -0.055964023 0.12216586
0.024461228 -0.054008525 0.12499426
-0.32079867 -0.020656481 0.12029941
0.11128826 -0.091001019 0.13140871
0.074387446 -0.083825439 0.13281745
0.083575428 -0.083159566 0.13431394
0.12086393 -0.083361022 0.1304886
0.005346288 -0.062387172 0.13483608
0.027031479 -0.063950554 0.13173714
0.0040951162 -0.055226885 0.13020745
0.032867827 -0.054040071 0.13794488
0.046846323 -0.059619002 0.1386176
-0.35561094 -0.018428933 0.13073455
-0.34110695 -0.019774005 0.13624041
-0.33867258 -0.019637795 0.1377992
-0.0041197389 -0.060628399 0.14715211
0.0085363947 -0.062259972 0.14494614
-0.013895849 -0.056534451 0.14453688
-0.0020300695 -0.054771151 0.14462982
0.0096471449 -0.053844433 0.14443567
0.019954253 -0.05319906 0.14267996
0.037788223 -0.054466467 0.14748631
-0.36027876 -0.017692417 0.14482217
0.025357017 -0.061763711 0.15242025
-0.023396982 -0.055483397 0.15664139
-0.34806547 -0.017699644 0.15216467
0.019668262 -0.060899086 0.16447043
-0.020415314 -0.056710638 0.16358459
-0.017338973 -0.057367146 0.16019525
0.009212872 -0.052847955 0.16021267
0.030742502 -0.058923513 0.16500923
-0.02506144 -0.056011628 0.17641427
-0.01659346 -0.053636588 0.17390141
-0.0057584187 -0.052515529 0.17960775
0.026814908 -0.054331329 0.17190561
-0.0039169174 -0.059837747 0.18216136
0.0023707359 -0.051847279 0.18106268
-0.0137312 -0.05226738 0.19091809
0.00490078 -0.051946402 0.19833897
0.015615201 -0.053325348 0.19377317
-0.0045351256 -0.05830887 0.20491418
0.0065306542 -0.052424956 0.20888707
0.011793226 -0.053968258 0.20453291
-0.045164224 -0.052834593 0.22108217
-0.037669405 -0.051424697 0.22535188
-0.028845742 -0.056397442 0.22388466
-0.014910445 -0.050420612 0.22562367
-0.029132869 -0.055878997 0.23780528
-0.041937005 -0.050623853 0.24174973
-0.014804807 -0.054727491 0.24255824
-0.052455269 -0.052884594 0.25437927
-0.061326712 -0.051412236 0.2621907
-0.055503942 -0.052330066 0.26134759
-0.03844377 -0.053978115 0.26462188
-0.020647019 -0.050597444 0.26254919
-0.053406209 -0.05246684 0.27235875
-0.049014233 -0.048038799 0.27916819
-0.056767374 -0.051375449 0.28956923
-0.050147079 -0.047435924 0.28870797
-0.036922634 -0.048203632 0.2850244
-0.050465189 -0.051335774 0.29275638
-0.067643978 -0.049931332 0.29758266
-0.05256578 -0.047127791 0.29805055
-0.075176522 -0.047209579 0.30537683
-0.065184854 -0.042594329 0.30596843
-0.055684991 -0.042066783 0.30447948
-0.084296197 -0.029620815 0.30853617
