# .PCD v0.7 - Point Cloud Data file format
VERSION 0.7
FIELDS x y z
SIZE 4 4 4
TYPE F F F
COUNT 1 1 1
WIDTH 848
HEIGHT 1
VIEWPOINT 0 0 0 1 0 0 0
POINTS 848
DATA ascii
-0.092404544 -0.02010699 -0.32164481
-0.091048777 -0.018548908 -0.32165062
-0.082531758 -0.044321727 -0.31326729
-0.097710401 -0.027186681 -0.31953183
-0.070962369 -0.053988725 -0.29110399
-0.083405368 -0.055551812 -0.28397623
-0.071876124 -0.054304905 -0.28818616
-0.076269366 -0.055612653 -0.27811012
-0.051143143 -0.055161808 -0.27604669
-0.070933178 -0.058781184 -0.25381655
-0.051504254 -0.057913281 -0.25451386
-0.073930278 -0.05946245 -0.24331662
-0.045949101 -0.057733819 -0.24134164
-0.060540158 -0.060267482 -0.23851141
-0.058641158 -0.06043873 -0.22140053
-0.04583139 -0.06202092 -0.22085544
-0.030250236 -0.059420489 -0.21806189
-0.029294269 -0.059270468 -0.21977094
-0.02306151 -0.063331679 -0.20910732
-0.05836419 -0.063741736 -0.19218922
-0.033494692 -0.064268433 -0.19603465
-0.010075135 -0.063914627 -0.1999318
-0.043628126 -0.062982909 -0.18732589
-0.010952021 -0.061746508 -0.18931019
-0.015352871 -0.06371244 -0.17779195
0.0012525897 -0.064058751 -0.17677024
-0.045425937 -0.065190591 -0.16769837
-0.011142446 -0.063134983 -0.16953853
-0.039860938 -0.067320593 -0.15477955
-0.028061466 -0.064809084 -0.15878482
-0.038300537 -0.067143291 -0.14370704
-0.014235123 -0.065139644 -0.14778005
0.0010464769 -0.065048024 -0.14344183
-0.0028116154 -0.065848686 -0.13512461
0.015725376 -0.070662946 -0.12722084
0.025071535 -0.07061515 -0.12831907
-0.022937108 -0.068085074 -0.12293689
-0.017874666 -0.067128904 -0.1289808
-0.0073943157 -0.066632479 -0.12838063
0.086783335 -0.10436518 -0.11298935
0.068956926 -0.090436243 -0.11543106
0.072075017 -0.091087699 -0.1127522
0.1002057 -0.095632344 -0.11824128
0.069220468 -0.084862277 -0.11154628
0.075731546 -0.086077169 -0.11877187
0.10110415 -0.081978247 -0.11716278
0.031945523 -0.071580589 -0.1160128
-0.020915737 -0.069080576 -0.11186338
0.00035027787 -0.06725084 -0.11809694
0.030891009 -0.069603913 -0.11976155
0.044744864 -0.10144828 -0.10009667
0.055212706 -0.10681284 -0.10270661
0.071058512 -0.10562888 -0.10064571
0.088860564 -0.10806392 -0.10381292
0.10357331 -0.10747272 -0.10018983
0.022172345 -0.093418792 -0.10231143
0.034889881 -0.097423702 -0.10395673
0.030427994 -0.086398557 -0.10589436
0.043486472 -0.083265506 -0.10820972
-0.017127477 -0.072185919 -0.10061906
-0.0066467505 -0.072464913 -0.10071043
0.02075405 -0.072253108 -0.10911166
0.037813246 -0.073134355 -0.10019598
0.046974074 -0.075325362 -0.10769263
0.095595405 -0.079834193 -0.10188806
0.10510775 -0.075045951 -0.10283545
0.11209778 -0.075189136 -0.10817719
0.055174623 -0.10645118 -0.090194196
0.095595397 -0.10267875 -0.095910072
0.10748665 -0.1059218 -0.09323442
0.041758962 -0.095119268 -0.09088932
0.097726971 -0.097015411 -0.095536277
0.039934922 -0.082502797 -0.092713535
0.043003082 -0.081662521 -0.093876645
0.095595397 -0.081128106 -0.096032023
-0.026893139 -0.072610617 -0.090794317
-0.001361349 -0.073035769 -0.095114984
0.017010331 -0.070565969 -0.098510668
0.048545126 -0.075687647 -0.09432213
0.057413749 -0.071796574 -0.096712068
0.075201944 -0.071087152 -0.0958343
0.082661346 -0.072688222 -0.095442206
0.10087424 -0.070860691 -0.097169392
0.11248882 -0.073753774 -0.096758291
0.028608084 -0.068547815 -0.094843268
0.035016045 -0.068957403 -0.096035391
0.043996796 -0.069817558 -0.095162176
0.064645737 -0.10059418 -0.083270773
0.073662952 -0.10303178 -0.084693447
0.095083751 -0.10052232 -0.083280511
0.10517436 -0.10052666 -0.08430066
0.056284215 -0.093986444 -0.086177319
0.07435818 -0.09633702 -0.0851878
0.0675539 -0.084212199 -0.088874578
0.073613025 -0.083875448 -0.081940763
0.081214823 -0.087571077 -0.080489017
-0.013225082 -0.073312305 -0.08753036
0.032880485 -0.074643895 -0.082348377
0.047304846 -0.078675032 -0.087883614
0.0030741717 -0.074860759 -0.073455587
0.022528099 -0.070205577 -0.072136544
0.03109598 -0.075002283 -0.077899285
0.041215878 -0.075428016 -0.073944658
-0.024540901 -0.074739121 -0.064085171
-0.006290413 -0.071890622 -0.068985902
0.0038077829 -0.075689621 -0.062892728
0.014419365 -0.073488556 -0.061495218
0.030839909 -0.076125421 -0.064102374
-0.027400013 -0.075005054 -0.059117384
0.048417889 -0.077307247 -0.052250952
-0.0098173479 -0.076670535 -0.044933863
0.0048157522 -0.077260531 -0.042751633
0.063119799 -0.074756391 -0.044665985
0.074137837 -0.07285744 -0.042568922
0.0056704432 -0.077764444 -0.036058888
0.074281558 -0.079155318 -0.032467254
-0.14426503 -0.06328994 -0.030270264
-0.13640159 -0.063184991 -0.030430457
-0.069187395 -0.064630978 -0.030214224
0.23666741 -0.062545925 -0.030854147
-0.16967161 -0.058582623 -0.030888015
-0.15776214 -0.055599853 -0.031529233
-0.13050455 -0.050406367 -0.031651121
-0.06043876 -0.059248582 -0.03122751
-0.050192639 -0.056056097 -0.031589039
-0.042581595 -0.055521026 -0.031649631
-0.0060747294 -0.051404506 -0.031692158
0.026948659 -0.058945715 -0.031261805
0.034329005 -0.053793125 -0.031845137
0.059041854 -0.05292251 -0.031864107
0.093498349 -0.057672769 -0.03140597
0.17288992 -0.055116002 -0.030362926
0.19034506 -0.050280195 -0.031564888
0.24899918 -0.053637564 -0.031488087
-0.1730618 -0.041848917 -0.03068121
-0.15366495 -0.042489305 -0.030847995
-0.13574506 -0.044476412 -0.031003082
-0.079552934 -0.045253858 -0.030995609
-0.038410384 -0.041811131 -0.030175813
-0.027507287 -0.042379268 -0.030378073
0.010596506 -0.044881217 -0.03095342
0.073873952 -0.04908748 -0.031429902
0.13063249 -0.043772541 -0.03082788
0.1515516 -0.049927838 -0.031524826
-0.027339252 -0.092045695 -0.025140904
-0.011007296 -0.09572985 -0.02189099
0.014856144 -0.094207332 -0.025314776
0.039606228 -0.096597508 -0.02070957
-0.07565219 -0.081939958 -0.0200256
-0.038463734 -0.083699837 -0.026456792
-0.022028532 -0.080572158 -0.021558575
0.030565772 -0.085551903 -0.024890214
0.057344005 -0.081766173 -0.020220336
0.11125447 -0.084240615 -0.02868839
0.12664004 -0.081957489 -0.020005971
0.13595456 -0.083327696 -0.022699051
-0.10383798 -0.074118838 -0.02619189
-0.059556067 -0.075108014 -0.020642843
-0.045020681 -0.073449835 -0.023268063
-0.026816152 -0.074507043 -0.027865119
0.031912863 -0.07529752 -0.029123966
0.056420147 -0.07416784 -0.025638608
0.062783942 -0.072330534 -0.027355848
0.084530704 -0.07256037 -0.027773641
0.10770071 -0.075100616 -0.025544051
0.13192388 -0.073181376 -0.026685657
0.14830078 -0.076699197 -0.024488989
0.151535 -0.077059224 -0.024251439
0.17469162 -0.073844977 -0.0263725
0.27749777 -0.079976119 -0.020497851
0.28860688 -0.07479544 -0.023039646
-0.22546029 -0.066299707 -0.020698283
-0.20094708 -0.069736309 -0.022949573
-0.12414545 -0.065891482 -0.029640155
0.01975137 -0.068724804 -0.028756026
0.079811558 -0.069956876 -0.025139663
0.08347629 -0.061679795 -0.021538146
0.096262395 -0.064609729 -0.023764828
0.10055795 -0.061679795 -0.020361753
0.11454546 -0.061679803 -0.025907079
0.14424799 -0.061679799 -0.022221455
0.15082218 -0.061679799 -0.020305196
0.22563422 -0.061679799 -0.028281411
0.24149598 -0.061679795 -0.021504175
0.25697023 -0.067778245 -0.028557111
0.29948026 -0.063852929 -0.026392493
0.31305313 -0.063647047 -0.023558935
-0.20453881 -0.055755109 -0.029214591
0.077797398 -0.054552481 -0.025691207
0.088255912 -0.051896501 -0.022975173
0.096603245 -0.055315357 -0.027051184
0.101757 -0.050221968 -0.025835883
0.13838428 -0.052246384 -0.024665317
0.14605358 -0.05918039 -0.027168354
0.15789799 -0.055058584 -0.027085558
0.17585427 -0.053030714 -0.026780793
0.20889175 -0.055124395 -0.02801316
0.222417 -0.050375428 -0.024982691
0.25999719 -0.050799198 -0.029122928
-0.20844314 -0.041083775 -0.029227939
0.071323998 -0.041574039 -0.028439492
0.087554872 -0.048002057 -0.027073532
0.092025191 -0.045276258 -0.025539214
0.10496178 -0.042057812 -0.023961585
0.11775333 -0.042663202 -0.027418779
0.12098617 -0.042619225 -0.029023778
0.13421699 -0.044040646 -0.025519246
0.16811197 -0.045347389 -0.029355735
0.199048 -0.041996244 -0.02498116
0.20884003 -0.041594937 -0.025776654
0.25310937 -0.044004094 -0.024715438
0.28345576 -0.047706779 -0.02837459
-0.24854034 -0.035937928 -0.022755839
-0.20016685 -0.036094811 -0.027963569
-0.11224419 -0.03675966 -0.028376544
-0.048150361 -0.037086114 -0.028492836
0.0260235 -0.03918124 -0.029239153
0.055242646 -0.039738301 -0.029437467
0.11929604 -0.03600131 -0.028106403
0.12691499 -0.037009183 -0.022315122
0.13229865 -0.031586539 -0.025634469
0.14424986 -0.034944959 -0.022630226
0.15949298 -0.032442346 -0.026199076
0.18184566 -0.035734318 -0.02801119
0.22973499 -0.035376206 -0.025100017
0.24399012 -0.036620844 -0.02782321
0.26902953 -0.03905426 -0.027000435
0.29478598 -0.036487091 -0.022170072
0.30407777 -0.038957708 -0.021451933
-0.17408723 -0.026793025 -0.022881076
-0.16054402 -0.025943048 -0.022088377
-0.11129667 -0.02938867 -0.024184274
0.052919999 -0.024795068 -0.020233188
0.11741766 -0.026786717 -0.022465559
0.20398407 -0.028927609 -0.023879983
0.2199132 -0.027486334 -0.022928944
0.24372602 -0.029076908 -0.0235842
0.057045612 -0.097548798 -0.010291046
0.11925544 -0.095359892 -0.014465624
-0.1460329 -0.084327534 -0.014547012
-0.022783823 -0.088396981 -0.010223032
-0.0099689187 -0.088253483 -0.010521058
0.0093888752 -0.08413659 -0.017563736
0.067799151 -0.083775751 -0.017968137
0.1059671 -0.082656585 -0.019222347
0.11663146 -0.0870388 -0.013043046
0.12247724 -0.084574707 -0.01707272
0.15659565 -0.085332237 -0.010935122
0.1671977 -0.08392366 -0.017802313
0.20765173 -0.083249435 -0.018557977
0.2335467 -0.0865964 -0.013961402
0.25965351 -0.086391956 -0.013845564
0.26591653 -0.08393994 -0.016856179
0.29294565 -0.082913861 -0.0157449
-0.19705743 -0.076020181 -0.017159084
-0.16052395 -0.079499774 -0.019401889
0.30767649 -0.075847462 -0.019645024
0.32598361 -0.078109853 -0.012244128
0.33558521 -0.075572461 -0.010843112
-0.24479447 -0.063812457 -0.017943364
-0.056533091 -0.068379201 -0.012075892
-0.041723266 -0.068557128 -0.018193524
-0.022420809 -0.068411022 -0.018684521
-0.0045408523 -0.068379201 -0.014263066
0.018469121 -0.068379201 -0.016539948
0.022919148 -0.068379201 -0.01041359
0.088920653 -0.060616486 -0.016924905
0.10506211 -0.061679803 -0.015384026
0.1131403 -0.061679799 -0.018275879
0.14717084 -0.068379201 -0.01036247
0.15835357 -0.061679795 -0.01970987
0.16825151 -0.061679795 -0.010756446
0.18054974 -0.061679803 -0.019633871
0.22422622 -0.061679799 -0.010092284
0.25757071 -0.061468787 -0.015252796
-0.27992648 -0.056308039 -0.012415314
0.095328212 -0.055309817 -0.016121769
0.11469943 -0.059738759 -0.0108978
0.14662537 -0.054257493 -0.018807113
0.15440124 -0.055181414 -0.0140957
0.25191048 -0.053718757 -0.012491293
0.34482872 -0.055720091 -0.012517681
-0.27991164 -0.049579032 -0.016333371
0.076855101 -0.044468887 -0.011138828
0.11488205 -0.04744307 -0.012549539
0.13745278 -0.042109534 -0.0150958
0.1485121 -0.044025391 -0.0151268
0.16471151 -0.047463302 -0.013839022
0.18041714 -0.047079429 -0.01780552
0.199048 -0.049853884 -0.019036233
0.20535776 -0.046146903 -0.016212046
0.2152933 -0.041961223 -0.010791361
0.22780949 -0.047726691 -0.014382536
0.23123902 -0.041569352 -0.015058702
0.241568 -0.043541361 -0.016099647
-0.30527794 -0.037179969 -0.012374124
-0.29476759 -0.03164003 -0.013752738
-0.28906995 -0.038700938 -0.016027639
0.096716285 -0.036082804 -0.015995719
0.19848812 -0.033847511 -0.0150958
0.21803626 -0.03557229 -0.016783886
0.22639349 -0.034564678 -0.01624066
-0.24089104 -0.026277136 -0.018753909
-0.10711174 -0.020269644 -0.014617361
-0.073071159 -0.02408962 -0.019442473
-0.066159219 -0.022136845 -0.017253675
-0.036536343 -0.021533178 -0.016529657
0.006155571 -0.023809576 -0.019128582
0.024806067 -0.022025846 -0.017129259
0.078787163 -0.021033131 -0.016016556
0.2353746 -0.020398375 -0.014884627
0.28925523 -0.029096622 -0.017450096
0.30014443 -0.027312545 -0.010552955
-0.16691059 -0.019076113 -0.012566213
-0.1046873 -0.019061485 -0.012109018
-0.089186296 -0.018661967 -0.011279549
-0.077013731 -0.018259797 -0.010444576
-0.057784438 -0.019241977 -0.012483751
-0.017812327 -0.019197751 -0.01239193
0.033534154 -0.019213056 -0.012423706
0.08980611 -0.019661061 -0.01335384
0.12488575 -0.01805404 -0.010017389
0.13519429 -0.018767999 -0.011499693
-0.11609347 -0.090141505 -0.0035345836
-0.10404656 -0.090259142 -0.0027661934
-0.054684252 -0.090249978 -0.0049927514
-0.010406861 -0.090627976 -0.00035693424
-0.0039449539 -0.097548798 -0.0039674677
0.03672025 -0.090398744 -0.0018543116
0.058830716 -0.097548798 -0.0042007994
0.095685862 -0.097392283 -0.005311891
0.13143906 -0.093197189 -0.0021853654
0.1518819 -0.090011686 -0.0043826159
0.20813458 -0.090128668 -0.0036185072
0.23526642 -0.090127677 -0.0036249589
-0.20110631 -0.080937356 -0.002289247
-0.064864725 -0.089638524 -0.0068201036
-0.013171414 -0.089991063 -0.0045173056
0.01053948 -0.089451723 -0.0080332849
0.14911592 -0.089910947 -0.005040668
0.15288778 -0.089841723 -0.0054927818
0.17670676 -0.089499891 -0.0077256979
0.19550699 -0.089505613 -0.0076883067
0.21965763 -0.089619875 -0.0069419499
0.23080374 -0.08967793 -0.0065627131
0.30762827 -0.084599108 -0.0095221233
-0.22232854 -0.07649748 -0.0051304139
-0.21130905 -0.078653969 -0.0060524582
0.34091514 -0.074178666 -0.0087369755
-0.0038338951 -0.068379201 -0.0067851529
0.05744423 -0.068379201 -0.005586856
0.085280977 -0.068379201 -0.0096829068
0.091657884 -0.06050808 -0.0054966835
0.10255881 -0.065029502 -0.0073441886
0.11389592 -0.068379201 -0.0093560526
0.16207954 -0.068379208 -0.0031869679
0.18597433 -0.061679803 -0.00015407521
0.21657549 -0.061679795 -0.0078399386
0.22365198 -0.061679803 -0.00459419
0.23839135 -0.06060347 -0.0067882529
0.24554856 -0.060899645 -0.0062942775
0.25210422 -0.061679799 -0.0087635312
0.34934345 -0.069923803 -0.0080670426
-0.31117445 -0.051652506 -0.00084357127
-0.3048878 -0.052403085 -0.0047211107
0.070241123 -0.052280053 -0.0063919085
0.100574 -0.055410739 -0.0015052917
0.15044935 -0.05276886 -0.0043845698
0.18511181 -0.059226908 -0.009628851
0.21667477 -0.054441161 -0.0099766813
0.223052 -0.055298556 -0.0086491704
0.23950657 -0.052313607 -0.0020351675
0.3490597 -0.051171094 -0.0060373168
0.087488502 -0.048384093 -0.0042722919
0.11717413 -0.045151167 -0.001472874
0.12089296 -0.043255687 -0.0068943696
0.14739835 -0.045515209 -0.0073199263
0.200726 -0.044709124 -0.0074279215
0.21244615 -0.041262887 -0.0010030814
0.23366109 -0.049692273 -0.0065335953
0.24950667 -0.040061947 -0.0042809532
0.33593068 -0.045339152 -0.0038811464
-0.33688921 -0.035046339 -0.0002240125
-0.31889918 -0.033199489 -0.0092546297
0.074855559 -0.039210033 -0.0040353467
0.106665 -0.039206602 -0.0015766984
0.13310461 -0.039614268 -0.0050162468
0.16995831 -0.039434873 -0.007154604
0.19043948 -0.036855385 -0.007411113
0.24831717 -0.039433196 -0.0035345955
0.25914899 -0.03674037 -0.0011187744
-0.32580307 -0.025494814 -0.0049651205
-0.29675651 -0.022886384 -0.0078957751
-0.27622285 -0.020570051 -0.0070868647
0.31420583 -0.029207906 -0.00089245057
-0.29807824 -0.019995462 -0.0031673871
-0.28748891 -0.019480234 -0.0023635926
-0.25424483 -0.014755269 -0.0034909123
-0.24471216 -0.019162178 -0.0039224718
-0.21163554 -0.01912288 -0.004629015
-0.19066261 -0.015943121 -0.00057680591
-0.15477431 -0.016520714 -0.0044708326
-0.10288137 -0.016443659 -0.0037636412
-0.050112959 -0.016263649 -0.002587806
-0.020122841 -0.016882531 -0.0066303862
0.0045934469 -0.016042149 -0.0011409521
0.010743864 -0.016059555 -0.001254647
0.054013342 -0.016345102 -0.0031198636
0.09206406 -0.016285395 -0.0027298417
0.11338662 -0.016629934 -0.0049804039
0.14583579 -0.017522497 -0.0089138169
0.22031589 -0.018005589 -0.0099167982
0.25806445 -0.017991992 -0.0017374266
-0.28238606 -0.0046542753 -0.0022693605
-0.26295164 -0.0097417198 -0.0030712304
-0.23059954 -0.0021293634 -0.0021068885
-0.28765112 0.0019767131 -0.0020350798
-0.2770133 0.0063466304 -0.00081640511
-0.30104646 0.019531557 -0.0015795495
-0.27176219 0.012324938 -0.0023722674
-0.29959932 0.02073195 -0.0016442374
-0.27896434 0.02271449 -0.0021762101
-0.26940745 0.025147378 -0.0022140965
-0.29003215 0.032376163 -0.0019211684
-0.31455594 0.047291636 -0.001201804
-0.33005154 0.056292176 -0.00054122187
-0.32171118 0.056407522 -0.00096435205
-0.33898351 0.06060328 -4.6607303e-05
-0.32474539 0.075527042 -0.00093859527
-0.32475901 0.089160614 -0.00092636805
-0.31164584 0.083865218 -0.0010947284
-0.33350569 0.096997477 -0.00070043415
-0.0092863683 -0.090000406 0.0050701578
0.022069458 -0.090707771 0.0004494864
0.053243615 -0.097548798 0.0090540573
0.084935486 -0.097548798 0.0036912274
0.093560755 -0.097532339 0.0061922264
0.118076 -0.095614001 0.00059585134
0.13854703 -0.091418236 0.0043459181
0.1664636 -0.090449899 0.0021339096
0.20189151 -0.090387337 0.0025425681
-0.19790401 -0.080830514 0.0076000579
-0.1843088 -0.084076531 0.0009953673
-0.15182094 -0.08755593 0.0043835044
-0.099871621 -0.088806741 0.0099862013
-0.04632058 -0.089557394 0.0079638762
-0.023845796 -0.08952111 0.0082007991
0.070428714 -0.089524999 0.0081754336
0.13279156 -0.089421786 0.0087092072
0.27198124 -0.089190334 0.0060375906
0.28581959 -0.088360734 0.0075347079
-0.23608972 -0.0735517 0.0058334139
-0.22417194 -0.075049043 0.009391523
-0.079344787 -0.068379201 0.0041046198
-0.027525414 -0.068379201 0.0076373494
-0.015892798 -0.068379201 0.0050410344
-0.0019918326 -0.068379201 0.0053319815
0.019659664 -0.068379201 0.0015536044
0.067695953 -0.061679795 0.00017334893
0.076311149 -0.061679803 0.0037478451
0.097947471 -0.061679799 0.005439505
0.10727954 -0.061679799 0.0069688819
0.13893515 -0.061679795 0.0041524894
0.14155473 -0.061679799 0.0039345664
0.22889987 -0.060230553 0.0060949046
0.25903225 -0.061539568 0.00272871
0.36148024 -0.065064907 0.00077120611
-0.30961093 -0.051069874 0.0045244973
0.088879362 -0.05505158 0.0067632813
0.11263186 -0.05980248 0.0025039436
0.13607724 -0.057263695 0.0056052781
0.14582624 -0.052596368 0.0073423865
0.15209718 -0.055446964 0.0072900313
0.17893064 -0.052577503 0.0012358688
0.20615101 -0.059589043 0.005685823
0.22439715 -0.0554666 0.0090660136
0.23933131 -0.051709559 0.00030634552
0.24003214 -0.053402528 0.00053727441
-0.31534433 -0.047906093 0.0059631853
0.071539208 -0.041076988 0.0092374291
0.10805501 -0.044967078 0.0038656415
0.11331907 -0.041989125 0.0029471293
0.14251597 -0.044785783 0.0062584542
0.193423 -0.044169717 0.0015733321
0.200726 -0.047231331 0.0082191639
0.22588401 -0.045929786 0.0082384953
0.25773299 -0.047191322 0.0028284322
0.071996681 -0.039935358 0.0026629381
0.088904202 -0.037385702 0.0060509136
0.14851464 -0.03976557 0.0034757215
0.19789501 -0.035612248 0.0082496982
0.25631699 -0.035889421 0.0036317054
-0.33185878 -0.023577977 0.0043841288
0.27263334 -0.020757582 0.0083923684
0.31496185 -0.02935374 0.00076096575
-0.31524608 -0.019716721 0.00091689778
-0.25086048 -0.012036426 0.0041083694
-0.20185073 -0.015614653 0.0049947877
-0.086480342 -0.016844537 0.0069959462
-0.028242491 -0.016310161 0.0035053766
0.024331627 -0.017178597 0.0088135907
0.040286072 -0.016310036 0.0035045675
0.06457831 -0.016065042 0.0019042402
0.19533779 -0.015823653 0.00028626932
0.2201325 -0.016444167 0.0043807183
-0.28476185 -0.00056346913 0.0027574673
-0.27340436 -0.0063325367 0.0032484867
-0.26435053 -0.0005793171 0.003312852
-0.23840967 -0.0026969055 0.0036234278
-0.31588513 0.0018282067 0.0012079518
-0.32212687 0.011472262 0.00096660957
-0.29919532 0.023385953 0.0022871254
-0.26318017 0.02522707 0.0026714602
-0.28001672 0.031843565 0.0026761063
-0.30535138 0.041525956 0.0021263524
-0.28811699 0.043234475 0.0024604122
-0.33930853 0.062569283 0.0006712887
-0.34545892 0.070610225 0.00023591491
-0.30352864 0.078936517 0.0012976298
-0.3455635 0.08542832 0.00063416117
-0.31498659 0.08242657 0.0017255959
-0.30948347 0.082039937 0.0017275123
-0.35181054 0.092673533 0.00032236381
-0.33844423 0.094335601 0.001136072
-0.34519452 0.10522585 0.00092155766
-0.034330077 -0.094963543 0.012599576
0.0083694384 -0.097548798 0.012703713
0.028131338 -0.097548798 0.01342975
0.10048382 -0.096722543 0.018833172
0.12843066 -0.093741283 0.012400982
-0.19093344 -0.08017873 0.012385899
-0.1649507 -0.082737997 0.014776617
-0.1238899 -0.085132964 0.016555086
-0.082401261 -0.085310899 0.016861573
-0.035616651 -0.086377978 0.015014683
-0.012354601 -0.083667442 0.018703459
-0.0064015076 -0.086961754 0.013817024
0.009815637 -0.087869644 0.011931755
0.043900523 -0.088657662 0.010295828
0.069213316 -0.088560402 0.010497762
0.070899248 -0.085077539 0.017122988
0.13982978 -0.084079854 0.018241066
0.16085975 -0.087566741 0.012560827
0.20296362 -0.08638306 0.015018286
0.26429731 -0.084082253 0.017417978
-0.19525146 -0.07626155 0.017891962
0.14820577 -0.070651397 0.019302677
0.30108851 -0.079972282 0.018395413
0.33159706 -0.07192117 0.016132109
-0.26118875 -0.062474068 0.013603382
-0.24870342 -0.062606536 0.01824197
-0.035254218 -0.068440773 0.018890109
-0.012060979 -0.068379201 0.012671345
0.043542743 -0.068379201 0.017619658
0.081283957 -0.061679803 0.013262596
0.10697007 -0.061679803 0.013606434
0.11282682 -0.068379201 0.013259201
0.12598094 -0.061679803 0.015766142
0.13246939 -0.061679795 0.017793095
0.16606338 -0.061679803 0.014285986
0.19353551 -0.061679795 0.014143689
0.21323384 -0.061679795 0.010305327
0.22469112 -0.060100853 0.016743813
0.11668475 -0.05969467 0.012390756
0.16171902 -0.053457089 0.011930415
0.1789176 -0.059156246 0.01566078
0.18397053 -0.056405444 0.014321364
0.1921979 -0.054076552 0.019590931
0.20799628 -0.056326356 0.016825918
0.21148536 -0.054043602 0.014638061
0.22517172 -0.054447282 0.016862754
0.23206416 -0.054778237 0.01662099
0.24220526 -0.051552787 0.016468769
-0.30367711 -0.040348794 0.013085568
0.07734073 -0.042992841 0.016260827
0.14747453 -0.042875275 0.01442428
0.1674062 -0.041330095 0.0192916
0.17641629 -0.041809153 0.019350303
0.19541101 -0.044716526 0.015389475
0.21676019 -0.044352263 0.018868528
0.23214091 -0.042524431 0.011161868
0.25914899 -0.044439439 0.01758365
0.33423102 -0.047393352 0.01163293
-0.28647134 -0.035490558 0.016821075
0.19903359 -0.032664102 0.012269145
0.30458573 -0.03569131 0.019739881
-0.21092781 -0.02337735 0.019485198
-0.19783911 -0.020158039 0.015644632
-0.16212983 -0.020030195 0.015192671
-0.13646927 -0.020340409 0.015597928
0.041980874 -0.021944003 0.017651549
0.079847023 -0.020466603 0.015640352
0.17097564 -0.021724025 0.017404998
0.21749321 -0.021603987 0.017270457
0.24220173 -0.02396032 0.019514732
-0.215905 -0.018248044 0.010801695
-0.057829335 -0.018884977 0.012356481
0.0047014765 -0.017803485 0.010111022
0.033894684 -0.017917033 0.010346777
0.078394599 -0.019577047 0.013793398
0.20505017 -0.018694602 0.011961211
0.24136902 -0.018153626 0.010325372
0.25637245 -0.019923063 0.010949921
0.012838623 -0.093041144 0.027381564
0.062853068 -0.09580797 0.023370255
-0.11926152 -0.080775097 0.021803217
-0.031097455 -0.085004523 0.028518161
0.013744116 -0.082007155 0.020564403
0.10258617 -0.081560589 0.029997399
-0.13130131 -0.074208833 0.026177019
-0.1274644 -0.079944551 0.022161923
-0.11323951 -0.077049375 0.024871785
-0.073554859 -0.074822322 0.0263415
-0.065984607 -0.070013784 0.028910812
-0.038843147 -0.077097088 0.027101677
-0.016065896 -0.073527128 0.028263997
0.0080688931 -0.071957476 0.028484046
0.028895475 -0.070500799 0.026750661
0.031647887 -0.075748734 0.025730047
0.058375925 -0.074758619 0.026383502
0.06595926 -0.079487681 0.02813551
0.11588774 -0.077562653 0.028081447
0.24195191 -0.072648086 0.027715825
-0.21201231 -0.062213097 0.026939323
-0.16480726 -0.069926053 0.027535135
-0.11932363 -0.068236522 0.029506067
-0.087519988 -0.067538887 0.029792452
0.0036020726 -0.069986165 0.028920555
0.016824914 -0.068518057 0.029443642
0.087753728 -0.060662702 0.020406889
0.097275503 -0.060285591 0.029842291
0.11034907 -0.068769589 0.021926563
0.1434406 -0.068002984 0.029627113
0.22615676 -0.069505528 0.02909187
0.24913304 -0.061060175 0.025487805
0.30240747 -0.066774957 0.025757948
0.31354752 -0.066182584 0.023610616
-0.25006393 -0.051309962 0.02365322
-0.21908611 -0.050577607 0.029031126
0.082942426 -0.052921645 0.022505773
0.10041013 -0.052904986 0.023527712
0.11763552 -0.059673771 0.025922811
0.12360619 -0.055235397 0.02466605
0.15611276 -0.051704619 0.025391335
0.16218141 -0.059097324 0.026949413
0.17421566 -0.059135552 0.026937705
0.19792795 -0.051084891 0.020902513
0.21646675 -0.056166939 0.025891367
0.23988993 -0.053149089 0.021574484
0.2928012 -0.057676211 0.028638119
0.30202356 -0.053263672 0.027119951
0.068796687 -0.047921464 0.025334958
0.079049982 -0.042450711 0.020159986
0.108055 -0.041307703 0.025163116
0.11518636 -0.049007151 0.028820168
0.124137 -0.047708418 0.029275212
0.14023268 -0.040969424 0.020299606
0.22625789 -0.045408145 0.023821149
0.23389143 -0.046272047 0.027653676
0.30255011 -0.049920756 0.026658572
-0.22146989 -0.030457923 0.024534782
-0.21047676 -0.038833424 0.0292798
-0.106271 -0.036516301 0.028903656
-0.088273376 -0.035715606 0.028618431
0.036240023 -0.03849788 0.029609498
0.072644792 -0.038317319 0.028789511
0.10987516 -0.035217673 0.021764951
0.11589637 -0.036413442 0.028867144
0.15056752 -0.036498494 0.028897271
0.18304256 -0.032120228 0.022739559
0.200726 -0.038475472 0.02163478
0.22069374 -0.034233578 0.027995091
0.27932972 -0.030287191 0.021174006
0.28672934 -0.035454385 0.02375371
-0.20796822 -0.027383095 0.023366604
-0.17113152 -0.0238005 0.020324022
0.094817698 -0.026803009 0.023091754
0.15145957 -0.024625039 0.020656453
0.16995043 -0.029474117 0.024854343
0.18565238 -0.025284419 0.021395488
0.20825386 -0.027314685 0.023138057
0.24206409 -0.02980509 0.024810888
0.046776481 -0.084608145 0.030631602
0.068410933 -0.083492994 0.0306316
-0.026484527 -0.076414198 0.03317479
-0.013268753 -0.077331901 0.034454096
0.0025648295 -0.077893674 0.033289835
0.016497776 -0.07303331 0.030469676
0.025416316 -0.072322376 0.03581496
0.035069779 -0.071756482 0.039833963
0.055654481 -0.079220526 0.030041536
0.062070511 -0.07139723 0.031475987
0.079100586 -0.078531176 0.039574452
-0.18435314 -0.060373683 0.030522367
-0.056527864 -0.062158495 0.031512089
0.043932062 -0.065379202 0.030561805
0.051654227 -0.065854616 0.030392444
0.067819834 -0.065861903 0.030389849
0.073073581 -0.066304497 0.030232184
0.11823726 -0.062324494 0.031447258
0.14810862 -0.061679803 0.031085949
0.16078146 -0.062371071 0.031487975
0.18858482 -0.060692817 0.031677894
0.25606009 -0.062997758 0.030795343
-0.1925495 -0.055155054 0.030983532
-0.11621604 -0.05231791 0.032409441
-0.083937764 -0.050448641 0.032197766
0.11452421 -0.050670415 0.032223027
0.128593 -0.054790519 0.030473989
0.15607506 -0.058457199 0.03104119
0.16379653 -0.052087232 0.031367555
0.18121511 -0.056657538 0.032134902
0.19102666 -0.053222757 0.032511923
0.20692255 -0.059605997 0.031792488
0.25119758 -0.055551082 0.031834226
0.26613733 -0.05719611 0.030803993
-0.20177197 -0.048655819 0.031102093
-0.19593488 -0.043186527 0.030770848
-0.14367853 -0.04217197 0.031221274
-0.073897459 -0.043258503 0.031305462
-0.034832872 -0.04013487 0.030192699
-0.009593755 -0.045128204 0.031595558
0.011878771 -0.046464041 0.031746794
0.045637108 -0.047515832 0.031865839
0.16600439 -0.047463302 0.030625749
0.21752822 -0.040632978 0.030370101
0.22239053 -0.048051737 0.031926345
0.27027676 -0.049226936 0.0302127
-0.18544668 -0.038398147 0.03003335
-0.030206393 -0.075526588 0.048704907
-0.025772292 -0.076455846 0.041232832
0.0020689708 -0.072771966 0.049297877
0.017333955 -0.072263911 0.043701611
0.029879453 -0.071854278 0.041206352
0.030572675 -0.071594633 0.045101911
0.059362903 -0.078215256 0.043252043
0.060029782 -0.077652961 0.049946368
-0.027499087 -0.074620262 0.057198234
-0.014356345 -0.073949203 0.050080277
0.013456067 -0.071925513 0.051772721
0.025104584 -0.076734677 0.056008883
0.06409663 -0.077242628 0.054819755
-0.03039165 -0.074507773 0.06254454
0.016399018 -0.070846565 0.066142693
0.057072785 -0.076094873 0.067856282
0.074841835 -0.10055465 0.076724067
0.088323087 -0.1033856 0.078702658
0.069921888 -0.099411517 0.076235548
0.075528108 -0.095364794 0.07475467
0.10110792 -0.095873073 0.075276047
0.11246692 -0.095816463 0.07789854
0.061333321 -0.085056819 0.075815707
0.10897794 -0.087863564 0.075790666
-0.013005567 -0.074517146 0.072810061
0.011001474 -0.07031408 0.078101739
0.066194713 -0.077032998 0.0798572
0.10208367 -0.076676048 0.079932146
0.027516346 -0.069927305 0.075262919
0.052358769 -0.101477 0.082906827
0.065539159 -0.1016518 0.087883115
0.032424245 -0.095145419 0.087544538
0.060113411 -0.093433715 0.081446029
0.097303987 -0.095657513 0.087458774
0.10663602 -0.093768612 0.08021988
0.043467641 -0.080691963 0.088678479
0.065044798 -0.084484011 0.082983308
-0.028698791 -0.072894678 0.0816295
-0.0057818349 -0.070784673 0.084332392
0.021592386 -0.075027354 0.08922635
0.051834084 -0.078596607 0.086692177
0.085656144 -0.07993868 0.086120024
0.10537075 -0.076491758 0.086027756
0.023035564 -0.069569096 0.082896717
0.074523896 -0.10352262 0.098837696
0.10158749 -0.10165212 0.093578979
0.026599087 -0.089861356 0.099072292
0.01084975 -0.071005829 0.094068348
0.02147413 -0.070247203 0.090865292
0.045062631 -0.071478024 0.091995791
0.058684766 -0.077185079 0.097395487
0.076116949 -0.077027179 0.09516868
0.093481869 -0.078451738 0.092254564
0.023043547 -0.06892512 0.091826193
0.030679177 -0.068632364 0.094153896
0.059688736 -0.1036716 0.10798516
0.063861072 -0.10177853 0.10504602
0.095276013 -0.10572737 0.10432395
0.056579828 -0.093585104 0.10710645
0.095595397 -0.09582448 0.10434738
0.11247319 -0.090889663 0.10904447
0.068480738 -0.083860062 0.10492219
0.071200691 -0.080032021 0.10184148
0.10486236 -0.082411736 0.10469791
-0.00013152324 -0.072278291 0.10561538
0.0047525726 -0.072665282 0.10200941
0.025040241 -0.072737351 0.10457779
0.058290146 -0.076334156 0.10026148
0.062737614 -0.074344516 0.10378522
-0.0120136 -0.068919085 0.10794535
-0.003952736 -0.068718687 0.10514852
0.0083558327 -0.068376049 0.10296948
0.055623449 -0.099078022 0.11018679
0.089856237 -0.095853232 0.11228378
0.078091726 -0.083391517 0.11185329
0.085945413 -0.08092849 0.11089218
0.092838667 -0.082834169 0.11171052
-0.018910434 -0.071172453 0.1137084
0.07980869 -0.079950154 0.11026167
-0.021079957 -0.070569269 0.12068825
-0.0093312813 -0.070925087 0.12001876
-0.013998884 -0.06781584 0.12031311
0.020240957 -0.066519864 0.12763885
-0.01788567 -0.069348074 0.13738707
-0.0049041514 -0.066067964 0.13413829
-0.034350306 -0.066640034 0.14592908
-0.018735673 -0.065516472 0.14671791
-0.0042548277 -0.064986594 0.14627038
0.011292282 -0.06512513 0.15078856
-0.0069939885 -0.063337252 0.16683502
-0.024514319 -0.066522829 0.17097452
-0.015604908 -0.062990353 0.17316678
-0.048195757 -0.06361641 0.18529031
-0.049383961 -0.062248308 0.19892111
-0.0070099197 -0.062517792 0.1927788
-0.059231177 -0.062140364 0.20743088
-0.040790539 -0.061264873 0.20281634
-0.012035191 -0.061978266 0.2039744
-0.064616881 -0.061732799 0.21809861
-0.03345117 -0.06309063 0.21117309
-0.042956941 -0.05978819 0.21886231
-0.040722791 -0.061912134 0.22409047
-0.054946996 -0.060429692 0.23891023
-0.045498107 -0.060569655 0.23950006
-0.032922857 -0.061472237 0.23053867
-0.02970955 -0.060798716 0.23849119
-0.068864033 -0.059503864 0.23829244
-0.040353429 -0.060048599 0.24644275
-0.064800933 -0.058943596 0.2401282
-0.04274464 -0.057145737 0.24807477
-0.035923675 -0.057670459 0.24315181
-0.060845971 -0.058656707 0.25958163
-0.039942078 -0.058980159 0.25876957
-0.082184017 -0.057340339 0.26841307
-0.07043644 -0.056331351 0.2681872
-0.057010639 -0.058348291 0.26428282
-0.06086161 -0.054556847 0.28214237
-0.092571154 -0.054256503 0.30471265
-0.10024542 -0.014194862 0.32258895
