# .PCD v0.7 - Point Cloud Data file format
VERSION 0.7
FIELDS x y z
SIZE 4 4 4
TYPE F F F
COUNT 1 1 1
WIDTH 864
HEIGHT 1
VIEWPOINT 0 0 0 1 0 0 0
POINTS 864
DATA ascii
-0.15195999 0.027469106 -0.34177116
-0.1694454 0.015723815 -0.33329588
-0.11135912 0.018137587 -0.33475935
-0.15679069 0.0039778203 -0.32548511
-0.12540951 0.0099432142 -0.32736716
-0.11153177 -0.0017544213 -0.31084862
-0.15247543 -0.0015264468 -0.30842236
-0.12396787 0.0022908929 -0.30671829
-0.077964664 0.0025773346 -0.30148777
-0.15365736 -0.00075354759 -0.29992008
-0.11574429 -0.0034481059 -0.29473072
-0.073078491 -0.001774524 -0.29247236
-0.12419735 0.00076872949 -0.29318812
-0.090271518 0.0030876449 -0.2982794
-0.14477246 -0.00426709 -0.28125146
-0.10526344 -0.0042873323 -0.28736678
-0.15412211 -0.0036313853 -0.2785331
-0.14600495 -0.0045722998 -0.27781358
-0.1143844 -8.2403654e-05 -0.27961797
-0.10533191 0.00020533195 -0.27688658
-0.15257317 -0.0051344461 -0.26687092
-0.13245748 -0.0056303004 -0.2692574
-0.11245218 -0.0017290169 -0.26584968
-0.14350569 -0.0057302816 -0.25620496
-0.090458773 -0.0017758997 -0.25021464
-0.082573801 -0.0074894964 -0.25781685
-0.1187843 -0.0053368304 -0.24234343
-0.10880996 -0.0087058796 -0.24238461
-0.057188161 -0.0080558229 -0.2463492
-0.039402947 -0.0065349056 -0.2403684
-0.082572147 -0.010236043 -0.23171064
-0.061540812 -0.010164613 -0.23175202
-0.10675348 -0.0084140273 -0.2359266
-0.07822451 -0.0028941422 -0.23212887
-0.067890294 -0.0021876169 -0.23146239
-0.042239483 -0.001320642 -0.23500288
-0.13387422 -0.0096434979 -0.22635621
-0.090674505 -0.0055654738 -0.22018744
-0.042576209 -0.0020765141 -0.22100584
-0.026114363 -0.0057314029 -0.22394544
-0.126214 -0.01128881 -0.21040633
-0.070798792 -0.012211499 -0.21383609
-0.097282872 -0.0073339827 -0.21208055
-0.069266416 -0.0047009406 -0.21128801
-0.028469551 -0.0028998558 -0.21035017
-0.11210556 -0.011301771 -0.20335813
-0.099293694 -0.010048497 -0.19328599
-0.082052156 -0.013915841 -0.19379385
-0.077160619 -0.0071214275 -0.19876698
-0.0069671795 -0.0064673685 -0.19511648
-0.076816447 -0.01444093 -0.18971863
-0.063723832 -0.01540399 -0.1825186
-0.043361895 -0.014891328 -0.18940018
-0.015970942 -0.004459769 -0.18493338
-0.053407729 -0.0074627637 -0.17697881
-0.01031656 -0.035088539 -0.16329059
0.032908279 -0.037367307 -0.16325015
-0.022131654 -0.025489036 -0.16397516
-0.052612968 -0.017647101 -0.16160263
-0.030944224 -0.017416101 -0.16604885
-0.011803725 -0.010804718 -0.16369064
0.055261068 -0.018664557 -0.16463354
-0.053789727 -0.0088889804 -0.16632915
0.027243156 -0.004288299 -0.16221255
-0.015911072 -0.05030534 -0.1503188
-0.015739542 -0.04129716 -0.15932609
0.019860791 -0.049406856 -0.15459463
0.023379441 -0.047291577 -0.15698391
0.050887458 -0.042251099 -0.15883839
0.060493305 -0.044475965 -0.15559328
-0.050401352 -0.031293653 -0.15545768
-0.042789362 -0.033441134 -0.1559273
0.071217522 -0.035597421 -0.15773602
-0.1009292 -0.016711969 -0.15056625
-0.095142275 -0.015038204 -0.15648077
-0.071991012 -0.017668761 -0.15675661
-0.067964248 -0.012161891 -0.15488641
-0.034755945 -0.0169925 -0.1544636
0.066618964 -0.011770811 -0.15375726
0.07005389 -0.011875138 -0.15974273
-0.053391315 -0.0079233255 -0.1520493
-0.040162515 -0.0090026986 -0.1552552
-0.03506662 -0.0061501171 -0.15148646
-0.0063828793 0.0063629625 -0.15104602
-0.02157259 -0.051031463 -0.14797804
-0.028855816 -0.049953524 -0.14118586
0.070059575 -0.048722737 -0.14666632
0.072470032 -0.024225285 -0.14328322
-0.080828167 -0.015804911 -0.14101183
-0.065730676 -0.019157963 -0.14255197
0.0071025868 -0.018488459 -0.14513423
0.049317103 -0.011810979 -0.14358902
0.05038384 -0.014891701 -0.14568453
-0.058007605 -0.0055963476 -0.1489996
-0.033880137 0.0041872608 -0.1418836
0.0065867687 0.011652125 -0.14215641
0.031686183 0.010917394 -0.14363378
-0.018849446 -0.055152927 -0.13771874
-0.049005378 -0.047892287 -0.13675311
-0.016708108 -0.046560314 -0.13849685
-0.042796031 -0.020706056 -0.13252957
-0.078360535 -0.016288301 -0.13580108
-0.034361504 -0.01060118 -0.13773064
0.027204588 -0.016268592 -0.13626409
-0.09884274 -0.0087841433 -0.13341464
-0.088677011 -0.0053099138 -0.1318137
-0.008914155 -0.0087721162 -0.13440181
0.025126439 -0.0087750573 -0.13551007
0.033249881 -0.0060940222 -0.1323054
0.039268747 0.012302838 -0.13652563
0.04942739 0.011060812 -0.13975933
-0.0060125659 -0.056684881 -0.12512332
-0.064501435 -0.042513195 -0.12012686
-0.047693834 -0.014123186 -0.12412463
-0.082860202 -0.0058322661 -0.12425418
0.012102353 -0.0085721631 -0.12244689
0.029824272 -0.0092175882 -0.12232583
0.03425537 -0.0074523729 -0.12467103
0.052447755 -0.0069347569 -0.12592062
-0.034576122 0.0061903219 -0.1296681
0.062964499 0.0093600759 -0.12298977
-0.086381137 -0.035057016 -0.11897522
-0.06453003 -0.036553849 -0.11326876
-0.10102617 -0.020537965 -0.11788487
-0.095374122 -0.025361139 -0.11645829
-0.094915852 -0.018721659 -0.11631136
-0.04967564 -0.015944703 -0.11429042
0.0021898553 -0.014230853 -0.1142868
0.018038312 -0.019025231 -0.11525854
0.028651906 -0.017421555 -0.11565579
0.035540953 -0.015515914 -0.11802548
0.048996687 -0.013472166 -0.11752442
0.054686796 -0.01746235 -0.11563891
0.063518502 -0.013619681 -0.11751007
-0.020536583 -0.0063436944 -0.1100419
-0.019186007 0.00084664999 -0.11906447
0.068988174 0.0057477518 -0.11806497
0.070057571 0.0036789565 -0.11518538
-0.2757287 -0.060205087 -0.10443759
0.022617109 -0.050524432 -0.10934422
0.011755714 -0.048769034 -0.10703722
0.027636245 -0.041623827 -0.10116684
0.03317558 -0.048145086 -0.10674059
-0.035404176 -0.038397148 -0.10782886
0.067322701 -0.037340477 -0.10338562
-0.080920584 -0.021015737 -0.10666518
-0.016194927 -0.021589801 -0.10605688
-0.0098307785 -0.025208566 -0.10854246
-0.023360536 -0.012471622 -0.10491592
-0.016686061 -0.012574397 -0.10913721
0.0088276723 -0.010850744 -0.10425851
0.023239121 -0.010135522 -0.10246449
0.029030893 -0.0098585999 -0.10475498
0.057478484 -0.0089335684 -0.10069554
0.030996853 0.0010782412 -0.10439205
0.029007543 -0.10516105 -0.090108097
0.0037624394 -0.086529247 -0.090300098
0.029792704 -0.088432252 -0.091585048
0.020370904 -0.078029834 -0.092115425
-0.0030887236 -0.032053418 -0.097248785
0.023765968 -0.02153231 -0.095333397
0.036179367 -0.029457238 -0.096629202
-0.037248727 -0.016978353 -0.096508078
-0.028020345 -0.015647102 -0.096946567
0.029770134 -0.012724668 -0.096708186
0.036145717 -0.018193359 -0.096230038
0.058495529 -0.014097954 -0.092186116
0.023890855 -0.005494161 -0.099570945
0.017969348 -0.11044398 -0.088356502
0.0065764738 -0.10267602 -0.087576434
0.01140925 -0.10887475 -0.087516896
0.023310395 -0.10525388 -0.08466167
0.034148332 -0.10226449 -0.088356502
0.0027879481 -0.093958437 -0.082737744
0.014442306 -0.095771916 -0.085086137
0.022975706 -0.092346892 -0.08287815
0.014103036 -0.087500528 -0.088087812
0.033822164 -0.082366578 -0.084813438
0.015627103 -0.079430953 -0.080953196
-0.30427179 -0.053860996 -0.084549733
-0.29481959 -0.053265132 -0.086466476
-0.26530939 -0.052785501 -0.086258724
-0.076620847 -0.023759943 -0.088155009
-0.061360709 -0.024344463 -0.086668044
-0.0044509005 -0.025710279 -0.088595279
0.050209913 -0.023040256 -0.088243887
0.064795569 -0.020194946 -0.081449889
0.042574219 -0.011024061 -0.086822741
0.021134548 -0.076632485 -0.076320469
0.015001738 -0.057132006 -0.078039959
-0.28915727 -0.048398688 -0.07648541
-0.27487847 -0.049937062 -0.073677517
0.01401219 -0.0435149 -0.076097585
-0.067851484 -0.024388408 -0.074524686
-0.014428132 -0.027110625 -0.071877964
0.01135544 -0.029515933 -0.076144271
-0.0090173297 -0.016022189 -0.078989379
-0.27425465 -0.04728955 -0.067310013
-0.25512698 -0.045722965 -0.063692003
-0.048319492 -0.026700698 -0.064835414
-0.030088058 -0.027065229 -0.067385636
0.0095437877 -0.028578149 -0.061965104
0.02476798 -0.028171614 -0.066614494
0.064373702 -0.026243836 -0.061676972
-0.017820686 -0.018758696 -0.067658521
0.077727199 -0.016777232 -0.063110232
-0.25840962 -0.040968101 -0.05160249
-0.23768193 -0.040110625 -0.054185335
-0.26851058 -0.036162995 -0.052243922
-0.051445454 -0.027545683 -0.054427303
-0.035948861 -0.022809058 -0.057341218
-0.0045796474 -0.029008156 -0.054403443
0.022610743 -0.029703103 -0.052305177
0.068537638 -0.027263107 -0.053527452
0.077953354 -0.024499705 -0.054784603
-0.0045766011 -0.018466476 -0.058647372
0.08096879 -0.019714771 -0.059699267
-0.25567877 -0.038800925 -0.046282504
-0.24208663 -0.038689245 -0.047449734
0.017967457 -0.030848436 -0.040300414
-0.059740804 -0.027830048 -0.048432507
-0.049643878 -0.028168239 -0.048114091
0.0094453078 -0.029748583 -0.049819861
0.022605861 -0.017140519 -0.044461988
-0.28756309 -0.032223158 -0.034004867
-0.24929672 -0.035887461 -0.039118912
-0.26022559 -0.029319972 -0.037962619
-0.044385932 -0.029472988 -0.035388559
-0.027292967 -0.02967291 -0.039113525
-0.0029030482 -0.020819386 -0.030660884
0.13521257 -0.026100861 -0.032336351
0.15159006 -0.026494052 -0.031787205
0.031638082 -0.017798234 -0.032213733
0.085083887 -0.011404281 -0.032476135
0.13037615 -0.013387805 -0.034179986
-0.24408852 -0.031096043 -0.027360497
0.056395754 -0.036545914 -0.022291375
0.064222582 -0.034555718 -0.023970269
0.079307988 -0.034081746 -0.02530257
-0.21718696 -0.026637495 -0.0270974
-0.13758887 -0.020443466 -0.020020034
-0.021760695 -0.022397468 -0.029370524
0.0076387478 -0.021578832 -0.026745843
0.08457125 -0.029813355 -0.028166557
0.16594559 -0.028735096 -0.029007874
0.19915199 -0.024602262 -0.023626678
-0.12690032 -0.012260407 -0.020212822
-0.082882777 -0.015872953 -0.022948027
-0.057886031 -0.013662203 -0.026509488
-0.045134909 -0.011592351 -0.027029837
-0.03989654 -0.0183268 -0.023146424
-0.0085818544 -0.017165508 -0.024878718
0.012900576 -0.014628629 -0.025260314
0.034597956 -0.0183268 -0.02006587
0.043324266 -0.012175357 -0.026219714
0.076111048 -0.016895007 -0.02265878
0.081377558 -0.015024095 -0.029041434
-0.085403062 -0.0023417608 -0.021135097
-0.05156824 -0.0087742945 -0.025707444
0.0095197707 -0.0098909549 -0.023311466
0.026390025 -0.005516924 -0.02878407
0.066642135 -0.0019590193 -0.023889948
0.07113874 -0.0048035476 -0.025210973
0.081528887 -0.0054090521 -0.026069323
0.096086979 -0.0024235914 -0.02790387
0.10231619 -0.0023690809 -0.026223406
-0.019713655 0.00051479763 -0.025172371
0.075669222 0.0061775148 -0.025733555
0.087700047 0.00029765337 -0.028484583
0.11882654 0.0075593716 -0.025917707
0.13489443 0.0087787006 -0.025391404
0.15105771 0.0038936657 -0.021127142
0.16226745 0.0049112686 -0.020345476
0.12573774 0.032435529 -0.020039532
-0.077620015 -0.040497296 -0.010274857
0.020978153 -0.040350832 -0.015953245
0.11965998 -0.041649699 -0.014559318
-0.16265875 -0.032399561 -0.012456083
-0.11547381 -0.037667584 -0.011426538
-0.028827928 -0.037141316 -0.01886934
0.02838714 -0.039540004 -0.017387703
0.077168368 -0.033361137 -0.012834553
0.092214078 -0.031761542 -0.012869595
0.16641374 -0.039835021 -0.015051844
0.17315674 -0.03665942 -0.019437505
0.1851037 -0.037788704 -0.014239298
-0.23205738 -0.027007736 -0.017868329
-0.16790144 -0.028975844 -0.014316727
-0.15903513 -0.026599228 -0.016118683
-0.012133636 -0.026151631 -0.01526474
0.016970601 -0.02252966 -0.012278276
0.10522467 -0.02496824 -0.019879062
-0.21974076 -0.017270895 -0.01317845
-0.15395035 -0.013856078 -0.014911424
-0.10369715 -0.0183268 -0.017281396
-0.070333742 -0.0183268 -0.018293627
0.038490977 -0.0183268 -0.014917114
0.072827235 -0.015946493 -0.011332414
0.16807094 -0.016978137 -0.01960423
0.23071876 -0.017626271 -0.015597736
0.24253619 -0.019251229 -0.011597116
-0.16007188 -0.00021653506 -0.011095734
-0.14382631 -0.0083770473 -0.017874246
-0.12038361 -0.0068464656 -0.014903228
-0.10834245 -0.0015631097 -0.014191793
0.093210183 -0.0063672187 -0.012202754
0.1691851 -0.0099853575 -0.0138158
0.23550582 -0.0094712358 -0.011130328
-0.1650178 0.0084830541 -0.011161991
-0.15470237 0.0037416741 -0.013696476
-0.14937404 0.0078352327 -0.012730487
-0.12160584 0.0052294401 -0.010450149
-0.087859526 0.0052585918 -0.015853032
-0.076734118 0.0092932917 -0.017858502
-0.041300721 0.0048186118 -0.016124804
0.03082625 0.0052294401 -0.011214747
0.062019408 0.0054023117 -0.014361052
0.089901879 0.0055075316 -0.019059446
0.095371187 0.0057177804 -0.015811529
0.10708456 0.0066638952 -0.012912735
0.14293185 0.0020682835 -0.013815801
0.15465614 0.0036541773 -0.016029513
0.169202 0.0075167641 -0.016152684
0.17684221 0.00239769 -0.015236338
-0.12277674 0.016815105 -0.011148289
-0.071556509 0.01972504 -0.013289652
0.034564339 0.017715659 -0.019126154
0.067695282 0.018513931 -0.019419841
0.072413698 0.014079116 -0.01421737
0.08572787 0.016606171 -0.01631349
0.15271901 0.018368587 -0.019281788
0.17799774 0.012019813 -0.010962108
-0.068571195 0.023731612 -0.010862238
-0.05653299 0.021194994 -0.013323735
-0.0067660483 0.025966467 -0.012526716
0.032799963 0.027395679 -0.012464581
0.049429938 0.021305379 -0.010016976
0.056839716 0.02835756 -0.012178786
0.081486627 0.021796312 -0.017682947
0.10238437 0.027383182 -0.013301866
0.13415357 0.029167151 -0.010302469
0.14543198 0.022846183 -0.016122602
0.11057363 0.039721478 -0.017696705
0.12096503 0.037189707 -0.01928279
0.16411644 0.032872695 -0.011382721
0.11673026 0.045868061 -0.015337496
0.12184165 0.050304487 -0.012236342
0.18223125 -0.10717214 -0.0063758153
0.16892934 -0.097594127 -0.0035486617
0.17472914 -0.093442537 -0.0043749302
0.18925855 -0.099193461 -0.0031605591
0.19178829 -0.087171972 -0.0097540403
0.1743415 -0.079140693 -0.0030626273
-0.10916024 -0.042042732 -0.00075419247
-0.097380891 -0.041480888 -0.0061636022
-0.012034745 -0.043905169 -0.0045190481
0.12122874 -0.043224376 -0.0097164977
-0.24395561 -0.032401208 -0.0014081113
-0.1347201 -0.038779847 -0.0078730164
-0.022441892 -0.032530375 -0.0088254288
0.026539199 -0.031323675 -0.00077631266
0.088799305 -0.034058325 -0.0018967194
0.20485218 -0.036801465 -0.0031898993
-0.28291363 -0.022059143 -0.0081931846
-0.27650845 -0.027170297 -0.0043098312
-0.23554169 -0.02265556 -0.006649768
0.02354884 -0.0225596 -0.006389908
0.030337166 -0.027942952 -0.00048060517
0.053583857 -0.022948526 -4.3774286e-05
0.10007143 -0.021084381 -0.00011969003
0.11427265 -0.026068963 -0.0060504838
-0.2993589 -0.019415464 -0.0060812868
-0.26268554 -0.013556005 -0.0086493362
-0.15676714 -0.0183268 -0.0043009035
-0.1415565 -0.0183268 -0.0075163855
-0.11300479 -0.016635772 -0.0055552786
-0.10845199 -0.016439833 -0.003591907
-0.062985651 -0.017714821 -0.0055332906
-0.031384572 -0.0183268 -0.0083827218
0.010041431 -0.013798933 -0.0086515006
-0.30916983 -0.0026131389 -0.0026762125
-0.27637637 -0.0042173639 -0.0049058329
-0.21855393 -0.00095669483 -0.0095732789
-0.17235109 -0.0061651715 -0.00086345675
-0.14331436 -0.0070389817 -0.0021033066
-0.11421354 -0.00098884967 -0.0033458925
-0.10920469 -0.0053337435 -0.0035597675
-0.025111966 -0.0086275479 -0.0071504731
-0.016434986 -0.0024174191 -0.0075209751
0.23392797 -0.0051099327 -0.0097038057
0.24069208 -0.0043166028 -0.0066946317
0.25535101 -0.0099656358 -0.0043251375
-0.32184815 0.00092315831 -0.0016358485
-0.28068438 0.0029092277 -0.0032673611
-0.27038455 0.0035565547 -0.0033734976
-0.18783686 0.0074119391 -0.0032427409
-0.16716841 0.0052294401 -0.0045852526
-0.13051581 0.0029866733 -0.0039336174
-0.11859152 0.0037513655 -0.0031589556
-0.083258122 0.0052294401 -0.0057669431
-0.0013179225 0.0099298805 -0.0007327433
0.0035884862 0.0032869896 -0.0054687387
0.13893259 0.00239769 -0.0022991595
0.14093855 0.0099298796 -0.0019433371
0.15792856 0.00239769 -0.0092005711
0.19670945 0.0031793937 -0.0074615977
-0.31166705 0.018414661 -0.0024006802
-0.16616082 0.013390853 -0.0044262214
-0.2840547 0.025810398 -0.0027761401
-0.27622214 0.029006049 -0.0027381147
-0.26077247 0.026370622 -0.0027397543
-0.10404062 0.026636923 -0.0056286287
0.14984299 0.029109977 -0.009001228
0.16691785 0.028946145 -0.0051205587
-0.014404341 0.033186156 -0.0011608673
0.040974081 0.033344891 -0.00064754265
0.14750184 0.031107653 -0.0063032517
-0.25067246 0.042108204 -0.0019182491
-0.24336389 0.040887017 -0.0012341524
-0.28305843 0.053585116 -0.0021700263
-0.26881593 0.059940476 -0.0017585029
-0.31611994 0.066987619 -0.0017080052
-0.30262515 0.072792701 -0.0017427274
0.1723104 -0.061192945 0.00079199724
0.17338878 -0.056113854 0.0025445367
-0.10764307 -0.040566929 0.0071885344
-0.09265022 -0.042099722 0.0044094515
-0.03679831 -0.04330954 0.006040439
-0.017878262 -0.043845933 0.004279397
0.026145201 -0.04312069 0.0097795315
0.038572036 -0.043986719 0.006264837
0.11869461 -0.04391589 0.0070406408
-0.17651923 -0.037425593 0.004575944
-0.0030018531 -0.033578314 0.00097350951
0.0042106062 -0.033616602 0.006736408
0.014168167 -0.034109358 0.0047556479
0.030872995 -0.03464058 0.0038570738
0.054815866 -0.035065584 0.0027952236
0.084325731 -0.033408236 0.0084611299
0.10230105 -0.03182989 0.00082049443
0.22849095 -0.03100984 0.00032937317
-0.26870707 -0.023655994 0.0074759535
0.0023403666 -0.025580872 0.0059902375
0.034028638 -0.028403426 0.00052091619
0.046554096 -0.027620664 0.00045224134
0.23319846 -0.02984423 0.00021502422
0.24961004 -0.025347207 0.0027903798
-0.26763099 -0.01171356 0.0078538591
-0.13453922 -0.017369758 0.0024776591
-0.10245411 -0.011977692 0.0038477138
-0.069048673 -0.015446896 0.0052741482
0.0069100112 -0.010096072 0.0085176323
0.10519462 -0.017499197 0.0026780833
-0.3253724 -0.0074224323 0.0012315623
-0.27836514 -0.0019714702 0.0039691678
-0.26153958 -0.0026315551 0.0039429357
-0.13436876 -0.0031326124 0.0024849377
-0.095118061 -0.0019644077 0.0041609677
0.012371809 -0.0049153743 0.0087508559
0.2483722 -0.0044564744 0.0030080792
-0.31806776 0.0089634806 0.0026132164
-0.30361259 0.0043290891 0.0033107405
-0.28413895 0.0019678606 0.0037035393
-0.22239076 0.0073543256 0.0062132473
-0.19384362 5.075743e-05 5.430555e-05
-0.13935864 0.0052294401 0.0059195561
0.02889928 0.0099298796 0.0018639693
0.036374729 0.0099298796 0.0060391314
0.044431891 0.0099298796 0.0060750423
0.11181146 0.0099298796 0.003333257
0.13011579 0.00239769 0.0049596992
0.14418676 0.00239769 0.0023013272
0.15848866 0.00239769 0.0094431192
0.16673246 0.0061637848 0.0058313818
0.18512623 0.0099298796 0.006189798
-0.31947941 0.013107281 0.0024945154
-0.24921332 0.019632664 0.0033237054
-0.19794527 0.014905847 0.00041594412
-0.18284406 0.011511482 0.0021835547
-0.1780155 0.015922895 0.0066446885
0.018551333 0.013586238 0.0042621377
0.040372849 0.016757369 0.0084046461
0.18544948 0.01507627 0.0071968012
-0.32835516 0.02315433 0.0012521457
-0.30382997 0.023968898 0.003064628
-0.14205873 0.023078319 0.005198902
-0.10031597 0.024607724 0.0080466513
-0.096818909 0.02598908 0.0069442745
-0.072866067 0.026177853 0.008758354
-0.019654797 0.028790599 0.0093612159
0.1832014 0.025581287 0.0063274535
0.04674004 0.0329476 0.0061483057
0.079559155 0.033706494 0.0038848624
0.1643609 0.030544568 0.0014547091
-0.28816384 0.049161348 0.0027912075
-0.27505612 0.044729803 0.0028655049
0.15092492 0.045670182 0.0059852125
-0.31344777 0.054146383 0.0024488596
0.093802139 0.05221203 0.0033524584
-0.29115963 0.060365666 0.0025384948
-0.27867779 0.065108329 0.0023087617
-0.26711786 0.065155946 0.0018673909
-0.32358199 0.075468324 0.0019427837
-0.28146237 0.077801578 0.0018786954
-0.028130863 -0.041932594 0.010665424
0.084488958 -0.042628132 0.012152843
0.13703388 -0.040250294 0.017001349
0.17691359 -0.040372103 0.010211019
-0.098445788 -0.038361549 0.011959745
-0.048515171 -0.030830614 0.018871997
-0.03510027 -0.036238186 0.019433139
-0.010208262 -0.032460239 0.014349886
-0.0085191596 -0.032730177 0.011965041
0.034803305 -0.033602376 0.015474788
0.058525648 -0.034044273 0.01237141
0.069757625 -0.033716653 0.012337524
0.083594173 -0.032719016 0.013133252
0.10077396 -0.03498216 0.014934279
0.20655158 -0.032623474 0.013317002
-0.27333981 -0.022912618 0.01723565
-0.2454485 -0.020078998 0.010671007
-0.23865788 -0.026541505 0.016180992
-0.2286206 -0.026182156 0.016218459
-0.20759429 -0.022277594 0.01347921
-0.020527821 -0.027269032 0.015841616
0.10338141 -0.028963337 0.013077624
0.20295276 -0.028861118 0.019253653
0.22167009 -0.029806592 0.010110348
-0.24936178 -0.017128717 0.011155816
-0.2249541 -0.010877992 0.011432255
-0.14193587 -0.01742533 0.016815048
-0.10977401 -0.0183268 0.018425427
-0.062568948 -0.010315641 0.019056905
-0.056663238 -0.014190211 0.018853018
-0.039985418 -0.0183268 0.014506983
-0.021061361 -0.0183268 0.016207503
0.021434009 -0.0183268 0.016742039
0.042144079 -0.018549062 0.018071355
0.056452978 -0.011194486 0.010633149
0.075275563 -0.017238135 0.011436885
0.084778994 -0.0183268 0.017918576
-0.21751951 -0.0091208918 0.011727089
-0.18402037 -0.002856777 0.01173964
-0.16638023 -0.0028938858 0.011445277
-0.068092823 -0.0037649805 0.016896097
0.10481356 -0.0098668542 0.012698177
0.12394238 -0.00041199848 0.01351499
0.14480454 -0.0068832631 0.0138158
0.16890457 -0.0096838893 0.0138158
0.17858021 -0.0094603617 0.0138158
0.1888596 -0.0046758158 0.0138158
-0.17370728 0.0080036316 0.010590737
-0.14290373 4.2434316e-05 0.011942652
-0.073665231 0.0030258009 0.014862077
-0.017892677 0.00072085019 0.018418418
0.0057994816 0.0027017535 0.019171737
0.057528097 0.00239769 0.011489739
0.060969487 0.0052294401 0.017746886
0.075196445 0.0063808281 0.016319091
0.095384762 0.0052294401 0.019734766
0.10034614 0.00239769 0.013158686
0.12463719 0.0099298796 0.012427194
0.13912684 0.0099298796 0.015534787
0.14483413 0.0099298805 0.012203276
0.17430867 0.0078982366 0.014243534
0.18007571 0.00239769 0.012216281
-0.1306988 0.014057131 0.011795691
-0.12766233 0.01728935 0.010468175
-0.0062681073 0.014278485 0.019796584
0.051639732 0.016303595 0.014729075
0.16598481 0.013833064 0.016866792
-0.047842532 0.022958981 0.012670984
-0.038851153 0.024733581 0.011988397
0.01757204 0.02787116 0.011762219
0.1562582 0.025817161 0.01276499
0.16395667 0.024873616 0.012729695
0.091158286 0.0335043 0.01645603
0.12085303 0.048814252 0.01369337
-0.020684619 -0.031224187 0.025878472
-0.0089355484 -0.033633284 0.023222156
0.013688532 -0.032848455 0.024702556
0.024381094 -0.035409369 0.022558637
0.03063157 -0.031037722 0.026698232
0.045089506 -0.031527791 0.026829422
0.050963536 -0.030809456 0.027447855
0.067035094 -0.034245797 0.024848681
0.11071515 -0.037791763 0.021591691
0.15167232 -0.037393164 0.021171104
-0.2788536 -0.025067214 0.020664603
-0.10366333 -0.020011902 0.023095749
-0.086420439 -0.024461212 0.023311947
-0.077842534 -0.024704203 0.023965463
-0.067812428 -0.027215987 0.023535099
-0.0034489026 -0.022794321 0.027065519
0.016135782 -0.021080552 0.022854762
0.095479727 -0.027364217 0.026650392
0.1728847 -0.026189415 0.029797668
-0.094572857 -0.014560794 0.023575053
-0.03005863 -0.01632366 0.023254929
0.061569501 -0.0183268 0.022425322
0.094282947 -0.0183268 0.027038749
0.16926374 -0.016934795 0.026238285
-0.072032914 -0.008988468 0.02405866
0.026951391 -0.0059523443 0.025928784
0.033452265 -0.005834762 0.023284245
0.10902302 -0.00048152078 0.02593963
0.13059644 -0.0073044188 0.029768117
-0.072565153 0.00010724482 0.021336541
0.049327023 0.0038147192 0.02601184
0.05413986 0.0038883069 0.026118953
0.080466844 0.0010376259 0.027978409
0.11819068 0.00239769 0.020242805
0.13326883 0.0031099347 0.024101166
0.1622609 0.0075834254 0.024858141
0.16699745 0.012093293 0.021671925
-0.26243263 -0.032306448 0.030816766
-0.018948244 -0.030393213 0.034235008
-0.0081960727 -0.030707393 0.034457963
0.0053526442 -0.030755293 0.038317561
-0.02471425 -0.02441447 0.037314452
0.05636017 -0.021835398 0.032307032
0.073227182 -0.025985356 0.035079762
0.082644626 -0.027554832 0.030427948
-0.0019124041 -0.013654269 0.030332908
0.016800513 -0.019665778 0.031783957
0.055482183 -0.017890703 0.033010259
0.06186099 -0.014600879 0.032628532
0.099812806 -0.011039787 0.032769699
0.10349372 -0.015528701 0.034347698
0.066940106 -0.0086940331 0.03104488
0.087112948 -0.0084853936 0.031586222
-0.29525316 -0.036522679 0.043567277
-0.28810591 -0.037694369 0.045390785
-0.27686006 -0.036021709 0.04940379
-0.26445198 -0.036507852 0.040981818
-0.23104179 -0.034636434 0.049522754
0.017438851 -0.030756822 0.041133095
0.042368941 -0.030176843 0.047267735
-0.021890394 -0.026193544 0.044295043
-0.008100193 -0.021394327 0.042094711
0.055360887 -0.029381502 0.04984029
0.072044663 -0.028356772 0.045633346
0.035649896 -0.015394947 0.04665862
-0.28240409 -0.042346317 0.055947397
-0.27365908 -0.036826029 0.052308828
-0.045235813 -0.02458849 0.054142933
-0.036804255 -0.028058138 0.053608939
0.0012767091 -0.028853541 0.057295371
0.074210212 -0.024375284 0.059385311
-0.29729104 -0.045933563 0.065415204
-0.28665584 -0.044630598 0.067762129
-0.24643296 -0.038387105 0.060923681
-0.032568231 -0.021603914 0.061797496
-0.024117129 -0.027823571 0.060727473
0.058641367 -0.026716651 0.064680174
0.067837983 -0.02535918 0.062484622
-0.02393543 -0.019354876 0.069361858
-0.0043298304 -0.017611546 0.064179406
0.042699613 -0.013115239 0.061631143
0.056680936 -0.012641355 0.063958623
0.075672798 -0.015035374 0.060761821
0.02363408 -0.091565296 0.076608807
0.020078184 -0.081600688 0.076178014
-0.26027143 -0.051212784 0.077593222
-0.30246842 -0.048338775 0.072186351
-0.24842721 -0.047642544 0.072014116
0.012450906 -0.031399604 0.077073202
-0.066487603 -0.024184322 0.074601479
-0.052777849 -0.022801632 0.072189406
-0.036763787 -0.026294958 0.073472448
-0.0051598884 -0.026995361 0.075128078
-0.0030907104 -0.0163108 0.071836703
0.026177665 -0.013361437 0.07059513
0.061763965 -0.01273675 0.070842884
0.0033768225 -0.10083733 0.085369803
0.015310879 -0.10834005 0.084205903
0.027380321 -0.10784179 0.086760908
0.0010330377 -0.090334892 0.085561797
0.034695156 -0.097547896 0.083198398
0.0078463256 -0.087670729 0.081265628
0.018897891 -0.08448939 0.083272085
0.033141773 -0.081816956 0.083364569
0.015664265 -0.077648036 0.084658951
-0.25892171 -0.053063646 0.083068714
-0.062311497 -0.022597406 0.080774061
-0.059064474 -0.021810086 0.083436757
-0.022905132 -0.025334571 0.088489875
0.0044392608 -0.025811668 0.088310726
-0.035752669 -0.017908981 0.089224979
0.022525761 -0.011833874 0.086429767
0.037085056 -0.011371332 0.083478123
0.011871784 -0.10608172 0.091746427
0.017081676 -0.07591527 0.090299703
0.026516721 -0.077833079 0.090947703
-0.30336899 -0.059182644 0.097102717
-0.29541793 -0.05585058 0.090394579
-0.015084968 -0.031208491 0.098106727
0.008085507 -0.030033603 0.096291028
0.019700147 -0.031209409 0.096315309
-0.014901381 -0.021278165 0.097038522
-0.039790865 -0.017646188 0.094536975
-0.0020603244 -0.01225489 0.09729889
0.016595393 -0.018678561 0.095572442
-0.0042447066 -0.0075590899 0.09942279
0.0097473627 -0.0065611089 0.099135272
0.028788371 -0.0097576156 0.097915202
-0.29523745 -0.060962886 0.10097692
0.0045244256 -0.042306289 0.10174391
0.021064464 -0.046282671 0.10456916
0.048678983 -0.047428709 0.10760379
-0.059586056 -0.0320764 0.10930011
-0.048275728 -0.035061475 0.10811125
0.066279069 -0.033199098 0.10138716
-0.050497197 -0.02799149 0.10588193
-0.030409086 -0.023210933 0.10917553
0.05370089 -0.014001542 0.10095394
0.022023015 -0.00016430707 0.10320297
-0.010336279 0.0013524722 0.10581986
-0.011116125 -0.051262479 0.11227648
-0.03171866 -0.043223936 0.11091183
-0.0084964372 -0.04138051 0.11927845
0.066659182 -0.04155818 0.11535976
-0.051941063 -0.039706819 0.11227134
-0.052757166 -0.02182232 0.11742262
-0.031556126 -0.022293381 0.11808316
-0.02592876 -0.02288986 0.11308886
-0.018012306 -0.023070611 0.11295657
0.028626326 -0.02943131 0.11657454
0.06205637 -0.023458118 0.11497507
-0.064108759 -0.017133115 0.11779571
0.041733563 -0.017387517 0.11669951
0.062526651 -0.011377033 0.11913192
-0.020113973 -0.0032562879 0.11273291
0.063627101 -0.0076522324 0.1134277
0.011117414 0.0088039469 0.11314437
0.010972048 -0.057159118 0.12253415
-0.10014094 -0.035717685 0.12811883
0.038947783 -0.037816197 0.12620375
0.070082761 -0.033942711 0.12450603
-0.069588095 -0.020793552 0.12269419
-0.056427017 -0.020741925 0.12786782
0.079873241 -0.019908773 0.12252365
0.012015178 -0.0085928021 0.12482763
0.053437028 -0.007508886 0.12453459
-0.046208519 0.0019769585 0.12048148
-0.0019994676 0.011806458 0.12167117
-0.010601789 -0.056562845 0.13553263
0.024451092 -0.057809886 0.13465984
0.063496724 -0.054884635 0.13036719
-0.0061552636 -0.044059113 0.13134021
0.0040005981 -0.038538706 0.13931252
0.033649262 -0.038513895 0.13250099
-0.13402553 -0.025545618 0.13268667
-0.048112471 -0.020454282 0.13347504
-0.032883182 -0.021043718 0.13068306
-0.10106617 -0.010265971 0.13715686
0.02840111 -0.017851172 0.13013844
0.063518502 -0.019893812 0.13783109
-0.023098785 -0.0093508493 0.13935499
-0.0078147901 -0.00070065667 0.13665579
0.018897925 -0.0081234965 0.13327457
0.028324936 -0.0095015429 0.13411523
-0.044663884 0.004054823 0.13619298
-0.028322365 0.0063527683 0.13531919
-0.0187285 0.0036804473 0.13203882
0.065654561 0.0090136519 0.13729417
-0.022449441 0.010402616 0.13447157
0.0076717702 -0.055035561 0.14523691
0.019304018 -0.053672481 0.14891091
0.060078599 -0.049750369 0.14950012
0.019981138 -0.035017114 0.14130172
0.069354318 -0.032105755 0.1408187
0.036268737 -0.021516917 0.14745766
-0.082951978 -0.015982037 0.14181344
-0.070795767 -0.013546046 0.14766517
-0.055242751 -0.018869247 0.14845058
0.015984995 -0.012412816 0.14405079
0.02153315 -0.012105524 0.14453232
0.015524695 -0.0097172186 0.1414329
0.03494655 0.010766998 0.14349622
0.054992426 -0.04373733 0.15719052
-0.040406939 -0.037039146 0.15456109
-0.012866987 -0.03339833 0.15244693
0.06816791 -0.035178985 0.15572658
-0.059458971 -0.0278056 0.15466787
-0.037906937 -0.028124135 0.15858294
0.066611767 -0.027673967 0.15558079
-0.086091489 -0.014386471 0.15453133
-0.062188227 -0.015856324 0.15562697
-0.056110658 -0.017935164 0.15840419
0.0081113242 -0.016175473 0.15562168
-0.018807419 -0.0071526878 0.15524139
0.064136542 -0.0041268463 0.15787262
0.0081478301 0.0070237201 0.15145691
0.061087746 -0.03237785 0.1624832
0.039620556 -0.027489472 0.16581342
-0.078382865 -0.014029877 0.16763014
-0.039977632 -0.017762868 0.16270685
0.0031301156 -0.01460591 0.16814803
0.048711374 -0.014712961 0.16476884
-0.017109741 -0.0056880494 0.16869961
0.0042929314 -0.0065440238 0.16984479
-0.11431556 -0.015162282 0.17173214
-0.072239034 -0.01248584 0.17873913
-0.059499998 -0.015835123 0.17878462
-0.045321934 -0.016685838 0.17266926
-0.034468405 -0.016167624 0.17745745
-0.079719104 -0.009982531 0.17937118
-0.05696585 -0.008049692 0.1747659
0.0058852956 -0.0073912325 0.17320897
-0.1211099 -0.013315871 0.19006111
-0.092592925 -0.0089159459 0.19762152
-0.014835231 -0.0042851204 0.19526419
-0.1145126 -0.011697241 0.20927206
-0.069157064 -0.012893481 0.20713219
-0.061661035 -0.0046817376 0.20537785
-0.01376636 -0.0054304413 0.20515744
-0.060470209 -0.011980649 0.2162782
-0.10504223 -0.01081628 0.22128266
-0.11127546 -0.0068361093 0.22578382
-0.04747716 -0.0018274741 0.22520377
-0.035161685 -0.002060215 0.22919475
-0.11354326 -0.0054292842 0.23853256
-0.10908125 -0.0059141978 0.23175976
-0.067180634 -0.0021173309 0.23176679
-0.037699364 -0.0017856171 0.23052904
-0.1383657 -0.0063123507 0.24880508
-0.1291289 -0.0084805796 0.24008055
-0.061007492 -0.008608629 0.24445218
-0.055277556 -0.0081598861 0.24489737
-0.086347699 -0.0045073573 0.25472704
-0.04392501 -0.0048144679 0.25087214
-0.12586692 -0.0057354537 0.26998451
-0.065905519 -0.0059320075 0.26543146
-0.14830373 -0.004325619 0.27977452
-0.13630229 -0.0026492798 0.27439392
-0.12740578 -0.0052236472 0.27496365
-0.090085693 -0.00535593 0.27699265
-0.14439675 -0.0041384273 0.28265917
-0.11104866 -0.0046860226 0.28303289
-0.084154218 -0.0046034344 0.28237998
-0.10110739 0.0018887374 0.28949264
-0.099665746 0.0015944483 0.2858223
-0.14275353 -0.0001086351 0.29879242
-0.11487331 -0.0033681062 0.29574993
-0.070904851 -0.0017622642 0.29053015
-0.096679293 0.0022834241 0.29090023
-0.14658214 -0.0017217558 0.30757827
-0.11094314 -0.0021976577 0.30673099
-0.13942449 0.00051543431 0.30108067
-0.12054366 0.0023538843 0.30527061
-0.10598031 0.0028668405 0.30165237
-0.12428732 -0.0014186907 0.31386381
-0.11803124 0.0036347897 0.31581238
-0.14881645 -0.00023882616 0.32244095
-0.1720558 0.00036527758 0.32383153
-0.14667234 0.0043026409 0.32670987
-0.10708669 0.0056349528 0.32735109
-0.16462724 0.015039992 0.33351129
-0.13103974 0.016380789 0.33184898
-0.12720607 0.018201334 0.33574164
-0.11841476 0.014370293 0.33011773
-0.15351243 0.036445588 0.34602737
-0.13637131 0.032740258 0.34296513
