# .PCD v0.7 - Point Cloud Data file format
VERSION 0.7
FIELDS x y z
SIZE 4 4 4
TYPE F F F
COUNT 1 1 1
WIDTH 786
HEIGHT 1
VIEWPOINT 0 0 0 1 0 0 0
POINTS 786
DATA ascii
-0.081074774 -0.016955692 -0.29419941
-0.076864548 -0.014657086 -0.29550451
-0.074211419 -0.01773777 -0.28426012
-0.068476088 -0.019214155 -0.27850047
-0.062861316 -0.030080974 -0.2438814
-0.048490893 -0.031574912 -0.23678887
-0.029445142 -0.032821644 -0.23054224
-0.045076251 -0.028746696 -0.2342997
-0.056660559 -0.032652959 -0.22799781
-0.034532078 -0.03424447 -0.22179286
-0.040357888 -0.029561382 -0.22802769
-0.05906659 -0.034951273 -0.21249953
-0.049998146 -0.034086797 -0.21162441
-0.053465374 -0.035834335 -0.2051495
-0.032775443 -0.036955107 -0.20358105
-0.021746391 -0.037396122 -0.20251864
-0.015733013 -0.037356738 -0.20453696
-0.0071023605 -0.033757474 -0.20593391
-0.041082524 -0.037357293 -0.1975646
-0.035748038 -0.036244731 -0.19607103
-0.025238978 -0.033826973 -0.19897592
-0.013012848 -0.032778647 -0.19770724
-0.0047023883 -0.036397211 -0.19482994
-0.010595298 -0.039625201 -0.18489185
-0.0039717262 -0.037028566 -0.18494983
-0.020650033 -0.040789165 -0.17132419
-0.011094497 -0.036872167 -0.17182279
-0.0075303223 -0.035420336 -0.17815468
0.0068602576 -0.035504173 -0.1747295
-0.029477634 -0.040821996 -0.16014846
-0.010978807 -0.041742198 -0.16513568
0.0048588803 -0.042145524 -0.16574439
0.012682246 -0.042517487 -0.16444176
-0.028874462 -0.041237015 -0.15689366
-0.015983159 -0.040271308 -0.1539087
0.001070153 -0.042807356 -0.15806213
0.022906538 -0.043819111 -0.15312991
0.011665259 -0.037793379 -0.15034969
-0.015817517 -0.041545764 -0.14466839
0.036847178 -0.040926035 -0.14940864
0.0057301857 -0.038644444 -0.14883174
0.0041348482 -0.041249786 -0.13143025
0.017288677 -0.045454122 -0.13081178
0.03286523 -0.045878448 -0.13126081
0.045198321 -0.042600609 -0.13815568
0.023493093 -0.03803936 -0.13948451
0.035192713 -0.038759254 -0.13333052
0.077805623 -0.072942398 -0.12066396
0.089473501 -0.077091351 -0.1229915
0.092825741 -0.07030692 -0.12269849
0.082501322 -0.065476574 -0.12412111
0.095496014 -0.061392024 -0.12855141
0.1259121 -0.067571595 -0.12576348
0.085130192 -0.052555956 -0.12325182
0.091044247 -0.054094054 -0.12499675
0.12330881 -0.056658328 -0.12603387
0.0044534383 -0.045794085 -0.12177576
0.014519766 -0.04546871 -0.12960088
0.025568541 -0.046368219 -0.12239556
0.057868682 -0.043704432 -0.12194393
0.10811967 -0.084616669 -0.11027782
0.11240187 -0.084022813 -0.11445572
0.097781152 -0.075637966 -0.11853433
0.114947 -0.061282795 -0.11912512
0.081634589 -0.052850589 -0.11963511
0.001134953 -0.046561267 -0.1109018
0.025650334 -0.0431403 -0.11450608
0.053107403 -0.0433513 -0.11967954
0.062383518 -0.046125576 -0.11289178
0.080764882 -0.04731977 -0.11370651
0.096436299 -0.0459501 -0.11308406
0.10284799 -0.046526648 -0.11331192
0.1144065 -0.045837469 -0.11083086
0.12365961 -0.047003403 -0.11086909
0.12318029 -0.081245616 -0.10055201
0.075908154 -0.077153936 -0.10380331
0.10565608 -0.078161381 -0.10497376
0.047259822 -0.063044839 -0.10761293
0.057232395 -0.068643317 -0.10442667
0.11613837 -0.052267656 -0.10465002
0.0074528968 -0.045298278 -0.10568613
0.020885155 -0.047873944 -0.10071956
0.036624573 -0.043694224 -0.10452875
0.047130913 -0.040564738 -0.10098132
0.082649745 -0.048094247 -0.10535237
0.094390854 -0.044001382 -0.10661239
0.083300173 -0.070437722 -0.096932627
0.12382042 -0.075314865 -0.099739641
0.095923245 -0.061627503 -0.095638901
0.10689219 -0.062201288 -0.095815167
0.11582464 -0.066511199 -0.096976928
0.083085045 -0.057631202 -0.096488327
-8.0661848e-05 -0.047614634 -0.095209233
0.0061134719 -0.047583763 -0.098485641
0.0246232 -0.045610808 -0.094679043
0.048025772 -0.040597577 -0.098850667
0.054783978 -0.049418617 -0.092369393
-0.003594412 -0.046690434 -0.089219712
0.002426309 -0.046279244 -0.085441083
0.038424134 -0.042584911 -0.082915828
0.040447567 -0.049653426 -0.08228115
0.051661331 -0.040947035 -0.086612388
-0.36426425 -0.013757857 -0.087770768
-0.35308036 -0.015798219 -0.082180478
-0.00079040206 -0.04695265 -0.079925418
0.029080225 -0.044269349 -0.071544908
0.032985117 -0.043817032 -0.072123952
0.043631833 -0.042463645 -0.075694814
0.05163499 -0.041810114 -0.072345391
0.064578757 -0.040458515 -0.073769629
0.079627246 -0.042066179 -0.07601206
-0.36190307 -0.017471446 -0.074625865
-0.35109448 -0.017644463 -0.078108944
-0.3455413 -0.017750299 -0.077201016
0.0039375322 -0.087996393 -0.061398823
0.014092511 -0.050205551 -0.061887618
0.047719233 -0.051128075 -0.062956087
0.071105383 -0.051757306 -0.063888289
-0.0092122648 -0.048652142 -0.066696115
0.012878746 -0.047641173 -0.062407043
0.028131561 -0.044491045 -0.069550015
0.036106985 -0.043896981 -0.065263726
0.04761311 -0.042626441 -0.065937035
0.057700157 -0.041750379 -0.062583894
0.080305979 -0.041357391 -0.061490964
-0.35454738 -0.018585093 -0.063757941
-4.6954912e-05 -0.081664868 -0.051441528
0.019687001 -0.082458213 -0.058368228
0.024189975 -0.083396092 -0.057896856
0.0047634044 -0.075122654 -0.0546619
0.024856297 -0.079893716 -0.051413041
0.0082113268 -0.067738667 -0.054911748
0.010685597 -0.050472826 -0.056246929
0.059972994 -0.051887549 -0.056853395
0.064452745 -0.052218527 -0.053804614
0.07553643 -0.052571181 -0.05341164
0.081994973 -0.041238233 -0.055606212
-0.35515472 -0.018938402 -0.05321908
-0.33361733 -0.015871357 -0.058092438
0.022998329 -0.080830626 -0.048584659
0.0049646664 -0.061267819 -0.041453071
-0.010269227 -0.050987348 -0.040014848
-0.0099777617 -0.050761301 -0.043556277
0.014480442 -0.051171347 -0.047251422
0.068764739 -0.052706845 -0.048266917
0.093835622 -0.053463563 -0.045301281
0.0058442224 -0.048544075 -0.041815966
0.054098617 -0.043404467 -0.041536547
0.094125152 -0.04224718 -0.047637306
0.10687523 -0.044898141 -0.048493315
-0.34728438 -0.021746933 -0.041643832
-0.0097776791 -0.051464841 -0.032875337
0.0037658128 -0.057306699 -0.031681698
0.013189313 -0.058026306 -0.031607378
0.09910021 -0.053944714 -0.037953679
0.10782842 -0.052433923 -0.039744917
-0.0129594 -0.041544199 -0.030297
-0.00094833632 -0.049619835 -0.035914898
0.0080029136 -0.048551247 -0.037895627
0.045207068 -0.044486903 -0.039347772
0.059733462 -0.043439269 -0.030970067
0.10329492 -0.042802233 -0.037794549
0.067196921 -0.039464165 -0.031223174
-0.35020468 -0.02196601 -0.03482002
-0.34654588 -0.022313047 -0.036024049
0.0095918709 -0.06411963 -0.021260591
0.025792275 -0.064029269 -0.022950698
0.055455267 -0.06304796 -0.024470035
0.066453993 -0.060170121 -0.026548941
-0.18352842 -0.050653666 -0.02223048
-0.10687989 -0.052189991 -0.021006901
-0.037104882 -0.056748524 -0.027002802
-0.0069181304 -0.050975382 -0.024052218
0.0071424842 -0.052402351 -0.02505186
0.018828027 -0.051544514 -0.021546733
0.045493722 -0.053600684 -0.024028288
0.078472055 -0.054437604 -0.026116109
0.097664334 -0.059730068 -0.021411408
0.11213201 -0.057715755 -0.021627866
0.24430153 -0.052670259 -0.020514598
0.29073024 -0.052035809 -0.021129278
0.31430283 -0.052152082 -0.020423848
-0.19439349 -0.041760128 -0.027477356
-0.18224481 -0.048234612 -0.024086669
-0.1683531 -0.043410085 -0.026793959
-0.083731391 -0.044879593 -0.0261853
-0.046768971 -0.048033554 -0.025195107
-0.038546968 -0.046882372 -0.025124265
0.0093704024 -0.046675637 -0.025282895
0.046363868 -0.045415431 -0.021897821
0.054744642 -0.049160991 -0.023375859
0.081169933 -0.049911357 -0.022800062
0.10716486 -0.04247836 -0.023375386
0.1251042 -0.044023119 -0.027973212
0.13898046 -0.046599586 -0.025162868
0.18089125 -0.040620435 -0.027949423
0.19130936 -0.046036862 -0.025706004
0.22654834 -0.046666507 -0.025073491
0.27325737 -0.047148965 -0.024919707
0.30255699 -0.042380791 -0.026742414
-0.26603866 -0.032843824 -0.02154994
-0.22715327 -0.037900463 -0.025587644
-0.15547185 -0.031558909 -0.029575147
-0.10584642 -0.03967268 -0.028341964
-0.091157511 -0.034832284 -0.0291439
-0.083757848 -0.034079414 -0.029243054
-0.01663854 -0.037837338 -0.028748414
-0.0053026206 -0.036429863 -0.029046871
0.015133086 -0.036579624 -0.029060278
0.027688112 -0.035564207 -0.029469045
0.05621466 -0.039728057 -0.028319078
0.061390411 -0.036810715 -0.02888344
0.07706897 -0.037630673 -0.028775413
0.1043214 -0.035914704 -0.029644921
0.12748443 -0.035525482 -0.029052893
0.14458185 -0.03736461 -0.028720383
0.19896951 -0.031549498 -0.029576316
0.20878406 -0.032178331 -0.029493602
0.22666927 -0.033195537 -0.029359423
0.23755005 -0.031195257 -0.029560944
0.26495904 -0.031890519 -0.029531376
0.29135185 -0.033759937 -0.02918255
0.31534249 -0.037871994 -0.027512334
-0.30701482 -0.024659012 -0.023301609
-0.25062498 -0.021793369 -0.022910424
-0.20497853 -0.021952622 -0.027253164
-0.18061395 -0.027309729 -0.029049337
-0.11888306 -0.028573871 -0.029215656
-0.06501995 -0.025626175 -0.028827745
0.12485874 -0.024464399 -0.028674647
0.16447452 -0.021177163 -0.027508758
0.17713198 -0.021701606 -0.027725892
0.20014304 -0.025756281 -0.028844591
0.23554644 -0.025156343 -0.028765604
0.2618553 -0.026425131 -0.028932881
0.2927444 -0.027701413 -0.028882129
0.32426131 -0.029184887 -0.02613299
-0.12340136 -0.011009189 -0.02131038
-0.10972903 -0.011502269 -0.021688754
-0.091088653 -0.017229289 -0.025873413
-0.0805538 -0.018832806 -0.026537595
-0.078251593 -0.019948123 -0.02699957
-0.054777574 -0.016279185 -0.025354374
-0.04406175 -0.014767163 -0.024194079
-0.0159391 -0.01702999 -0.025768824
0.009391767 -0.014249443 -0.023687072
0.077435315 -0.017064556 -0.025805138
0.082237341 -0.018612629 -0.026446356
0.1087172 -0.015622443 -0.02485026
0.11577085 -0.010866976 -0.021201249
0.16807199 -0.017254774 -0.025884084
0.1706616 -0.013178969 -0.0229754
0.19367288 -0.015186399 -0.024250239
0.21881822 -0.018505726 -0.026402183
0.22692791 -0.012129621 -0.022170164
0.27883372 -0.012624794 -0.022550143
0.1796519 -0.009997556 -0.0202615
0.043451231 -0.064091012 -0.018696317
0.070465975 -0.06344258 -0.018952936
-0.21597129 -0.051576994 -0.018978819
-0.20183092 -0.056493841 -0.014507003
-0.19856536 -0.055658683 -0.016078308
-0.14102279 -0.057412084 -0.013941785
-0.13196075 -0.058084317 -0.012319051
-0.11325718 -0.058307517 -0.011780252
-0.031616937 -0.057083625 -0.014734663
-0.023981219 -0.058506127 -0.011300822
-0.0038406178 -0.05759687 -0.013495715
0.069706485 -0.053487461 -0.019449633
0.10091087 -0.055887934 -0.014027222
0.1847662 -0.057189897 -0.014478149
0.19109742 -0.055764824 -0.016481604
0.23654613 -0.054242082 -0.018466158
0.25060451 -0.058417238 -0.011515385
0.27591252 -0.055796623 -0.01644012
0.28203833 -0.056152172 -0.015976733
0.31737629 -0.05742671 -0.013346913
-0.27837998 -0.041860629 -0.013549674
-0.24519737 -0.048228242 -0.015560281
-0.33423865 -0.025293475 -0.013607753
-0.30438733 -0.025502542 -0.015581877
-0.27990341 -0.016521713 -0.015212784
-0.2298781 -0.011559727 -0.019095352
0.32465953 -0.013253324 -0.017087948
0.33450386 -0.016845787 -0.017500902
-0.2369079 -0.0079200342 -0.013630094
-0.15957035 -0.0086430367 -0.018496195
-0.14365569 -0.0054703578 -0.013991063
-0.11496142 -0.0071098884 -0.016498091
-0.1082989 -0.0089198686 -0.018856984
-0.094502464 -0.0066010249 -0.015559966
-0.030243717 -0.0040555298 -0.010575667
0.0031012893 -0.0093177967 -0.019375589
0.028564878 -0.0097620115 -0.019954521
0.033708096 -0.0047846599 -0.012335787
0.060007989 -0.0039543454 -0.010331407
0.071379788 -0.0039653834 -0.010358052
0.098416775 -0.0072393822 -0.016666856
0.16591159 -0.0063720206 -0.015536448
0.177325 -0.0045620063 -0.011798302
0.19362167 -0.005440678 -0.013919415
0.22342792 -0.007736058 -0.017314158
0.27227181 -0.0054321657 -0.013898867
0.28435954 -0.003936246 -0.010287717
0.31761533 -0.0084644621 -0.012766942
0.3202329 -0.0084432308 -0.011438714
-0.19835038 -0.060406405 -0.0021414571
-0.10708582 -0.060317993 -0.0053557665
-0.063884035 -0.060539089 -0.0036762517
-0.041361969 -0.060487304 -0.0040695178
-0.026055362 -0.060716141 -0.0023510272
-0.012774864 -0.06276761 -0.0012616043
0.028006513 -0.062373303 -0.0062439614
0.037912861 -0.064559795 -0.0028522615
0.045594327 -0.064512454 -0.0030637423
0.052738152 -0.064196795 -0.0090246759
0.084157854 -0.061803397 -0.0055088252
0.15708902 -0.060458831 -0.0042855316
0.16177706 -0.060799778 -0.0016961232
0.21863995 -0.060159255 -0.006560809
0.23865378 -0.060433771 -0.0044758678
0.32101732 -0.060282044 -0.0013536921
-0.22727916 -0.056200735 -0.0072599361
-0.21175078 -0.058775075 -0.0052758208
-0.2092144 -0.05964743 -0.00040183205
-0.16219904 -0.059757598 -0.0082798302
-0.098964028 -0.059803668 -0.0081686126
-0.038339712 -0.0590945 -0.0098805036
-0.014752571 -0.059428487 -0.0090742875
0.073673174 -0.059740387 -0.0083213737
0.13320622 -0.059896022 -0.0079456707
0.17533416 -0.059356544 -0.0092479438
0.22901401 -0.059193045 -0.0096426178
0.31877586 -0.05972071 -0.0073449998
0.32935336 -0.058965009 -0.0035113606
0.34267211 -0.055095538 -0.0061155772
-0.2657682 -0.04893462 -0.0071043018
-0.35291135 -0.021648357 -0.0037760662
-0.33715796 -0.021855641 -0.0073293257
0.35535988 -0.024715981 -0.0087088645
-0.30905572 -0.014774818 -0.0059856805
-0.29643983 -0.01160467 -0.0013587141
0.34404773 -0.016560189 -0.0091169178
-0.29798716 -0.0069090491 -0.0034303507
-0.26379547 -0.0081205368 -0.0098475534
-0.23443142 -0.0046085468 -0.0066173184
-0.19424374 -0.0028646523 -0.0073080119
-0.16185196 -0.0030015935 -0.0065426813
-0.14343488 -0.002808372 -0.0073634009
-0.071971275 -0.0028243018 -0.0074844039
-0.017095894 -0.0030165631 -0.0066171256
0.006463143 -0.0024645345 -0.0047515621
0.034864366 -0.0022545268 -0.0031563162
0.072900079 -0.0022996161 -0.0034988204
0.088430978 -0.0031220787 -0.0073659914
0.10914206 -0.0021820446 -0.0026057311
0.13740152 -0.0023307826 -0.0037355663
0.15620717 -0.0022093239 -0.0028129485
0.16051918 -0.0020526042 -0.0016224841
0.20496987 -0.002042355 -0.0015446303
0.25285271 -0.0027985757 -0.0062024537
0.26645115 -0.0020160503 -0.0013448161
0.27435961 -0.0021403003 -0.0022886365
0.30224562 -0.0043987106 -0.0078590643
-0.34411138 0.0085283089 -6.4397405e-05
-0.33871043 0.0094817635 -0.00053839281
-0.31724015 0.010350087 -0.002338314
-0.29082665 0.018923717 -0.0047695213
-0.28286386 0.016388381 -0.0037511447
-0.29903927 0.023315277 -0.0042178091
-0.31854326 0.036027692 -0.0029731146
-0.33399644 0.047918621 -0.0020396528
-0.33368599 0.054457583 -0.002254508
-0.31808257 0.050278194 -0.0034234975
-0.34234285 0.063899659 -0.0018120948
-0.33875901 0.068437696 -0.0022395239
-0.32093242 0.06234109 -0.0013314569
-0.36345041 0.070354015 -0.00025387073
-0.34804106 0.078231044 -0.0017554997
-0.33527735 0.078855492 -0.00066552247
0.31140736 -0.084422782 0.0045468681
-0.19253582 -0.060389794 0.0048105074
-0.10126179 -0.060288101 0.005582789
-0.090423524 -0.060213692 0.0061479802
-0.070316844 -0.06010624 0.0069641341
-0.035589252 -0.060048889 0.007399661
-0.0055241948 -0.063470833 0.0036900851
0.083690889 -0.063578472 0.00071501022
0.10411232 -0.060903795 0.00090609322
0.13903779 -0.060969427 0.00040764725
0.18444815 -0.060136799 0.0067314631
-0.22962838 -0.056211349 0.0045343698
-0.2195278 -0.058409344 0.0017558325
0.26130566 -0.059496004 0.0089113824
0.31924361 -0.059549533 0.0076036099
0.3288641 -0.058480404 0.0066040736
0.3484188 -0.052511211 0.0092090108
-0.33703727 -0.032428592 0.0027453408
-0.3130081 -0.03471452 0.0092741931
-0.32927388 -0.023368556 0.0090535004
0.3593297 -0.025027085 0.0010167368
-0.33825025 -0.017555583 0.00016149561
-0.32378647 -0.011999642 0.0011508662
-0.31496513 -0.016396236 0.0067418511
-0.31366584 -0.0071456828 0.0021279454
-0.26977307 -0.0066971392 0.0016443097
-0.25702357 -0.0069122212 0.0081629138
-0.21562195 -0.0034647626 0.0067916024
-0.20275785 -0.003481206 0.0084176874
-0.19721206 -0.0022740215 0.002629857
-0.16152932 -0.0019221024 0.00063118734
-0.12884757 -0.0024011566 0.0042701461
-0.10706741 -0.0029069383 0.0078029833
-0.03366727 -0.0019856016 0.0011135361
-0.0041059777 -0.0026695293 0.0063087423
0.063832968 -0.0024135862 0.0043645641
0.075015679 -0.0020836464 0.0018582959
0.104591 -0.0018659853 0.00020491377
0.12534747 -0.0020604699 0.0016822456
0.16071716 -0.0023653188 0.0039979201
0.17855045 -0.0021309871 0.0022179028
0.18835017 -0.0024617007 0.0047300477
0.19757111 -0.0018894904 0.00038346156
0.22202364 -0.0035732561 0.0094115632
0.32634535 -0.0076530199 0.0034777073
-0.33931682 0.0081106573 0.00044876308
-0.32484254 0.0019433708 0.0014670726
-0.30920765 0.0010242284 0.0027326222
-0.29259622 0.008793951 0.0043307943
-0.28896129 0.0098007564 0.0046601496
-0.33120391 0.010915194 0.0012006249
-0.32922581 0.015437024 0.0014948064
-0.33508107 0.031378407 0.0014718618
-0.35065272 0.040673994 0.00045361466
-0.32669526 0.048465259 0.0026595548
-0.35227585 0.05808758 0.0008233533
-0.32438639 0.056647237 0.0030869227
-0.36129564 0.063966781 0.00024765244
-0.34023219 0.065885216 0.0020444137
-0.33011001 0.066554382 0.0028535589
-0.33344221 0.070895381 0.0025439842
0.019880217 -0.064347252 0.015696503
0.034786776 -0.064313054 0.0149418
0.047408309 -0.064340547 0.010459589
0.09036155 -0.062145002 0.019593049
0.11611123 -0.062340602 0.01402749
-0.23695219 -0.052301437 0.012226197
-0.22411481 -0.052055877 0.016405882
-0.2169804 -0.05393317 0.015768034
-0.19554052 -0.053218484 0.019679345
-0.18767731 -0.054104347 0.018645974
-0.16264398 -0.053199064 0.019825775
-0.13469543 -0.054613672 0.017982151
-0.11723297 -0.059044562 0.010001191
-0.053380564 -0.058457725 0.011417869
-0.040264472 -0.057021778 0.012406275
-0.014831575 -0.055516571 0.016805388
-0.0098132715 -0.056507654 0.015513785
0.0076185344 -0.052847691 0.018437836
0.037254274 -0.056130905 0.01600476
0.045333002 -0.054077387 0.016644863
0.074716948 -0.055775505 0.017516
0.08470168 -0.056724835 0.015230766
0.10704438 -0.055901583 0.016593397
0.1546209 -0.057820626 0.012955893
0.19500364 -0.056670077 0.015302124
0.20046265 -0.054665633 0.017914269
0.25006279 -0.05582102 0.0164086
0.29091161 -0.057541434 0.013613241
0.3169319 -0.053960599 0.018250607
0.32674998 -0.056761473 0.011845462
-0.27026361 -0.043092422 0.015009673
0.0064360965 -0.049803179 0.01986728
0.033339415 -0.046935782 0.019773591
0.047349393 -0.045550577 0.017909665
0.055150688 -0.044683691 0.018456478
0.11155396 -0.042590037 0.015831834
0.34556732 -0.047938734 0.015731994
-0.30402589 -0.036604736 0.010374296
-0.33612022 -0.022898758 0.014700265
-0.32696742 -0.020225007 0.018366387
-0.30334437 -0.025263036 0.019147325
0.34140539 -0.018967254 0.014938019
-0.23769009 -0.0063723112 0.010376479
-0.20051809 -0.0056758001 0.013929459
-0.15431327 -0.0095107229 0.019627422
-0.1346371 -0.0053587207 0.013721913
-0.063725069 -0.0066145374 0.015598679
-0.058409467 -0.0096820332 0.019850686
-0.046774484 -0.0047961827 0.012363871
-0.026689483 -0.0097338408 0.019918207
-0.018088233 -0.0039267857 0.010265031
-0.0073244423 -0.0051375702 0.013188025
0.0031638034 -0.0056176428 0.014346986
0.024523288 -0.0043902174 0.011383816
0.04239957 -0.0070867371 0.016468318
0.083394252 -0.0080277417 0.017694701
0.10383927 -0.0090668583 0.019048948
0.12702882 -0.0044290009 0.011477444
0.19936229 -0.0094509777 0.019549562
0.24745712 -0.0043886872 0.011380123
0.3004266 -0.0068494771 0.014268862
0.07824932 -0.063279204 0.020135703
-0.11369471 -0.052748822 0.020412531
-0.096202813 -0.050181411 0.022593109
-0.031307884 -0.058985926 0.027536165
0.0068895188 -0.052315332 0.026272383
0.028537992 -0.05293519 0.026562156
0.068334512 -0.055292938 0.02931677
0.073080957 -0.054077465 0.029199952
0.082804039 -0.054636505 0.025026157
0.093413994 -0.053184744 0.028333096
0.11635379 -0.052612543 0.022434205
0.17817858 -0.052196905 0.021046698
0.2468822 -0.051622704 0.02148727
-0.23226972 -0.04333932 0.02268636
-0.19879885 -0.046591043 0.024934329
-0.12815648 -0.047223441 0.024862619
-0.11314107 -0.043677114 0.026683494
-0.10468931 -0.048268355 0.024060909
-0.052055605 -0.044112623 0.026503015
-0.017630856 -0.044385046 0.026390176
0.0059691127 -0.046394072 0.026466127
0.025745861 -0.045553744 0.025906088
0.042271361 -0.04905092 0.023460481
0.056287058 -0.049932376 0.022784179
0.088007405 -0.043686457 0.026679538
0.11642641 -0.047954716 0.026315665
0.14582087 -0.044021882 0.0265406
0.17569833 -0.045912061 0.025314858
0.18228266 -0.046193335 0.025641169
0.21456011 -0.046208329 0.025634952
0.22150066 -0.047688242 0.024506297
0.24736148 -0.042824991 0.02703657
0.25563574 -0.045903414 0.025217161
0.26603734 -0.049934074 0.022782879
0.30710903 -0.049353939 0.022759445
0.33394924 -0.044387937 0.021999869
-0.2649838 -0.031632639 0.021765567
-0.24568157 -0.035342153 0.023871956
-0.23701218 -0.0305555 0.025666159
-0.17084184 -0.036867406 0.028876374
-0.16389306 -0.03868591 0.028636999
-0.11640393 -0.039356425 0.02847337
-0.069581538 -0.03384655 0.029274011
0.003288999 -0.036573507 0.029591145
0.038386382 -0.034160074 0.029074654
0.046861187 -0.032727376 0.029421337
0.066449732 -0.03549052 0.029896209
0.074152365 -0.039315857 0.028490188
0.098315544 -0.03537593 0.029072793
0.1092093 -0.035984479 0.028992688
0.15531865 -0.037873954 0.028743956
0.20915481 -0.03529061 0.02908404
0.23704931 -0.036249168 0.02895776
0.2429029 -0.030835206 0.029513596
0.29299375 -0.031079004 0.029311482
0.31339437 -0.03380122 0.028140206
0.34329188 -0.037140764 0.020910572
-0.34187374 -0.021636091 0.02548128
-0.26343301 -0.021977106 0.021589572
-0.20439392 -0.02027927 0.026593283
-0.16860273 -0.020724613 0.027321534
-0.13917255 -0.024974741 0.02874214
-0.1239877 -0.025842346 0.028856251
-0.099763364 -0.02501848 0.028747952
-0.065215938 -0.025081791 0.028756132
-0.052590724 -0.023544131 0.028435947
-0.038506582 -0.029563487 0.02934619
-0.029338088 -0.023959503 0.028608469
0.067212269 -0.023301633 0.028388966
0.075375728 -0.025643568 0.028830132
0.10009999 -0.023716729 0.028560881
0.12870908 -0.023721144 0.028562687
0.13795049 -0.023472641 0.028266482
0.17811972 -0.027528429 0.029078126
0.18778656 -0.026972244 0.02897954
0.21048218 -0.022942908 0.028240284
0.23017757 -0.027819399 0.029116658
0.26963177 -0.028278528 0.02917696
0.30602109 -0.02764621 0.028060503
-0.32138163 -0.019165954 0.023915108
-0.19195393 -0.015496265 0.024753697
-0.18772173 -0.013939137 0.023558907
-0.16719589 -0.011457682 0.021654848
-0.14342594 -0.018852711 0.026545983
-0.1064792 -0.015154194 0.024353728
-0.07418257 -0.018996948 0.026605779
-0.053935327 -0.010322919 0.020685935
-0.046265908 -0.014205908 0.023763545
-0.036463782 -0.012759494 0.02265361
-0.025992876 -0.017809009 0.026113689
-0.013468189 -0.014201293 0.023760039
0.0353305 -0.015648171 0.024870204
0.055829335 -0.014022181 0.023622388
0.076528631 -0.019962173 0.027005658
0.099041201 -0.012218101 0.022238232
0.1189329 -0.01884133 0.026541453
0.12316757 -0.015261221 0.024573024
0.13595313 -0.010532372 0.020944878
0.23105918 -0.010748832 0.021110954
0.27070844 -0.01979072 0.026934752
0.28341383 -0.01877391 0.026513502
0.31363618 -0.016665526 0.022977021
0.057719264 -0.0098992381 0.020133765
0.007157282 -0.061744753 0.030627619
0.02874513 -0.060651615 0.030742221
0.0060882173 -0.059831534 0.039544135
0.015165295 -0.052645426 0.032842077
0.033064477 -0.055576004 0.033208691
0.042862315 -0.053004593 0.031979702
0.053127725 -0.052469406 0.033176783
0.094863154 -0.054272246 0.036069259
0.023602588 -0.047079064 0.034658566
0.037171192 -0.042435721 0.032001711
0.057280131 -0.043628067 0.032188267
0.060245473 -0.043385573 0.030952932
-0.33343574 -0.023465626 0.033923682
-0.32440388 -0.023768563 0.031898919
-0.32040751 -0.018590938 0.030382156
0.0051633581 -0.084058054 0.049760364
0.022121347 -0.084201247 0.047876272
0.0039882082 -0.079911813 0.049707394
-0.0025800727 -0.050564431 0.04884284
0.027640833 -0.051500704 0.048156109
0.070684418 -0.053057265 0.043761715
0.066534303 -0.041718997 0.047443405
0.078040369 -0.040928278 0.040145136
-0.34807611 -0.021321639 0.048399404
-0.0079488205 -0.083750777 0.0562828
0.004997822 -0.081264123 0.057454634
0.019843694 -0.081175983 0.051491573
0.0046526813 -0.073299661 0.05674497
0.0049247071 -0.064236477 0.054857012
0.01281899 -0.053150352 0.056455813
0.069165803 -0.052295275 0.054760553
0.093533359 -0.051411491 0.058725294
0.042538367 -0.044107571 0.050369907
0.051516954 -0.042682916 0.058079846
-0.34966603 -0.020449944 0.057318069
-0.0086420644 -0.084518857 0.062278315
0.02261867 -0.085697129 0.063090011
0.034082808 -0.050667297 0.063852623
0.054842543 -0.051340044 0.06292899
0.077987969 -0.052083217 0.06200457
-0.0030350043 -0.049268577 0.068507701
0.015818639 -0.045933049 0.067462794
0.074556209 -0.040625274 0.060599193
-0.35838872 -0.016771514 0.069414742
-0.34056008 -0.015207419 0.067384049
-0.33279788 -0.017852437 0.065662026
0.066774949 -0.051199462 0.070484184
-0.0071322005 -0.048489399 0.079123884
0.030093301 -0.04994785 0.073080979
0.056130558 -0.041160598 0.075147696
0.086823195 -0.043668836 0.076246485
-0.36386889 -0.017101841 0.077777229
-0.35370705 -0.014802422 0.075964466
-0.34402347 -0.017879916 0.079252928
-0.012569752 -0.04784359 0.086105727
-0.007474245 -0.047752533 0.086416282
0.02343981 -0.045638647 0.084328569
0.04378764 -0.045673497 0.087316215
0.060858842 -0.040388484 0.086195938
0.081021026 -0.049548805 0.080521509
-0.36996126 -0.015109239 0.089563347
-0.34569138 -0.01735387 0.081930503
0.11319143 -0.080733269 0.098172516
0.12634629 -0.077025101 0.099979021
0.079445392 -0.062029652 0.095233694
0.088314429 -0.060290419 0.095747545
0.1047663 -0.065321736 0.090435728
0.12672719 -0.067313887 0.092313573
0.080899775 -0.050737515 0.099438876
0.092619985 -0.057796653 0.094637319
0.10680141 -0.059124015 0.096790582
0.11050466 -0.05152002 0.095764063
0.12718013 -0.057554059 0.095138825
-0.010066149 -0.047118835 0.093660936
0.0069751111 -0.045431018 0.09146525
0.016429042 -0.046280768 0.093432598
0.043808583 -0.049019128 0.093529984
0.057010368 -0.040662739 0.099655852
0.071307972 -0.042239934 0.094353519
-0.37065485 -0.015099211 0.0901751
0.11457743 -0.077792615 0.10865271
0.12512983 -0.075828947 0.10033438
0.024371352 -0.052281857 0.10997985
0.094873451 -0.053350806 0.10040431
0.10878158 -0.050928377 0.10856849
0.11494701 -0.057535537 0.10470778
0.0011771806 -0.046716183 0.10897043
0.012359081 -0.045395132 0.10600365
0.024025071 -0.045883156 0.10519455
0.040137373 -0.045289382 0.10621762
0.053175669 -0.044615217 0.105559
0.067158647 -0.048493721 0.10590929
0.071795397 -0.046802256 0.10502648
0.095390327 -0.048298813 0.10004773
0.12565975 -0.047351379 0.10825984
0.11850194 -0.083099358 0.11641039
0.12111697 -0.083957046 0.11196697
0.074391022 -0.076081142 0.11715867
0.026891155 -0.052702092 0.11013108
0.048121277 -0.054536927 0.11144289
0.055777282 -0.0554692 0.11101197
0.06537623 -0.053419631 0.11213964
0.071274713 -0.051991519 0.11251335
0.11097065 -0.051058039 0.110539
0.12087163 -0.054544926 0.11884384
0.0056897225 -0.043339666 0.11529025
0.017241469 -0.044417251 0.1152228
0.023822259 -0.041640587 0.11348531
0.035922185 -0.046803124 0.11456522
0.077001259 -0.0436689 0.11347605
0.085455313 -0.048131254 0.11651029
0.10449291 -0.046288799 0.11426878
0.11339842 -0.048298456 0.11937019
0.11726224 -0.070014946 0.12300333
0.069785304 -0.062595911 0.1209381
0.083818987 -0.066000171 0.12732667
0.10015514 -0.060758635 0.12349996
0.11328666 -0.068685606 0.12873392
0.12307143 -0.062787384 0.12347535
0.084365971 -0.055779599 0.12513971
0.091250405 -0.052245125 0.12372006
0.10466421 -0.053373784 0.12208723
-0.010812899 -0.044324834 0.12091354
0.016023027 -0.04407664 0.12752807
0.023333481 -0.046290569 0.12254204
0.040512931 -0.046444897 0.12697951
-0.018062936 -0.043988116 0.13611837
-0.0064310781 -0.042969055 0.13689199
0.0057471767 -0.044588841 0.13740416
0.019836277 -0.045006283 0.13738732
0.044772852 -0.041938558 0.13575931
0.024630437 -0.038299229 0.1367529
-0.023208413 -0.042634636 0.14254351
-0.013126766 -0.043086529 0.14928184
0.002964396 -0.043955296 0.14433497
-0.031279296 -0.042330973 0.15094835
-0.012972135 -0.04273029 0.15381749
-0.0004589064 -0.042801768 0.15756467
0.0084246788 -0.042914763 0.15944253
0.023882024 -0.04401638 0.15133315
-0.0035486647 -0.038477767 0.15707831
0.010264239 -0.037054971 0.15670785
0.025325898 -0.037877224 0.15530837
-0.028277677 -0.041004069 0.16723314
0.01905534 -0.040887218 0.16938888
-0.041249029 -0.039694898 0.17613497
-0.017670874 -0.036315806 0.17934528
-0.0042698546 -0.035778891 0.17393473
0.014262935 -0.038969986 0.17836398
-0.0015971396 -0.034337003 0.18496954
-0.04031961 -0.035317693 0.19980283
-0.032142624 -0.035323627 0.1945208
-0.021824185 -0.034524724 0.19264263
-0.011490023 -0.036945984 0.20620668
-0.0073974249 -0.03369071 0.20612486
-0.046114534 -0.033122119 0.21418078
-0.029618915 -0.030820707 0.21656123
-0.016432377 -0.036540635 0.21010166
-0.063477851 -0.033244193 0.22294939
-0.05595167 -0.032988798 0.22590384
-0.058953863 -0.030747101 0.23199396
-0.033091478 -0.032952845 0.230672
-0.02713711 -0.032228064 0.23114067
-0.057327185 -0.029012352 0.23934585
-0.041455071 -0.030744933 0.24370509
-0.061956272 -0.02956566 0.24679622
-0.052032877 -0.028263353 0.24015872
-0.043775003 -0.026239399 0.24978442
-0.06610848 -0.025879603 0.25518602
-0.055827778 -0.024061419 0.25764516
-0.06445948 -0.025563251 0.26458383
-0.054402135 -0.024816342 0.26334614
-0.06522537 -0.021984661 0.27878952
-0.084397286 -0.020043008 0.28101549
-0.091680788 -0.01925575 0.28554916
-0.082979858 -0.018502127 0.28923768
-0.069497116 -0.0185654 0.28123027
-0.078779593 -0.018375313 0.29012033
-0.096050516 -0.013647377 0.30217397
-0.10034392 -0.0080395527 0.31145266
-0.099241324 -0.0084902458 0.31090122
