# .PCD v0.7 - Point Cloud Data file format
VERSION 0.7
FIELDS x y z
SIZE 4 4 4
TYPE F F F
COUNT 1 1 1
WIDTH 916
HEIGHT 1
VIEWPOINT 0 0 0 1 0 0 0
POINTS 916
DATA ascii
-0.20522964 0.049939554 -0.37167463
-0.1974788 0.054788295 -0.3753944
-0.18438375 0.049578123 -0.36301944
-0.21245003 0.059845604 -0.36632377
-0.23850511 0.050568175 -0.35303834
-0.21928036 0.043206632 -0.33579805
-0.26529554 0.057949249 -0.33454931
-0.17277762 0.038047887 -0.32447132
-0.15631241 0.038381454 -0.32891932
-0.22216047 0.059855726 -0.32440352
-0.23300046 0.062005635 -0.32044756
-0.17550236 0.036342744 -0.31562066
-0.15223771 0.034021631 -0.31118506
-0.26920953 0.040918417 -0.31086227
-0.25350612 0.040107809 -0.31145197
-0.23903848 0.040076111 -0.31538469
-0.29286301 0.055966668 -0.31789929
-0.19086708 0.050509736 -0.31648299
-0.28690386 0.069274403 -0.31264797
-0.221258 0.0359479 -0.3008365
-0.19156592 0.034691364 -0.30326048
-0.17346677 0.034701068 -0.30841425
-0.15111828 0.032179259 -0.30276892
-0.14795135 0.03504673 -0.30489364
-0.25817159 0.03733233 -0.29698071
-0.22808595 0.03424897 -0.29085734
-0.20745786 0.032910932 -0.29033709
-0.18646164 0.032648638 -0.2950193
-0.16201784 0.040177189 -0.29647958
-0.19639386 0.050903887 -0.29853368
-0.294568 0.066180907 -0.29440868
-0.16862592 0.028822348 -0.28191766
-0.15325525 0.036779445 -0.28581712
-0.16527751 0.04091299 -0.28750318
-0.26465976 0.062068425 -0.28570715
-0.13509381 0.029891711 -0.27438295
-0.25358737 0.032009356 -0.27304569
-0.15444589 0.036698185 -0.27274153
-0.28128612 0.048025869 -0.2735489
-0.18519731 0.045730192 -0.27145183
-0.26464173 0.059224356 -0.27064103
-0.24736379 0.057446744 -0.2708692
-0.2586382 0.060057025 -0.27809232
-0.22820944 0.028300522 -0.2626293
-0.17970118 0.024860136 -0.26001284
-0.15587869 0.023960758 -0.26247311
-0.19345671 0.047157008 -0.26532573
-0.27381402 0.052818347 -0.26065734
-0.26636493 0.058107045 -0.2643964
-0.15602374 0.023381313 -0.25968587
-0.27277538 0.047133315 -0.25958017
-0.20472683 0.048591755 -0.25677103
-0.25389084 0.056123707 -0.25964552
-0.23957087 0.05344972 -0.25312057
-0.13547985 0.029081566 -0.24093455
-0.12483201 0.025495097 -0.24272946
-0.14078315 0.031063104 -0.2460933
-0.19388974 0.044960871 -0.2451532
-0.10328351 0.016046984 -0.23980802
-0.21281123 0.020874731 -0.23177965
-0.20710324 0.019042088 -0.22470458
-0.19620931 0.019249268 -0.22876084
-0.16733572 0.017409666 -0.2281903
-0.12692432 0.014475289 -0.22568712
-0.13405119 0.027743101 -0.2233294
-0.14587203 0.031320754 -0.22456612
-0.24344537 0.048510082 -0.22533676
-0.22353424 0.047316436 -0.22887419
-0.2116341 0.045901105 -0.22968109
-0.20439385 0.017072035 -0.21613203
-0.1737441 0.01527219 -0.21625103
-0.24668619 0.025542669 -0.21888161
-0.12374412 0.024243478 -0.21810001
-0.17351463 0.037394457 -0.21711403
-0.13608144 0.011025378 -0.2067517
-0.18941268 0.038594931 -0.2041795
-0.22123653 0.014018741 -0.19690801
-0.23266284 0.022747939 -0.19601396
-0.15870972 0.03039437 -0.18393876
-0.11021678 0.017432187 -0.17149265
-0.10467575 0.015926579 -0.17439465
-0.21245672 0.036564711 -0.17750472
-0.052462809 -0.0031830706 -0.16300757
-0.1366573 0.0019295681 -0.16347887
-0.16006283 0.027391035 -0.16028216
-0.067628697 -0.0042282781 -0.15377374
-0.19289908 0.0038246606 -0.15658966
-0.16207066 0.00073097926 -0.15062666
-0.072344162 0.0045518819 -0.15792413
-0.11360511 0.016723275 -0.15153779
-0.1338096 0.021738108 -0.15482357
-0.070109472 -0.0069132429 -0.14034799
-0.039786361 -0.0082333609 -0.1426487
-0.10251462 0.013177643 -0.14394525
-0.14108358 0.022208486 -0.14695603
-0.13923678 0.022109244 -0.14874953
-0.18532921 -0.0013432899 -0.13423221
-0.057069432 -0.0015258398 -0.1340957
-0.19645666 0.027593492 -0.13925919
-0.18568769 0.02641465 -0.13700129
-0.17607434 0.025679205 -0.13764545
-0.052402757 -0.010485522 -0.12841389
-0.16681348 -0.0042207399 -0.1258195
-0.044998553 -0.0061663017 -0.12337303
-0.1290115 0.017623123 -0.12925826
-0.16998374 0.0229895 -0.12647016
-0.086034685 -0.012041176 -0.11154965
-0.054675631 -0.013698712 -0.11254324
-0.021353867 -0.016023504 -0.11092847
-0.16162986 -0.0077869128 -0.11038036
-0.060383078 -0.001222468 -0.11193551
-0.08747068 0.0065719578 -0.11232551
-0.15922849 0.019163234 -0.11163066
-0.13122419 0.016639119 -0.11886642
-0.12489088 0.015056743 -0.11573432
-0.10145529 0.010392499 -0.11665753
-0.023855481 -0.017919067 -0.10123827
-0.19491865 -0.0089197643 -0.10047635
-0.13595082 -0.0097641088 -0.10825584
-0.24028419 0.0032508615 -0.10031936
-0.22581792 0.0030868612 -0.10329095
-0.2115756 0.006658542 -0.10732552
-0.21448947 0.017278552 -0.10988608
-0.17882213 0.019007292 -0.10921608
-0.23491791 0.021063393 -0.10723837
-0.16423604 0.021188222 -0.10047805
-0.21547353 0.037299894 -0.1096786
-0.019842442 -0.020507194 -0.090104118
-0.16413391 -0.011021353 -0.09434402
-0.13602945 -0.012247462 -0.09646377
-0.086420655 -0.016359191 -0.090975419
-0.026490603 -0.01346997 -0.097521752
-0.015095029 -0.019034987 -0.098421559
-0.23301101 -0.0043971855 -0.097426787
-0.263376 0.0016715765 -0.09222842
-0.10005215 0.0073226504 -0.092290439
-0.26995602 0.016683131 -0.09604314
-0.16671668 0.015927989 -0.092380792
-0.15690696 0.016641935 -0.093967274
-0.15528275 0.034383249 -0.093669847
-0.19323722 0.072255246 -0.091895744
-0.20294088 -0.01969518 -0.087655023
-0.17044525 -0.013615666 -0.083342217
-0.15819709 -0.012409554 -0.089439966
-0.14303783 -0.015213368 -0.080429077
-0.12174898 -0.014759216 -0.088589117
-0.071173027 -0.019216942 -0.081733853
-0.056603596 -0.018807558 -0.087785527
-0.032724123 -0.01142702 -0.087689117
-0.016943568 -0.017207056 -0.087797374
-0.16151565 -0.0012019135 -0.088350907
-0.15802574 0.0025732392 -0.08828228
-0.14663723 0.046287809 -0.081529349
0.030895442 -0.057523716 -0.07019981
0.11020362 -0.049811315 -0.073440872
0.14126535 -0.041225649 -0.071443625
0.15063579 -0.046740919 -0.070933342
0.023380445 -0.038679603 -0.070716754
0.12669726 -0.03259198 -0.070402555
-0.22276862 -0.022463532 -0.077546723
-0.19989645 -0.026871828 -0.074450605
-0.17491792 -0.022577779 -0.070921659
-0.13450418 0.0091588041 -0.071111292
-0.12679043 0.0090502985 -0.075174093
-0.087058701 0.0030198954 -0.079021111
-0.13092029 0.033796906 -0.071822278
-0.26298559 0.067590468 -0.07585904
-0.25624499 0.072277889 -0.070761397
0.053509399 -0.074468523 -0.061039172
0.061434202 -0.075238273 -0.060631443
0.090038694 -0.067123316 -0.068159975
0.10413606 -0.063144743 -0.069865867
0.17182764 -0.057638302 -0.066142172
0.20177022 -0.054699078 -0.062210113
0.038373999 -0.040126849 -0.067686789
0.093425237 -0.041960455 -0.061037533
0.10375673 -0.045516007 -0.060212426
0.18636154 -0.045053739 -0.066016778
0.080400981 -0.033907715 -0.060336407
0.19696972 -0.034929525 -0.062325083
-0.006296345 -0.021476194 -0.067463756
0.11744892 -0.020226302 -0.0638282
-0.27250272 -0.011496987 -0.069986098
-0.11926924 -0.019250177 -0.068003893
0.060072102 -0.017259624 -0.061657101
0.10633158 -0.016883701 -0.061230328
-0.082314432 2.4433248e-05 -0.061833877
-0.13188505 0.04351588 -0.064796649
-0.27179304 0.067659907 -0.065414995
-0.18561783 0.083359674 -0.066364512
0.017435146 -0.077433281 -0.052803736
0.048564307 -0.079213478 -0.054483928
0.069651574 -0.070913523 -0.050656196
0.13613766 -0.074365437 -0.059028622
0.077305362 -0.059900172 -0.059850942
0.13940547 -0.057502411 -0.052127022
-0.1422317 -0.045717184 -0.054871298
0.10073484 -0.040879048 -0.05998024
0.1564133 -0.0482779 -0.053336941
0.24375099 -0.046008233 -0.05462734
-0.12020506 -0.037007805 -0.054871298
-0.069684871 -0.036911793 -0.054871298
0.15514247 -0.037076317 -0.05160949
0.22216386 -0.038123105 -0.058341987
-0.23867153 -0.024418842 -0.059446126
-0.17118728 -0.02277158 -0.052590132
-0.071865663 -0.024899527 -0.054605678
-0.064790942 -0.025242783 -0.054975253
-0.057445314 -0.025867684 -0.054871298
0.2224133 -0.026931208 -0.050794117
-0.27179104 -0.01440328 -0.058882635
-0.26963177 -0.01530572 -0.050995119
0.026652042 -0.01764996 -0.055422451
0.054734409 -0.012889948 -0.055561613
0.064450853 -0.013952186 -0.050793644
0.11280766 -0.013362411 -0.056327447
-0.14127788 -0.0032412088 -0.054871298
-0.12138057 -0.0045057712 -0.054871298
0.019658957 -0.0051245457 -0.050960187
0.039817117 -0.0028091567 -0.050076548
-0.12059972 0.0048148036 -0.055120979
-0.078996204 0.0066519137 -0.054395925
-0.088837042 0.016424734 -0.050410572
0.013823266 0.013363402 -0.052121893
-0.14573061 0.038682126 -0.054871298
-0.13460031 0.048990924 -0.057232812
-0.12125169 0.050659575 -0.054871298
-0.14945628 0.066713743 -0.054871298
-0.12591478 0.060232755 -0.052960806
-0.25413182 0.075521208 -0.051045392
-0.24964416 0.076665714 -0.051490624
-0.15430953 0.077398486 -0.054871295
-0.17976293 0.082399756 -0.056837581
0.017417302 -0.081564873 -0.04035154
0.078259006 -0.084981099 -0.040012255
0.21361192 -0.070726052 -0.044452164
0.10965095 -0.066078268 -0.048803777
0.22771239 -0.068136699 -0.042597756
0.16044831 -0.059287433 -0.047298819
0.18313506 -0.05068836 -0.049451508
-0.10812959 -0.045816101 -0.042025328
-0.030878836 -0.03000325 -0.041982707
0.24916212 -0.031348687 -0.046119761
-0.22634327 -0.026163956 -0.045907538
0.12809436 -0.028873522 -0.049370162
0.24299529 -0.026937896 -0.041576296
0.0169622 -0.018283615 -0.044024587
0.03332717 -0.014689458 -0.048836794
0.12344617 -0.016603341 -0.041267622
0.14485006 -0.010823283 -0.04624062
0.16351594 -0.014401252 -0.049754694
-0.06202203 -0.0056963419 -0.049764849
0.028771395 -0.0076166932 -0.044345852
0.049534254 -0.0080472939 -0.043985292
0.050366785 -0.0080245007 -0.044103809
0.10486158 -0.007302871 -0.042648654
0.11579841 -0.0065888204 -0.044192117
0.12630126 -0.0090695936 -0.044537038
0.13510056 -0.0087149981 -0.040978979
0.15063116 -0.0088835834 -0.044512559
-0.1359601 0.0051130801 -0.040021405
0.11627659 0.0011505269 -0.047759045
0.12807769 0.0040362435 -0.044852301
0.1602897 0.0043159481 -0.044487745
-0.077803463 0.018252678 -0.049096249
-0.057618767 0.019404603 -0.04806402
-0.092003606 0.022401249 -0.04488758
-0.11548495 0.040825769 -0.042834673
-0.1513932 0.063360602 -0.049016424
-0.14332381 0.076819912 -0.0460914
-0.22157791 0.082014039 -0.040231965
-0.18828812 0.085534215 -0.048420634
0.1275088 -0.084215529 -0.035025217
0.1331954 -0.06738022 -0.03801953
0.23610663 -0.053436868 -0.039500207
0.28950471 -0.052358054 -0.032749109
-0.16222695 -0.045816101 -0.031679492
-0.1543189 -0.045816101 -0.031378292
-0.092787988 -0.042915367 -0.032293845
-0.078531943 -0.044415265 -0.035379637
-0.065572657 -0.045816101 -0.036607187
0.11487404 -0.043268949 -0.034545701
0.21718132 -0.042733468 -0.034545701
0.26238012 -0.040625129 -0.031917475
0.063597217 -0.036109645 -0.034545701
0.22330597 -0.035456877 -0.033782117
-0.087300047 -0.029099107 -0.030346217
0.13870387 -0.026060179 -0.033460326
0.15912263 -0.027841097 -0.034545701
0.22950706 -0.022383107 -0.033982072
0.25862756 -0.029939074 -0.036950178
-0.26083872 -0.013343086 -0.033096477
-0.25459129 -0.016346317 -0.034907974
-0.23251109 -0.019569457 -0.03032364
-0.1616354 -0.013405047 -0.037529558
-0.09319523 -0.015306154 -0.030478127
-0.083009005 -0.017862437 -0.039579198
-0.021081036 -0.017468799 -0.039060649
0.088830598 -0.018791582 -0.030370139
0.09229669 -0.019253951 -0.030153418
0.11545946 -0.019097475 -0.03330702
0.17687266 -0.013233549 -0.039822217
0.24392273 -0.014703074 -0.031594131
-0.077874728 -0.0043621734 -0.035143942
0.0169622 -0.0016680657 -0.034029268
0.025541786 -0.0040149083 -0.034545701
0.093500108 -0.0057648895 -0.034545701
0.16144794 -0.0027143571 -0.036476687
0.17082462 -0.0037879827 -0.034545701
0.017641462 0.0039388584 -0.034545701
0.034515914 0.00034060664 -0.031745281
0.077506408 0.00070658245 -0.035013981
0.088377096 0.0076539358 -0.034977183
0.16403192 0.0097447978 -0.034545701
0.0169622 0.018383374 -0.038346145
0.034999136 0.018953739 -0.034545701
-0.077427708 0.0273237 -0.031385683
-0.039741196 0.0273237 -0.034530733
0.025542421 0.023031846 -0.034545701
0.081409767 0.022710033 -0.034545701
-0.14743859 0.050534662 -0.031105347
-0.15375495 0.061946526 -0.038482282
-0.17967927 0.085601002 -0.035606671
0.038859498 -0.083225399 -0.02691501
0.044122133 -0.083360888 -0.025300706
0.091092892 -0.083682448 -0.022359157
0.053167365 -0.077100225 -0.028816648
0.16634479 -0.079797685 -0.028341293
0.11796193 -0.066414163 -0.022419762
0.14438115 -0.061821103 -0.02181947
0.27794623 -0.053330988 -0.027302053
-0.032950222 -0.045816101 -0.022150185
0.0047280034 -0.045816101 -0.026415318
0.020415381 -0.045816101 -0.023162315
0.19171718 -0.046420336 -0.022202507
0.21159382 -0.043856084 -0.025701277
0.28606388 -0.045816101 -0.020032864
-0.070081778 -0.030302748 -0.029500421
-0.058201596 -0.031837437 -0.025579244
0.17966697 -0.037536215 -0.020648301
0.24904525 -0.030653682 -0.023827411
0.25595024 -0.03051362 -0.027711293
-0.18917733 -0.025456738 -0.029989878
-0.1179527 -0.029222853 -0.021109726
-0.10169134 -0.028067961 -0.021558313
0.017056406 -0.025046624 -0.028760239
0.042641453 -0.025435057 -0.029697973
0.0753574 -0.020598665 -0.022066144
0.13325466 -0.027575701 -0.022464607
-0.23045048 -0.017452886 -0.026003189
-0.22853111 -0.015287831 -0.021690017
-0.093109086 -0.014107752 -0.024659377
0.026117804 -0.01895218 -0.020802682
0.058186118 -0.016304381 -0.024417326
0.099816293 -0.012189969 -0.025018036
0.15339626 -0.011592757 -0.023339212
0.19523284 -0.018524095 -0.021657538
0.23812599 -0.012372727 -0.021957703
0.0169622 -0.005072434 -0.021937117
0.054910444 -0.0072357813 -0.024795771
0.060347933 -0.0093837418 -0.020139141
0.075333558 -0.0066918554 -0.02895363
0.082515933 -0.0075784782 -0.024299294
0.097752735 -0.0013627254 -0.028509716
0.12894963 -0.0082285469 -0.028641477
0.13459772 -0.0089916941 -0.024564713
0.14778124 -0.0028334807 -0.026951335
0.16040204 0.0065654637 -0.028787175
0.20177925 0.00037645421 -0.023786802
0.0169622 0.019891711 -0.022496186
0.079912156 0.024892462 -0.022497537
0.1107363 0.021270245 -0.028486278
-0.18935908 0.074492462 -0.020258712
-0.1882495 0.085475184 -0.022403907
-0.16474359 0.085601002 -0.028336044
0.025928648 -0.077171259 -0.018407173
0.055511195 -0.069408812 -0.01359172
0.094355561 -0.065572947 -0.016511168
0.22301291 -0.061322317 -0.015258254
-0.162733 -0.04083493 -0.013446701
-0.10689463 -0.045816101 -0.018169565
-0.089318767 -0.045816101 -0.017861212
-0.051178202 -0.045816101 -0.015521063
-0.037986167 -0.04203368 -0.012650174
-0.011751302 -0.045816101 -0.012953018
-0.00032066507 -0.045816101 -0.013811273
0.065661736 -0.045816101 -0.010352175
0.077900253 -0.04893399 -0.010251058
0.15813601 -0.043454353 -0.015957052
0.20862375 -0.045816101 -0.018577974
0.25088677 -0.045816101 -0.012733652
0.26048183 -0.045816101 -0.011527597
-0.10431975 -0.030601049 -0.016928166
-0.031364571 -0.034645654 -0.019842884
-0.0011762865 -0.038367674 -0.010721239
0.018465832 -0.037935469 -0.01831256
-0.017288934 -0.020010844 -0.017199805
0.0169622 -0.020627426 -0.015787605
0.27268851 -0.027300466 -0.010866546
-0.060626116 -0.010590144 -0.012275889
0.024600519 -0.015865617 -0.015576272
0.092484668 -0.014398526 -0.018483086
0.14649208 -0.01585079 -0.013422123
0.25489423 -0.01932814 -0.013720716
-0.11784565 -0.0027618608 -0.017665446
0.12517998 -0.0096551543 -0.01764283
0.16114593 -0.0065268069 -0.017947074
0.22374918 -0.0070427293 -0.011370653
-0.25740165 0.0020021363 -0.014937395
-0.16990624 0.0048563187 -0.010930115
0.0169622 0.0087131886 -0.012553964
-0.2714147 0.02536634 -0.01299374
0.06371703 0.026204778 -0.01205083
0.11739889 0.020361574 -0.011352262
-0.21414676 0.064563453 -0.013236221
-0.20119733 0.065580681 -0.012136442
-0.20651454 0.084001638 -0.016430918
0.036605801 -0.071258888 -0.0063004219
0.063399963 -0.064545996 -0.0055728909
0.075072587 -0.064520583 -0.0035380558
0.089932099 -0.067260399 -0.0010381857
0.12855807 -0.063588977 -0.0046174633
0.14848974 -0.064195044 -0.0025869033
0.15914513 -0.064341411 -0.0010635942
0.024641978 -0.057856783 -0.0013202342
0.08622165 -0.056326754 -0.008957942
0.10007587 -0.050734054 -0.0098548019
0.11281723 -0.059398986 -0.007374533
0.15649137 -0.055796076 -0.00016607734
0.17807241 -0.056026641 -0.0020756195
-0.11732073 -0.045816101 -0.0049708895
-0.01431081 -0.045816101 -0.0020457776
0.046203539 -0.047827005 -0.0046587898
0.054780722 -0.04939761 -0.0021447043
0.16848265 -0.04399639 -0.00029585446
0.17359804 -0.043191396 -0.0045556468
0.18519643 -0.047146857 -0.0057584764
0.2053031 -0.046555474 -0.0069877282
0.21533312 -0.045816101 -0.0083261328
-0.10931689 -0.032772403 -0.0067235432
-0.099076435 -0.034242392 -0.002646297
-0.066243082 -0.036633044 -0.00058111409
-0.049937662 -0.036393523 -0.0063176304
-0.028955217 -0.038792629 -0.00086813048
0.056037433 -0.036707982 -0.0043225358
0.085656092 -0.032346737 -0.0080669876
0.10945659 -0.031995133 -0.0073830411
0.17497024 -0.034784552 -0.0031094169
0.27845138 -0.03003357 -0.0019339966
0.0169622 -0.025519982 -0.0073501864
0.0584899 -0.02620098 -0.000362794
0.086002409 -0.020425836 -0.0012195671
0.090990901 -0.022287624 -0.0026990594
0.17342781 -0.025355551 -0.0080375448
-0.11140111 -0.016487699 -0.0068102591
0.075645313 -0.016141303 -0.0082969209
0.11728963 -0.019212199 -0.0060282941
0.24553949 -0.01538463 -0.0052826465
-0.090729967 -0.0078051579 -0.0033412138
-0.19429556 0.0012491511 -0.0031677671
0.20065483 0.00073805579 -0.0018675798
0.12971638 0.018161114 -0.0081022456
-0.25283828 0.027528688 -0.0063242037
-0.064219147 0.0273237 -0.0099591352
-0.040975802 0.0273237 -0.00039013475
-0.0055766241 0.0273237 -0.007508941
0.056973279 0.026527017 -0.0093965083
-0.1701806 0.036368262 -0.0060269823
-0.18503053 0.042480163 -0.0012316414
-0.20266688 0.084416896 -0.0099976826
0.16694592 -0.073769301 0.0091170222
0.054197595 -0.068577975 0.0069152834
0.074234314 -0.061288491 0.0043497006
0.022125773 -0.053881437 0.00031618454
0.10131718 -0.059777603 0.0074266647
0.12694673 -0.051938526 0.0031488175
-0.15017185 -0.045816101 0.0050815009
0.12399591 -0.044909678 0.0052786954
0.15752143 -0.047050811 0.0010715005
0.19783154 -0.045816101 0.0016973329
0.29989997 -0.045816101 0.0025979066
-0.058034115 -0.037845574 0.0028491542
-0.029557299 -0.039023399 0.0039957296
0.028501689 -0.034051828 0.00086858781
0.08556632 -0.032557171 0.0028275859
0.11207429 -0.039432012 0.0039791148
0.12719001 -0.032470133 0.0012247309
0.13813628 -0.037595399 0.0096568922
0.22868526 -0.03712165 0.007398319
-0.16155414 -0.022261335 0.0022182185
-0.013931579 -0.022427447 0.0020135134
0.034894831 -0.02155713 0.0049386714
0.20812362 -0.026897669 0.008692475
-0.15709208 -0.017488882 0.0085625052
-0.028324433 -0.019252384 0.0054285079
0.023303628 -0.017481493 0.0078802994
0.062742136 -0.014594951 0.0053808587
0.10990764 -0.016551349 0.0031420027
-0.14810562 -0.0078773107 0.0030687554
-0.22299044 0.0024335193 0.005999187
-0.21287149 0.0025232267 0.0042358045
-0.25402531 0.015029456 0.0079994733
-0.18771896 0.019582376 0.0032110303
-0.11519401 0.027762663 0.0059645753
-0.10588657 0.0273237 0.0053289672
-0.085364416 0.0273237 0.0016945843
-0.23082311 0.039890196 0.0030099144
-0.16918947 0.0346267 0.006225816
-0.18400052 0.042519696 0.00041684537
-0.22865845 0.056918863 0.009767551
-0.2108454 0.054831404 0.0056979074
-0.17480254 0.0504172 0.0077739586
-0.21079549 0.083495505 0.0083027612
-0.20725726 0.083918571 0.0078553902
0.041119013 -0.080479138 0.012889569
0.096416898 -0.06687545 0.013303025
0.10495909 -0.069385268 0.019912044
0.12643886 -0.065553911 0.017700825
0.14435862 -0.063477598 0.018647868
0.23374856 -0.063205987 0.015138138
0.12480032 -0.059469923 0.01086381
0.19723856 -0.050705522 0.016215723
-0.162733 -0.040848941 0.01793026
-0.054683018 -0.040235713 0.013231605
0.019251244 -0.045816101 0.014329671
0.066139318 -0.045816101 0.010976654
0.086560689 -0.045816101 0.014844811
0.11640853 -0.045816101 0.010700418
0.13423987 -0.045816101 0.01804495
0.2129221 -0.045816101 0.012769216
-0.11312153 -0.030868912 0.019062608
-0.099621482 -0.03256195 0.014848098
-0.035400815 -0.039151542 0.016160309
0.15265477 -0.034167197 0.013995817
0.074487746 -0.020219006 0.014926702
0.087779634 -0.023235051 0.017671058
0.15489535 -0.022909239 0.017246459
-0.095564373 -0.011253165 0.016254896
-0.064260073 -0.014910783 0.019638274
0.0169622 -0.016229562 0.010995075
0.037362292 -0.012922535 0.012285361
0.054597441 -0.01053311 0.012725673
0.11762118 -0.010592834 0.012873482
0.14166142 -0.010440404 0.017573934
-0.22622745 -0.0084736478 0.013953075
0.030715559 -0.0097296853 0.018595424
0.086646177 -0.0093639214 0.013713993
0.10473389 -0.007476754 0.012693893
0.1218116 -0.0011312722 0.012958942
0.13392977 -0.008184474 0.011074607
-0.2636131 0.0049772654 0.015425348
-0.15766634 0.0053755916 0.019939646
-0.13989562 0.00090380991 0.014618774
0.093755245 0.0020821833 0.015061851
0.16428019 0.0026352049 0.015486201
-0.15565434 0.018870879 0.015830753
0.12257954 0.019455692 0.015755475
-0.059200425 0.0273237 0.019878069
-0.021209214 0.0273237 0.01760648
0.017544899 0.02732145 0.010106832
0.030510187 0.027271405 0.011184181
-0.25214139 0.054899402 0.014148114
-0.26651102 0.071295634 0.01638885
-0.18754379 0.085510947 0.012846695
-0.16751008 0.085601002 0.015790535
0.023334099 -0.080671489 0.022253437
0.18498112 -0.07698942 0.022134054
0.25673124 -0.052324232 0.028835356
0.26207811 -0.059783258 0.023338733
-0.1245014 -0.045816101 0.026904723
-0.10353433 -0.045816101 0.026093477
-0.096544608 -0.045816101 0.020701557
-0.085119262 -0.041472852 0.027683955
-0.035480157 -0.045816101 0.020781282
-0.013436991 -0.045816101 0.027454779
0.0169622 -0.040012434 0.025272567
0.087314546 -0.045816101 0.021535208
0.28593859 -0.046782173 0.023638528
0.29838717 -0.04013069 0.025612829
-0.085373923 -0.030973515 0.026397146
-0.04297981 -0.034094896 0.023566749
-0.020814201 -0.035897817 0.021276798
0.054673206 -0.033042442 0.029219899
0.17993882 -0.039748698 0.029219899
0.18609248 -0.031763464 0.023247158
-0.162733 -0.026157524 0.022862615
-0.12208802 -0.029867433 0.021278838
-0.11732766 -0.028446324 0.029357601
-0.0056501646 -0.025223142 0.020116804
0.059175827 -0.026607957 0.023763102
0.064949483 -0.027948931 0.029219899
0.078812011 -0.020038037 0.029219899
0.25373518 -0.028732551 0.026205279
0.26151156 -0.028790541 0.029219899
0.27571028 -0.028733578 0.023721917
-0.23079704 -0.018913802 0.028405778
-0.22270626 -0.018816035 0.025360707
-0.065817356 -0.015989972 0.027111746
0.028290659 -0.017452499 0.029219901
0.15005338 -0.010202828 0.021946236
0.2528252 -0.018455932 0.024493974
-0.26731354 -0.0087730344 0.029589852
0.039641421 -0.0034780158 0.029219899
0.10073802 -0.0049794028 0.025233474
0.13723023 -0.0080612171 0.028847668
0.14327724 -0.0021146459 0.029219899
0.16788372 -0.00056089647 0.021188747
0.17632899 -0.0014723209 0.029219899
0.19184558 -0.005031669 0.029219899
0.035250034 0.0087903934 0.027333964
0.095457256 0.0021488566 0.025948079
0.11058481 0.0014573043 0.024278849
0.13602884 0.0080074202 0.028054694
0.14178739 0.00070984103 0.029219899
0.16724287 0.0077285944 0.022828944
0.17233086 0.0088885054 0.021838823
0.18859676 0.0030175673 0.029219899
-0.12619506 0.015557388 0.024438441
0.026256107 0.016645713 0.029219899
0.12317843 0.016609516 0.029219899
0.14716858 0.010322805 0.029219899
-0.14378896 0.025956623 0.024596397
-0.051329326 0.0273237 0.021927144
-0.011284874 0.0273237 0.026966617
-0.2707063 0.052563421 0.020560008
-0.26527774 0.060711667 0.025010228
-0.21423407 0.074642546 0.025269896
-0.22067438 0.082146689 0.023528796
-0.21740867 0.082626171 0.026375066
-0.20502813 0.084167875 0.026291683
0.16226488 -0.080817863 0.031312637
0.065996632 -0.07569024 0.033461556
0.18643224 -0.076577224 0.037592594
0.19878165 -0.074801005 0.035077903
0.13726234 -0.064704567 0.039352484
0.1781155 -0.060959212 0.035146847
0.24681866 -0.064714283 0.032271117
-0.14329626 -0.045816101 0.032051824
-0.085701063 -0.042043027 0.030550495
-0.058518343 -0.045816101 0.035084452
0.013244066 -0.045816101 0.037847664
0.27509904 -0.042381406 0.039952431
0.29183397 -0.044668186 0.035052545
-0.088741109 -0.035438236 0.035355996
-0.035215117 -0.031472746 0.038185678
0.24538231 -0.039518628 0.034008089
0.25009227 -0.038681462 0.031140309
-0.22723293 -0.024048213 0.038183462
-0.10571547 -0.027994884 0.034774143
0.0025421442 -0.02763802 0.03006966
0.073077694 -0.026983388 0.033379827
0.11332784 -0.023806492 0.039578848
0.12686706 -0.024577662 0.036853258
0.13685884 -0.025423622 0.037536737
0.14044642 -0.026939554 0.038348749
0.23274091 -0.023515183 0.03290695
-0.15363868 -0.013795254 0.035323694
-0.053270236 -0.019316483 0.032191265
0.059771456 -0.015557539 0.036458079
0.099762075 -0.019881563 0.031281706
0.13443871 -0.014005796 0.039998617
0.18595961 -0.015329029 0.038430471
-0.14838538 -0.0081765242 0.032611538
-0.11182725 -0.00017711613 0.038975216
-0.071091577 -0.0073076095 0.033129238
0.087667577 -0.0068905917 0.037087943
0.092426702 -0.0015137377 0.036352191
0.12050682 -0.0083938269 0.039751388
0.13469805 -0.0034489182 0.03956889
0.16496699 0.0088114832 0.03094575
-0.10519161 0.027161175 0.03170184
-0.056033589 0.025029942 0.039676059
-0.27305242 0.062981457 0.034160174
-0.21610691 0.079021662 0.034150425
-0.15482447 0.08325319 0.033997938
0.043925848 -0.081705317 0.042975381
0.076999567 -0.080527581 0.048723996
0.10163054 -0.083182499 0.041801542
0.0245526 -0.078126967 0.043497454
0.18618666 -0.054328829 0.041918993
0.25013036 -0.052269839 0.046323281
-0.023339368 -0.045816101 0.046895441
0.00036466075 -0.045816101 0.043058597
0.16714227 -0.048267365 0.04666958
0.20947006 -0.042622738 0.041273814
0.19499522 -0.037053071 0.040349025
0.24105875 -0.033548411 0.045818891
-0.22757104 -0.025829159 0.046237022
-0.21085028 -0.0274902 0.042569663
-0.086047173 -0.028256267 0.040617816
0.097294345 -0.026866028 0.047706731
0.020289861 -0.015243978 0.046357743
0.037078869 -0.018301237 0.048819844
0.046670333 -0.016218675 0.042875852
0.092440523 -0.011199025 0.040844031
0.14052367 -0.012596726 0.04706382
0.16066596 -0.016186923 0.048335508
0.19366826 -0.019037478 0.044091325
-0.082827866 -0.0036881752 0.044068769
-0.064343058 -0.0073177852 0.044855349
0.051956922 -0.0062430454 0.047109544
0.11121529 -0.0027916764 0.046168577
-0.13848393 0.002582131 0.041507475
-0.13008787 0.01805374 0.040183667
-0.10821475 0.018458895 0.048440881
0.0169622 0.013305575 0.045323044
-0.091525279 0.022204291 0.044273078
0.0020954031 0.022798365 0.043607108
-0.12853672 0.063528635 0.040166844
-0.26444483 0.070830882 0.043959863
0.031235568 -0.075695783 0.051796485
0.15896407 -0.07330139 0.051423606
0.065820508 -0.0505637 0.059049472
0.22635636 -0.05042715 0.052822433
-0.14931142 -0.043078475 0.054643001
-0.077208966 -0.045816101 0.050482225
-0.012044187 -0.045816101 0.053737346
-0.0015421952 -0.040317018 0.054643005
0.12688249 -0.049196377 0.051586501
-0.15387484 -0.030506581 0.054643001
-0.12979437 -0.03813158 0.054643001
-0.033634283 -0.037505727 0.054643001
0.068168364 -0.033219595 0.056368869
0.10638963 -0.038569301 0.053450711
-0.23828666 -0.024284244 0.059107654
-0.20639288 -0.029173311 0.059865646
-0.1158839 -0.022448931 0.058189839
-0.1007248 -0.024466928 0.054643001
-0.086082906 -0.02389304 0.059755191
-0.04541178 -0.026512649 0.054643001
-0.023533866 -0.024702998 0.054643005
-0.0032904944 -0.024988107 0.055609047
0.00082276016 -0.026596352 0.050673909
-0.15808533 -0.018551223 0.054359596
0.029835466 -0.017560164 0.0537204
0.090872109 -0.019772988 0.059208483
-0.082853645 -0.0024241442 0.053480566
-0.043949805 -0.0082392516 0.054643005
-0.034786116 -0.0081358887 0.054643005
-0.13769017 0.0026972014 0.054576445
-0.12027998 0.0034149596 0.053863719
0.0048095603 0.015311353 0.050769906
-0.11843267 0.027617395 0.050607849
-0.16975969 0.043783508 0.054643001
-0.15117788 0.044356413 0.054643001
-0.13299648 0.041731231 0.054643001
-0.16127604 0.054550618 0.054643005
-0.13868642 0.054931879 0.056235868
-0.17016627 0.070490718 0.054643001
-0.14157043 0.075629994 0.05108605
0.098349035 -0.070212595 0.06020483
0.048377104 -0.067534462 0.061240539
0.050031535 -0.065993495 0.062518284
0.095043547 -0.056871824 0.067428619
0.056189239 -0.042471409 0.064099088
0.028349586 -0.030809132 0.060718976
0.15793404 -0.038447205 0.063985929
-0.10824563 -0.020461839 0.069763228
-0.069448516 -0.023165863 0.067895845
-0.05432374 -0.024468381 0.065990672
-0.014461767 -0.027401065 0.063340046
0.089508936 -0.022263933 0.061105866
0.11676715 -0.022617811 0.06039504
-0.25057757 -0.019323349 0.069915667
-0.1674082 -0.018603094 0.067609452
-0.14629011 -0.018241104 0.069552436
-0.019965086 -0.018616328 0.068486258
-0.15343955 -0.0090208743 0.065566003
-0.15132092 0.0089114681 0.067995444
-0.116226 0.005284911 0.068018764
-0.13063356 0.01572885 0.068076074
-0.13172328 0.038999103 0.06952966
-0.1710881 0.076121703 0.065633588
-0.16198027 0.070062935 0.065560997
-0.2258181 0.080323607 0.065036088
-0.21227206 0.082908854 0.062554918
-0.048658341 -0.023225719 0.073479056
-0.010552932 -0.022058949 0.071858272
-0.0058405474 -0.025235401 0.076037429
-0.11376725 -0.018835369 0.075913735
-0.15238228 -0.0032309322 0.075785853
-0.13761437 0.046538487 0.070009775
-0.15911108 0.063171327 0.076966099
-0.25615543 0.071935169 0.071723744
-0.24030754 0.072711952 0.078631267
-0.19707429 0.080825061 0.076653987
-0.029554617 -0.022112252 0.084147483
-0.2151897 -0.018347673 0.086395286
-0.16305201 -0.01477812 0.081235193
-0.15353946 -0.015016849 0.082788125
-0.10616032 -0.017200926 0.085806876
-0.052720636 -0.019951446 0.087851211
-0.025044506 -0.016380602 0.087132238
-0.26174641 -0.0067082848 0.085468858
-0.15064752 0.014448868 0.088265307
-0.14216793 0.026110502 0.083396122
-0.27108091 0.060394414 0.080723949
-0.23054029 0.073716596 0.080683291
-0.22071362 0.072758675 0.085905984
-0.18739781 0.075181536 0.088544302
-0.16927619 -0.011260882 0.096148804
-0.15332425 -0.01249369 0.094807461
-0.12034251 -0.014169757 0.096171029
-0.030099809 -0.014323303 0.097305357
-0.029691732 -0.019358879 0.097158656
-0.25589734 -0.0022153661 0.092224322
-0.17184517 -0.005392171 0.093138695
-0.16071579 0.0040107779 0.091224238
-0.11262007 0.0084234793 0.093690783
-0.16540802 0.010847683 0.098453537
-0.14396332 0.013220954 0.094062291
-0.1790912 0.061128784 0.098005965
-0.24624109 0.0064579179 0.10026878
-0.20653954 0.0036830192 0.10620832
-0.19076642 0.0027477192 0.10723908
-0.073432758 4.5287539e-05 0.1005239
-0.24559814 0.024005137 0.10502872
-0.24686554 0.036498815 0.10408588
-0.221156 0.051315159 0.10418545
-0.20318316 0.051552124 0.10661156
-0.032733068 -0.01526605 0.1156987
-0.1398112 -0.0091954088 0.1142531
-0.18564069 0.0073761484 0.11323047
-0.09322796 -0.010223689 0.12252519
-0.071243666 0.00086622499 0.12388711
-0.13390987 0.016735634 0.12658796
-0.14895394 -0.0040421081 0.13609727
-0.047430642 -0.0073496047 0.13973293
-0.12453736 0.01593015 0.13506247
-0.11885366 0.015056033 0.1383909
-0.15203398 0.021249611 0.13666448
-0.14713763 -0.0031426824 0.14087267
-0.09635406 -0.0050420519 0.1462017
-0.13118513 0.018569259 0.14564586
-0.1223572 0.01625989 0.1420254
-0.14346264 -6.7837536e-05 0.15648304
-0.20797952 0.032768413 0.16519706
-0.20102143 0.0074358443 0.17580409
-0.10434651 0.013685057 0.17060411
-0.20693412 0.03518052 0.17807668
-0.19255349 0.0098957988 0.18985273
-0.091429375 0.0029758587 0.18559311
-0.075786471 0.002381973 0.18719295
-0.23113005 0.021999676 0.18678366
-0.20489442 0.036034558 0.18363668
-0.083923511 0.0072059762 0.19453827
-0.075196072 0.0032952596 0.19168818
-0.21089225 0.012729098 0.1981061
-0.096667066 0.012052938 0.19562905
-0.23806569 0.021795291 0.19827212
-0.23640047 0.041140374 0.19657792
-0.15343992 0.0097749485 0.20031793
-0.1172546 0.0099567343 0.21139145
-0.25000867 0.022849895 0.21789649
-0.24745044 0.020940118 0.21388246
-0.24976231 0.039909445 0.21556854
-0.22591536 0.043995667 0.21519896
-0.25407997 0.026004873 0.22427179
-0.18341969 0.039407443 0.22968385
-0.098751962 0.012973961 0.23091352
-0.25550476 0.023006115 0.2342248
-0.23595543 0.022136481 0.23561993
-0.21795045 0.021426331 0.23733512
-0.25654346 0.050907083 0.23734398
-0.14280085 0.018288672 0.24367195
-0.25981778 0.024679009 0.24093643
-0.22314583 0.02325644 0.24454288
-0.12493634 0.023338446 0.24158943
-0.20559889 0.045259941 0.2413597
-0.19814405 0.044441983 0.24609613
-0.26352453 0.053783461 0.24901518
-0.24622029 0.051665563 0.24557991
-0.1253515 0.01915637 0.25270891
-0.26796284 0.02816084 0.25514019
-0.17463654 0.023088131 0.25743505
-0.18727708 0.04251932 0.25020623
-0.18451168 0.025076613 0.26407278
-0.14338247 0.022096807 0.26155683
-0.12742624 0.020877173 0.2602793
-0.15652651 0.035242636 0.26999882
-0.28140986 0.044527467 0.26736605
-0.12496699 0.023576502 0.27266896
-0.25894311 0.032601364 0.27873161
-0.14696257 0.032158479 0.27873832
-0.19756925 0.047222897 0.27294281
-0.2586233 0.0582598 0.27438563
-0.27659282 0.034431826 0.28242636
-0.25185668 0.033714108 0.28600544
-0.29338783 0.040898606 0.28757581
-0.16408572 0.038815666 0.2976625
-0.29918998 0.040154431 0.29725128
-0.18742916 0.046299133 0.2953316
-0.20524794 0.051110145 0.29381317
-0.28021795 0.064974971 0.29892561
-0.27844375 0.06359259 0.29249537
-0.25968349 0.06257733 0.29920983
-0.22974534 0.036358837 0.30478042
-0.21717769 0.036691431 0.30990356
-0.16567077 0.033555191 0.30957487
-0.1459612 0.031156812 0.30277938
-0.29937065 0.068433523 0.30836651
-0.2746405 0.065085188 0.30270788
-0.24252346 0.039389692 0.3155393
-0.29052484 0.042754062 0.31793854
-0.17127964 0.041816853 0.31580955
-0.16909774 0.040930621 0.31150478
-0.20955038 0.039722785 0.32642341
-0.29392314 0.046400554 0.32196411
-0.25435621 0.043828845 0.33323973
-0.1761599 0.040790413 0.34090671
-0.2580401 0.054075807 0.3423731
-0.18471372 0.047407251 0.3571012
-0.19887005 0.052773885 0.3577981
-0.21058241 0.047808353 0.36445445
-0.21933131 0.056141123 0.36593008
-0.1913413 0.050050758 0.36587256
