# .PCD v0.7 - Point Cloud Data file format
VERSION 0.7
FIELDS x y z
SIZE 4 4 4
TYPE F F F
COUNT 1 1 1
WIDTH 838
HEIGHT 1
VIEWPOINT 0 0 0 1 0 0 0
POINTS 838
DATA ascii
0.048723634 0.067892857 -0.39031807
0.073751464 0.063951589 -0.39252356
0.085537158 0.060965501 -0.39038357
0.014290069 0.061751164 -0.38032097
0.04466727 0.060965501 -0.38928324
0.029621944 0.063032553 -0.37334442
0.033739597 0.060965501 -0.37748772
0.040390909 0.060965501 -0.37500507
0.069237977 0.06981276 -0.37054732
0.070632957 0.069930412 -0.37970221
0.08946681 0.060997814 -0.37745687
0.093888529 0.067399159 -0.37505373
0.01979794 0.060965501 -0.36845812
0.022522688 0.063769683 -0.36728221
0.0942569 0.064789437 -0.36262608
0.015737563 0.060965501 -0.35434574
0.027894106 0.060965501 -0.35696208
0.045626048 0.063888922 -0.35888755
0.056073643 0.068603411 -0.35475507
0.07733658 0.060965501 -0.35854179
0.093874641 0.068692021 -0.35574844
0.079187587 0.070395522 -0.35966116
0.076015644 0.060965501 -0.34874058
0.080243029 0.060965501 -0.34596318
0.023501828 0.063755743 -0.33049744
0.084207132 0.070586391 -0.33497345
0.016589904 0.062060595 -0.3144885
0.074225366 0.060965501 -0.31136698
0.029165853 0.060965501 -0.30234644
0.067693159 0.069537908 -0.30271772
0.089043736 0.070720613 -0.30514765
0.092376962 0.070817731 -0.30481291
0.037409969 0.065946177 -0.29314822
0.052634161 0.068036854 -0.29799122
0.063743234 0.069176897 -0.29451233
0.071620822 0.060965501 -0.2996487
0.081266001 0.060965501 -0.29489791
0.041412018 0.060965501 -0.28059134
0.069729403 0.060965501 -0.28210512
0.015955968 0.061800912 -0.27475119
0.025352944 0.060965501 -0.27434295
0.035959266 0.060965501 -0.27794254
0.046181936 0.062922657 -0.27600196
0.058584079 0.068614066 -0.27071741
0.096489355 0.064032562 -0.27588394
0.02711178 0.060965501 -0.26604035
0.052986939 0.067968473 -0.26441884
0.067035213 0.060965501 -0.26750726
0.074872412 0.063948371 -0.2652404
0.043464996 0.06666261 -0.25170505
0.064003974 0.069086298 -0.25084773
0.020525204 0.060965501 -0.24954993
0.044352293 0.060965501 -0.24333155
0.067213751 0.069369093 -0.24471921
0.075073659 0.065411508 -0.24578278
0.097192273 0.068691581 -0.24031836
0.093969755 0.070811488 -0.2419505
0.053842269 0.067979112 -0.23796935
0.073102117 0.06537874 -0.23823948
0.076336905 0.070033178 -0.23877662
0.025254775 0.063520864 -0.22732507
0.04916526 0.067356139 -0.22950973
0.071949929 0.06970574 -0.2288374
0.098341621 0.06645526 -0.22553997
0.077411376 0.07006675 -0.22018884
0.02306496 0.060965501 -0.21526702
0.038237199 0.063406162 -0.21434732
0.041781053 0.066268817 -0.21585652
0.0569086 0.060965501 -0.21459082
0.060919389 0.060965501 -0.2199541
0.075924791 0.069973603 -0.21975096
0.081351563 0.060965501 -0.21038832
0.021827672 0.062716067 -0.2035801
0.044646628 0.060965501 -0.20150441
0.061928928 0.060965501 -0.20158541
0.098923646 0.065802053 -0.20561863
0.039924532 0.060965501 -0.19299975
0.044323459 0.060965501 -0.19004256
0.064541727 0.068978749 -0.19281256
0.083566748 0.060965501 -0.19929871
0.089447819 0.070640154 -0.19527492
0.042792823 0.060965501 -0.18567117
0.058558609 0.060965501 -0.18745546
0.066453345 0.069140606 -0.18547477
0.07544072 0.069883503 -0.18691793
0.083771795 0.060965501 -0.18081307
0.094092473 0.060965501 -0.18849328
0.091754228 0.070699424 -0.18559797
0.030240815 0.064142905 -0.17136255
0.061452076 0.060965501 -0.1787027
0.091397166 0.060965501 -0.17170216
0.084263667 0.070382372 -0.17301022
0.017471595 0.061268874 -0.16903463
0.025287889 0.060965501 -0.16301152
0.046832308 0.060965501 -0.1636162
0.056585133 0.060965501 -0.16462573
0.025005098 0.060965501 -0.15707763
0.065797389 0.068981424 -0.15009436
0.099982761 0.067928985 -0.15670025
0.037510589 0.056338526 -0.1426461
0.069162682 0.058911338 -0.14510414
0.034358144 0.060965501 -0.14876524
0.079309598 0.060965501 -0.1401507
0.097823769 0.061884377 -0.14547679
0.082936496 0.070272177 -0.14298357
0.043846987 0.066205338 -0.13164744
0.0552659 0.060965501 -0.13277605
0.071779102 0.060965501 -0.139432
0.069175474 0.04474511 -0.12220372
0.022163581 0.060965501 -0.12197484
0.054806385 0.060965501 -0.12706336
0.062889554 0.068634301 -0.1271967
0.072626755 0.069514133 -0.12052389
0.051628016 -0.11204717 -0.11471584
0.045216389 -0.10228429 -0.115488
0.03782085 -0.090185091 -0.115488
0.037077218 -0.087419301 -0.115488
0.076444916 -0.08815264 -0.115488
0.029736901 -0.073543318 -0.11509722
0.070001125 -0.078066938 -0.11427149
0.06905406 0.041932043 -0.11504421
0.07407923 0.041077122 -0.11814924
0.02291714 0.061615728 -0.11693313
0.035540391 0.060965501 -0.11850005
0.046674296 0.066543788 -0.11152876
0.037548311 -0.11448606 -0.10503328
0.028960697 -0.10744703 -0.10382515
0.083778001 -0.10324603 -0.10464431
0.054297362 -0.090650827 -0.10161229
0.01981966 -0.08284042 -0.10557523
0.034190454 -0.055976525 -0.103413
0.051853083 -0.049206685 -0.10446096
0.043619044 0.028715976 -0.10107972
0.035454642 0.06356816 -0.10199787
0.044030305 0.066118926 -0.10164136
0.056659944 0.064368993 -0.10540058
0.077814817 0.065424308 -0.10688525
0.058622651 -0.11576181 -0.09746097
0.06403289 -0.1031749 -0.093943797
0.02400963 -0.092743702 -0.097162418
0.044889592 -0.085421316 -0.093943797
0.085052647 -0.080906808 -0.096081682
0.048488133 -0.071267843 -0.09394379
0.034614261 -0.065107651 -0.094451651
0.072543971 -0.055322871 -0.09965691
0.04508578 0.026503574 -0.092004567
0.070684426 0.024834758 -0.094743833
0.074635871 0.057235118 -0.097699702
0.041960463 0.065738417 -0.09015999
0.051666051 0.06719169 -0.097921848
0.051745888 -0.087499991 -0.082442194
0.039445758 0.045113757 -0.085184127
0.018528339 0.060965501 -0.083097562
0.057863448 0.06792327 -0.080645934
0.082023382 0.070107318 -0.082430035
0.093525983 0.070666254 -0.084443405
0.050162461 -0.08488068 -0.075873569
0.066513352 -0.086524412 -0.079919599
0.048132822 -0.072927788 -0.075234517
0.063387565 -0.078565866 -0.077878237
0.060572814 -0.061568327 -0.078834839
0.043808058 0.015788546 -0.073786974
0.066006295 0.025163859 -0.075977959
0.057596225 0.067873411 -0.07630004
0.077517644 0.069804527 -0.078797579
0.094990999 0.060965501 -0.073214248
0.081935361 0.070081092 -0.070801497
0.098764949 0.070813626 -0.07763648
0.059893303 -0.032008179 -0.064966865
0.065597944 0.0033226931 -0.060819577
-0.23068647 0.029290002 -0.060094159
-0.22728781 0.0257832 -0.062746093
-0.18134911 0.029779036 -0.065466493
0.033525702 0.060965501 -0.067217305
0.094192453 0.060965501 -0.066522419
0.1011926 0.069866329 -0.066703081
0.088110402 0.070413947 -0.06321054
0.070420712 -0.032480545 -0.052042026
0.10814552 -0.031161813 -0.0570914
0.11398727 -0.038325489 -0.050699089
0.1260162 -0.037670944 -0.052835986
0.1540828 -0.034712031 -0.055041954
0.043531999 -0.027130555 -0.050924756
0.093160063 -0.026795756 -0.0570914
0.13611612 -0.022829296 -0.0570914
0.056231372 -0.012905584 -0.052985065
0.10407392 -0.019573394 -0.0570914
0.13320482 -0.019702785 -0.0570914
0.17744035 -0.012918136 -0.051615831
0.047239736 -0.0014579659 -0.050229065
0.054043017 -0.0038233842 -0.05328992
0.12370514 -0.0059622601 -0.0570914
0.14652088 -0.0074484898 -0.0570914
0.15737407 -0.002997811 -0.0570914
0.16632873 -0.0056823986 -0.0570914
0.046373434 0.0038671293 -0.053919666
0.055564884 0.0025041467 -0.052616604
0.081994079 0.0055835997 -0.055776112
0.11491714 0.0079925172 -0.0570914
0.14500874 0.0043774853 -0.0570914
0.17454293 0.0037334971 -0.0570914
0.18485102 0.0097564505 -0.050473224
0.051182751 0.01570422 -0.051632851
0.12735602 0.014079768 -0.0570914
-0.23406881 0.0257832 -0.05744563
-0.22366259 0.02929 -0.059872262
-0.19061327 0.027469967 -0.058170743
0.064647563 0.029768012 -0.052969825
0.055701926 0.038147282 -0.051458124
0.088390723 0.03756595 -0.055925589
0.094585523 0.036902551 -0.056724973
0.10751911 0.035851914 -0.0570914
0.091492862 0.046171457 -0.054428235
0.10166702 0.044017058 -0.056352496
0.032512635 0.06395068 -0.054890931
0.053567588 0.060965501 -0.054634038
0.14113425 -0.040666319 -0.047622219
0.1504923 -0.042464085 -0.04314239
0.16479859 -0.040250905 -0.046226174
0.068948478 -0.036487978 -0.043705989
0.12906669 -0.03941112 -0.049896736
0.01028264 -0.023639275 -0.047523022
0.17895119 -0.020297032 -0.049415495
-0.00022835378 -0.0086448537 -0.045702927
0.026005894 -0.0073941289 -0.049020413
0.20180719 -0.0069207232 -0.04217051
0.0027120318 0.00079677254 -0.045766018
0.026340777 0.0033218672 -0.048688971
0.036755856 0.0098107802 -0.049877569
-0.0331567 0.01368871 -0.04096733
-0.012679176 0.010625276 -0.043497585
0.16639341 0.015244167 -0.047668736
-0.23341459 0.029289998 -0.049641393
0.01043513 0.026747571 -0.045894045
0.028072972 0.028105127 -0.048080742
0.028500853 0.039759133 -0.047753643
-0.028497837 0.04441309 -0.040808827
-0.017260469 0.045215212 -0.042131301
0.054373924 0.049075648 -0.049268182
0.092282347 0.04976372 -0.048012335
0.11771862 0.042412959 -0.046081729
0.076045915 0.051956825 -0.043311603
0.028099205 0.063040532 -0.043004163
0.038641017 0.060965501 -0.042628944
0.060926795 0.060965501 -0.040791392
0.081863724 0.060965501 -0.04894226
0.072131895 -0.040350106 -0.035196427
0.099825732 -0.042809322 -0.03862511
0.14044075 -0.044909187 -0.037826896
0.15198873 -0.046117686 -0.033423647
0.18803383 -0.041046508 -0.038764928
0.022690021 -0.033016104 -0.034564793
0.20511222 -0.039392531 -0.035421468
-0.024412572 -0.023161869 -0.039912678
-0.0058950502 -0.027474133 -0.036945619
0.0047850702 -0.028981138 -0.037747625
-0.081723601 -0.01578024 -0.030587945
-0.064898551 -0.013907631 -0.037654437
-0.051432543 -0.013641659 -0.039421771
0.20455669 -0.012021093 -0.039855469
-0.085077792 -0.0051605524 -0.034757242
-0.089895368 0.009402873 -0.033743739
-0.05706637 0.003872016 -0.038232669
-0.046822608 0.0057908976 -0.03951994
-0.086187497 0.0149763 -0.034090847
-0.070571378 0.015571458 -0.036142915
0.17199177 0.019214407 -0.035774074
-0.21895355 0.02929 -0.037924584
-0.10371906 0.029572625 -0.031640112
0.14569081 0.02459446 -0.032976683
-0.10517117 0.036795661 -0.031346507
-0.097177923 0.035095688 -0.03237284
-0.072534613 0.037321046 -0.035421334
-0.048051655 0.048561595 -0.038310051
0.1254486 0.043874297 -0.032417644
-0.050272688 0.050734699 -0.037998509
-0.035957515 0.052310061 -0.03608596
-0.022819906 0.054178849 -0.0322791
0.033266783 0.055770889 -0.032491017
0.069897026 0.056178413 -0.03219058
0.095586613 0.056287777 -0.031482469
0.037405454 0.064711981 -0.033833534
0.047683392 0.066379137 -0.036927193
0.10560251 -0.04643774 -0.029345475
0.15847179 -0.047844455 -0.026459593
0.16759659 -0.047543399 -0.024914397
-0.0061597126 -0.030672077 -0.02654071
0.0041386718 -0.031999964 -0.028164584
0.04922004 -0.038962979 -0.029114457
0.21893941 -0.038998138 -0.027676018
0.22366533 -0.038475238 -0.025358388
-0.097180076 -0.013321385 -0.028434247
-0.089992568 -0.016695594 -0.020380801
-0.13346885 -0.0066547869 -0.024822395
-0.12790427 -0.007376302 -0.026825599
-0.15394355 0.0061902022 -0.025864353
-0.13483047 0.0087619238 -0.028133061
-0.12046292 0.0066220909 -0.029901061
0.23648916 0.0046996851 -0.022392364
-0.18290651 0.014056615 -0.022250572
-0.1763951 0.018282447 -0.022973381
-0.16245717 0.01224531 -0.024746124
-0.14298964 0.01599863 -0.027039949
-0.1197646 0.016189925 -0.029840607
-0.23606566 0.025783202 -0.028687119
-0.21066611 0.022768749 -0.0200742
-0.18389319 0.029958611 -0.0200742
-0.16333337 0.021934891 -0.024495464
-0.20735681 0.031841621 -0.0200742
0.13915358 0.033644266 -0.027865086
0.14455858 0.030220551 -0.020140359
-0.15316604 0.047783766 -0.021341743
-0.13433073 0.041718327 -0.027745543
-0.086365186 0.05192877 -0.027875714
-0.079807311 0.054209188 -0.020132799
-0.054852035 0.055680655 -0.02041498
0.034978047 0.057275392 -0.027448846
0.077427417 0.0590588 -0.021037158
0.10541614 0.057681203 -0.020066587
0.021032706 0.061475888 -0.024040263
0.053810403 0.064140812 -0.024939608
0.079201892 0.065400377 -0.026696846
0.08130917 0.060965501 -0.028197378
0.059691265 -0.044097051 -0.010448509
0.098728463 -0.048328131 -0.018026741
0.10056102 -0.049134813 -0.013477132
0.17395659 -0.048382461 -0.018327743
0.19568449 -0.046073683 -0.014847534
0.20466958 -0.044750333 -0.013156906
0.23055059 -0.038320426 -0.018096333
0.24450214 -0.035011113 -0.015779426
-0.068776436 -0.021645138 -0.014891951
-0.086795062 -0.017572284 -0.018890768
0.24635684 -0.015875902 -0.017927054
0.24783257 -0.0022422553 -0.018370235
-0.19775608 0.0057188384 -0.014573667
-0.2149038 0.016295463 -0.015630558
-0.20254894 0.01374368 -0.014809383
0.19938634 0.017634874 -0.017029265
0.21924622 0.012748018 -0.010186235
-0.24261305 0.024936609 -0.011311079
-0.23085919 0.029462894 -0.014364677
-0.22289547 0.02874954 -0.018798709
-0.21136793 0.027536601 -0.01447874
0.17836948 0.022790462 -0.016632589
-0.2373784 0.0367544 -0.01436424
-0.22010747 0.032168925 -0.017131614
-0.25533885 0.042345498 -0.010747733
-0.2264823 0.04275481 -0.01002408
-0.192855 0.044493686 -0.015190138
0.12890635 0.046808556 -0.011502195
-0.10449503 0.052557781 -0.019148495
-0.0393757 0.057833955 -0.01138111
0.034087311 0.059870884 -0.013969063
0.046109404 0.059209242 -0.019691262
0.026514433 0.062573493 -0.015164047
0.03092666 0.063429609 -0.013742509
0.046833307 0.060965501 -0.016745333
0.056465477 0.06509345 -0.014772166
0.07549341 0.064972416 -0.012669657
0.091707557 0.07051754 -0.016972091
0.10059548 0.070817232 -0.018222935
0.12287011 -0.051303796 -0.0067895846
0.13927203 -0.051483475 -0.007528258
0.26164347 -0.053859599 -0.0016536388
0.050419033 -0.043079223 -0.0029171705
0.07299681 -0.04629577 -0.0054757022
0.21698841 -0.042944901 -0.0051546856
-0.022008464 -0.031266168 -0.0023977482
0.0057891486 -0.035960253 -0.003547441
0.030546069 -0.039876565 -0.0056496207
0.24439251 -0.036350511 -0.002546666
-0.21788201 -0.024186013 -0.0059022298
-0.20387369 -0.02212234 -0.006421891
-0.058578108 -0.024610387 -0.0029384079
0.26589921 -0.024477778 -0.0081035653
0.24830198 -0.0094093131 -0.007842022
-0.20208773 0.0029931739 -0.00299759
-0.19638626 0.0046419241 -0.0076571889
0.2340551 0.0077638887 -0.0081638563
0.24941891 0.00075041462 -0.008475082
0.25991267 0.0052100625 -0.0029989001
-0.21279629 0.013439714 -0.0090731354
-0.2058261 0.010623001 -0.0075702453
0.21497229 0.01436314 -0.0052634533
-0.23679066 0.023176679 -0.0065355389
-0.22375198 0.027300071 -0.00947861
-0.21603896 0.028917991 -0.0091763875
-0.20411617 0.026238631 -0.0014328789
0.15062217 0.028752053 -0.0097898999
-0.2640903 0.036488388 -0.0041485517
-0.25384551 0.030287728 -0.0040693721
-0.28133383 0.043969698 -0.0042225802
-0.27497914 0.044119995 -0.0027704306
-0.2355139 0.044643994 -0.0028596821
-0.2039279 0.041461118 -0.0032699485
-0.18436515 0.048728887 -0.00177608
-0.16389015 0.048056964 -0.0013044928
-0.22951682 0.052656177 -0.00177608
-0.19424105 0.055043429 -0.00177608
-0.096140176 0.054899488 -0.0012274523
-0.086054265 0.058376141 -2.94413e-05
-0.044424612 0.057817519 -0.0084805787
-0.031147525 0.058423109 -0.0090463962
0.00087877084 0.059820637 -0.0053798505
-0.28040126 0.063180201 -0.0017760799
-0.27405614 0.069221102 -0.0017760799
-0.23420435 0.065751337 -0.0017760801
-0.21539527 0.064547986 -0.0017760801
0.012017794 0.060299829 -0.0025910682
0.025080821 0.060336653 -0.0077180122
0.05703602 0.060929868 -0.0058171339
0.061194669 0.064521939 -0.0077075395
0.080412291 0.060965501 -0.0019739114
-0.26089978 0.074420929 -0.0017760799
-0.24040884 0.087632537 -0.0017760799
-0.28009361 0.11230908 -0.00177608
0.26162902 -0.069831729 0.00042874645
0.13722558 -0.051579509 0.0059373663
0.25842583 -0.057829395 0.0041446276
0.17825083 -0.049380593 0.0035901428
0.20463717 -0.04562518 0.00093921757
0.22804224 -0.040413931 0.0038276378
0.25906864 -0.048999909 0.0049151471
-0.0046092113 -0.034115911 0.0057748067
0.25972596 -0.033769116 0.0019869707
-0.078201622 -0.020881139 0.0027397131
0.24464667 -0.025711531 0.0054353201
-0.21324052 -0.011608936 0.00058980053
-0.12503052 -0.011351293 0.0040865964
-0.10608009 -0.014992338 0.0096851187
-0.087622248 -0.018788056 0.0075709173
0.28128073 -0.019753536 0.00035755266
-0.21454109 -0.0077594519 0.00067408476
-0.16945291 -0.0017794028 0.0022918424
-0.14136332 -0.0076369578 0.0089063644
0.24930577 -0.0027713724 0.0023554792
0.27309388 -0.0095795467 0.0032441553
-0.20558816 0.0089820242 0.0085264556
-0.22329949 0.017112702 0.0098855086
-0.20825958 0.010352589 0.0014546951
-0.21428777 0.027494589 0.0062274281
-0.20862952 0.0257832 0.0049612382
0.18785991 0.021618389 0.0092361448
-0.26006922 0.032416537 0.0024252404
-0.20921724 0.038146697 0.007380093
-0.26725769 0.043630514 0.0074667288
-0.25774911 0.043598913 0.0086943638
-0.21125886 0.04687589 0.0017172
-0.20439975 0.045490123 0.0028863018
-0.19204113 0.045746699 0.00064734387
-0.18488745 0.045014754 0.0040803496
-0.17148724 0.048133086 0.0017172
-0.16274795 0.048904072 0.0022037914
-0.22587214 0.059022956 0.0017172
-0.19012195 0.052269634 0.0017172
-0.051594101 0.057515394 0.0064491485
-0.018605826 0.059291288 0.00212809
0.019909579 0.060177453 0.008727747
0.039474852 0.06494581 0.0062847058
0.057338811 0.060885735 0.0054349313
0.063431188 0.068289526 0.00091241038
0.076986685 0.060961477 0.0053816857
0.1004748 0.061050162 0.0051315371
-0.23716813 0.073988065 0.0017172
0.083152167 0.070039183 0.0049242829
-0.25107563 0.086896122 0.0017172
-0.22850728 0.084024474 0.0017172
-0.26473472 0.094356447 0.0017172
-0.27129623 0.11332025 0.0017172
-0.265912 0.11119656 0.0017172
0.12400723 -0.050402954 0.01551424
0.072189249 -0.044583447 0.019726953
0.089900017 -0.047026217 0.019785699
0.16378011 -0.049678303 0.015221588
0.18535404 -0.047969174 0.012176937
0.19775599 -0.045536332 0.016148403
0.20831239 -0.044276074 0.011778996
-0.011549857 -0.031647831 0.017598853
-0.056958593 -0.024046559 0.013750121
-0.041392233 -0.026592029 0.01594694
-0.2068008 -0.01166001 0.010486775
-0.12645522 -0.010437652 0.012303831
-0.085194074 -0.017874282 0.018934123
0.24686722 -0.012521378 0.016937735
0.25707152 -0.014986993 0.012186633
-0.15170491 -0.0041636666 0.018162761
0.24824229 -0.0016720478 0.015873302
-0.21095812 0.015309641 0.011065178
-0.20289625 0.016512891 0.013616431
-0.21427998 0.021276388 0.014451478
-0.21624663 0.030345276 0.019776162
-0.20565137 0.038472176 0.010444726
0.14061016 0.035744071 0.015383068
-0.25019667 0.042977273 0.011574668
-0.22224964 0.040857613 0.017166534
-0.21398103 0.042640295 0.014584218
-0.20601848 0.041397247 0.016292481
-0.17045298 0.047672216 0.010365929
-0.047759265 0.056552555 0.017174449
0.026554268 0.059357919 0.016421519
0.035693552 0.062983893 0.015173448
0.048326116 0.06639269 0.01775673
0.052009366 0.06690602 0.01269618
0.071063228 0.060965501 0.01921417
0.10100321 0.061219376 0.010833671
0.057691321 -0.041143753 0.025332153
0.068366423 -0.043521661 0.021971857
0.082840174 -0.045108054 0.024046158
0.18066755 -0.047368828 0.020105343
-0.0079699745 -0.030703939 0.025083646
0.01817927 -0.035080757 0.024968551
0.02185994 -0.035998873 0.023591058
-0.053038713 -0.022041567 0.027645083
-0.048377402 -0.023412395 0.025490295
-0.024056474 -0.027750151 0.025680743
0.23429014 -0.023713693 0.025146246
0.23374191 -0.017351532 0.025852621
-0.13458787 -0.0039432645 0.028293446
0.23002866 -0.0025447397 0.028593568
0.24181312 -0.006808822 0.022613935
-0.18576089 0.0044098487 0.021991448
-0.17054521 0.001242277 0.023224577
0.23201577 0.0049745999 0.027684186
-0.16033098 0.017409114 0.024866711
-0.19563244 0.029920496 0.024606694
-0.18495804 0.028179416 0.023936532
-0.17527081 0.028767455 0.023134358
-0.15251681 0.022638259 0.025731768
-0.14543416 0.028525714 0.026498679
-0.13642487 0.023205645 0.027665742
-0.12654741 0.02708393 0.028800059
0.16596706 0.024446225 0.021414045
0.17289943 0.02215752 0.025359012
-0.1976904 0.030181015 0.020755535
-0.16550797 0.036970459 0.024288544
-0.1442312 0.037900273 0.026576582
0.13395329 0.039678678 0.02499206
-0.20072457 0.041180536 0.020578669
-0.14799929 0.04023432 0.026204893
0.12305231 0.047296114 0.027155101
-0.087429278 0.051427085 0.029625673
-0.063680455 0.053379022 0.02797994
-0.058649238 0.055484455 0.020303169
-0.0098458715 0.057502449 0.02146605
0.0089638773 0.056243412 0.02930614
0.046559975 0.057898521 0.025318246
0.067898139 0.058139365 0.024900224
0.0737684 0.058621708 0.022837527
0.064492121 0.068492949 0.027357463
0.072269827 0.069248661 0.022533225
0.085454121 0.060965501 0.024306934
0.079317413 -0.042808238 0.030992117
0.080767572 -0.041436065 0.035598189
0.11498271 -0.044250991 0.037842844
0.14729635 -0.046360735 0.033255145
0.19197881 -0.040291101 0.039211266
0.0055580218 -0.030821092 0.032722488
0.013284914 -0.031078683 0.035719864
-0.07696224 -0.016692739 0.03060025
0.22305578 -0.011742482 0.031357069
0.21506041 -0.0056917719 0.035846002
0.22155139 -0.0027846755 0.03298267
-0.11892992 0.0014162385 0.030114621
-0.091504246 0.0085722897 0.033493266
-0.091542132 0.01096614 0.033426493
-0.057811946 0.019151406 0.037680887
-0.048282091 0.016449392 0.039012253
0.18186457 0.01859604 0.03137622
-0.23334545 0.0257832 0.03455282
-0.21973425 0.0257832 0.037491933
-0.19677351 0.028298954 0.03723231
-0.058650319 0.025800148 0.037398376
-0.046882037 0.02408273 0.039000683
-0.11298966 0.03621221 0.030318528
-0.061641723 0.031560268 0.036853742
-0.091864698 0.049811635 0.032723073
-0.076668829 0.042087004 0.034771364
-0.060247693 0.042590447 0.036817916
-0.090877995 0.050271936 0.031833477
-0.065033168 0.051593836 0.033547461
-0.052754987 0.051232297 0.036598757
-0.042894516 0.052819833 0.033526983
-0.02779251 0.05266057 0.036045447
0.015675794 0.055541836 0.032012388
0.026612714 0.060965501 0.033942264
0.034599852 0.060965501 0.032511715
0.091219842 0.060965501 0.030745152
0.1011733 0.070584059 0.030087225
0.098969467 -0.040773794 0.043085106
0.19636858 -0.031326842 0.040606059
-0.031042652 -0.021380458 0.04098253
0.0073053925 -0.027438361 0.042389017
0.18811004 -0.020840459 0.045688886
-0.044445492 -0.018625179 0.040377252
0.049171746 -0.011655158 0.042804245
-0.0043488629 -0.0055524642 0.045021705
0.0083557246 -0.0021545589 0.04651764
-0.01576102 0.0015819157 0.043344717
0.03196308 0.0092543438 0.049186401
-0.024645042 0.016578523 0.041857086
0.0076644793 0.013392534 0.045921616
0.14422891 0.018196117 0.048881903
-0.2242287 0.025783198 0.049716748
-0.21583584 0.0257832 0.047254954
0.0022730362 0.028537888 0.044791564
-0.020209474 0.035490841 0.041946627
-0.0071092779 0.033105783 0.043565571
0.041416816 0.030972611 0.049708344
0.0162968 0.047191638 0.046031445
0.037951924 0.042344213 0.048836928
-0.015477948 0.050808404 0.041655209
-0.0014517405 0.050599538 0.043167002
0.051423032 0.052488234 0.041886553
0.023903873 0.060965501 0.048328727
0.038909506 0.060965501 0.0485797
0.058351062 0.060965501 0.04490336
0.082254976 0.060965501 0.047168564
0.069781043 -0.065832645 0.050434135
0.14584929 -0.038749408 0.051005617
0.047839992 -0.025993504 0.052149035
0.077548012 -0.029135095 0.055823531
0.12272736 -0.027914008 0.057032499
0.15776435 -0.023261786 0.056425281
0.060914148 -0.017194947 0.059405196
0.070045784 -0.011176251 0.054575615
0.11217692 -0.017432401 0.057032496
0.13255136 -0.015431534 0.057032496
0.059519127 -0.0017083614 0.053058162
0.049562074 0.0051199314 0.056321274
0.083220549 0.0023127815 0.055927601
0.098359063 0.0050100684 0.057032496
0.058184296 0.013462499 0.052605458
0.079625748 0.015434111 0.055245444
0.11536643 0.013690146 0.057032499
0.14392249 0.013616461 0.056926485
-0.20522016 0.029290002 0.055228665
-0.1971318 0.026652219 0.052203972
-0.18149143 0.029670402 0.05435466
0.1296 0.028953876 0.052516028
0.13769244 0.021168366 0.05069308
0.080205858 0.039972365 0.054668479
0.094276443 0.034495473 0.056673288
0.060424056 0.042800732 0.051877853
0.076722868 0.047519792 0.052018911
0.09588445 0.042512137 0.056712132
0.024421837 0.062362228 0.050968908
0.046589173 0.066295326 0.054855164
0.064509891 0.060965501 0.051979538
0.061700612 0.0020292955 0.063231267
0.046112239 0.011666034 0.066902004
0.065831758 0.01369645 0.067662396
-0.23535085 0.028315909 0.063806534
-0.20572011 0.02929 0.061647303
-0.19330271 0.029982327 0.065380603
-0.18828818 0.027761649 0.063726611
0.069975905 0.069151506 0.066841036
0.083306953 0.060965501 0.062647745
0.090704106 0.070539795 0.068804957
0.043426048 -0.083981551 0.073595099
0.055805545 -0.085017204 0.073595099
0.06665007 -0.081481703 0.073595099
0.063738972 -0.076894358 0.070438236
0.0651967 0.011760942 0.076931722
0.044819552 0.028356079 0.073993467
0.038538754 0.032648969 0.079347827
0.044348028 0.030285019 0.075276062
0.023061385 0.06219352 0.07072629
0.048638318 0.060965501 0.072756559
0.091418765 0.060965501 0.072633222
0.04755152 -0.082242779 0.080291003
0.063750207 -0.083512582 0.080291003
0.050537288 -0.078699157 0.080291003
0.039500281 0.045414992 0.084971368
0.038699754 0.050302502 0.088699862
0.059663806 0.068127155 0.081455007
0.070260197 0.069234058 0.087136194
0.08395005 0.070233598 0.086055465
0.095582761 0.070723057 0.080469854
0.030075215 -0.1039152 0.09715116
0.050426502 -0.10495401 0.094315603
0.082356483 -0.10104622 0.097597532
0.040128633 -0.098461747 0.094315603
0.082653403 -0.095923066 0.096070901
0.022650883 -0.082159132 0.098044232
0.038115948 -0.082699098 0.094315603
0.04233117 -0.085748792 0.094315603
0.058259789 -0.081344873 0.095303468
0.085842431 -0.083144881 0.096891388
0.061051842 -0.076604337 0.094315603
0.049783111 -0.066477939 0.094315603
0.039634414 0.028422497 0.097094834
0.040291879 0.029955268 0.097501531
0.076758921 0.054186694 0.095931128
0.019191163 0.061516833 0.094761238
0.032674529 0.060379267 0.097731546
0.062066384 0.068436682 0.094254926
0.077924572 0.069882676 0.099193536
0.091365956 0.060965501 0.092844181
0.10040066 0.069718793 0.099624947
0.043180421 -0.11745432 0.1037569
0.066440411 -0.11689533 0.10286429
0.028448671 -0.10663998 0.10173619
0.020390984 -0.084103838 0.10855314
0.048292443 -0.089185819 0.10350293
0.049979467 -0.079754166 0.1022269
0.089064553 -0.079485118 0.10371345
0.080357216 -0.062781177 0.10022805
0.07747858 -0.05870533 0.10233019
0.054180257 0.060965501 0.10699055
0.079051435 0.060965501 0.10120009
0.083864793 0.060965501 0.10670933
0.093560897 0.070687547 0.10854542
0.058753137 -0.11782094 0.11054784
0.042247601 -0.10847712 0.11555289
0.052368272 -0.10890217 0.115859
0.06405855 -0.10380499 0.115859
0.037238825 -0.098616436 0.115859
0.043546919 -0.091561563 0.11031424
0.061044462 -0.099462882 0.11412542
0.06710428 -0.089952506 0.11069264
0.038717322 -0.079442598 0.11528879
0.084390298 -0.071812212 0.11210173
0.030112481 -0.065046445 0.1127908
0.038816448 0.043897718 0.11691499
0.039682806 0.065479532 0.11375202
0.040109172 0.065566927 0.11769508
0.06179671 0.060965501 0.11442529
0.072465517 0.065264583 0.11477666
0.099465966 0.061943281 0.11369726
0.10120625 0.068090484 0.11159906
0.087233722 0.070436135 0.11058321
0.036962513 0.051616535 0.12855105
0.019404924 0.061766513 0.12815194
0.084075794 0.070310347 0.1246723
0.023342313 0.060965501 0.13894284
0.033860579 0.064591862 0.13275789
0.03298986 0.058085103 0.14447644
0.055654868 0.058886692 0.14511728
0.030482974 0.060965501 0.14944649
0.052079558 0.067452669 0.15422212
0.07609313 0.069859713 0.15273911
0.10050596 0.066216424 0.15091516
0.015862815 0.060965501 0.16380773
0.068688616 0.06931068 0.16984871
0.075185299 0.060965501 0.16860726
0.094749592 0.060965501 0.16721089
0.018213753 0.060965497 0.17012404
0.031235199 0.064333282 0.17378621
0.055087075 0.067918956 0.17592725
0.086233601 0.060965501 0.17750001
0.077510424 0.070001021 0.17989767
0.025558462 0.063361198 0.18835616
0.050459377 0.067353852 0.18382905
0.080397472 0.070189722 0.18512003
0.016328787 0.060965501 0.19520146
0.025291942 0.060965501 0.19810566
0.035318751 0.060965501 0.19661874
0.053689726 0.060965501 0.19076328
0.066566765 0.069166899 0.1949718
0.07813035 0.060965501 0.19015586
0.024419382 0.060965501 0.20725623
0.064157113 0.068977766 0.20581187
0.071954571 0.065337241 0.2056202
0.081802592 0.060965501 0.20199655
0.023307234 0.060965501 0.21333578
0.048730791 0.063092105 0.21271712
0.062856771 0.060965501 0.21689653
0.073963478 0.060965501 0.21082449
0.095651716 0.070679404 0.21450657
0.025499873 0.062335152 0.22522616
0.047605928 0.067149594 0.22777714
0.056975685 0.060965501 0.22643092
0.065891095 0.060965497 0.22761546
0.085891359 0.060965501 0.22875866
0.095174782 0.061858229 0.22118962
0.096042953 0.070203051 0.23070508
0.016841317 0.061929084 0.24445474
0.046024729 0.067018829 0.24804185
0.059936922 0.060965501 0.24015076
0.068216443 0.069448277 0.24483982
0.012563542 0.060965501 0.25431526
0.026336618 0.062106069 0.25584656
0.043429118 0.060965501 0.25470513
0.050956603 0.067684144 0.25604105
0.068704516 0.060965501 0.25063607
0.076009177 0.070033543 0.25036508
0.041051455 0.060965501 0.2633203
0.088026822 0.060965501 0.26079836
0.096757516 0.068305261 0.26282731
0.084653437 0.070514649 0.26022375
0.025392624 0.063827388 0.27863449
0.045068666 0.060965501 0.27121413
0.066574901 0.060965501 0.27180952
0.085080951 0.060965501 0.27286974
0.09001366 0.060965501 0.27228352
0.016693108 0.061089311 0.28919315
0.038672484 0.060965501 0.28329688
0.072198585 0.069856063 0.28666583
0.053542364 0.060965501 0.29402205
0.07897272 0.070301279 0.2971929
0.043077018 0.066813044 0.30127129
0.065493904 0.060965504 0.30048987
0.038239323 0.060965501 0.31519112
0.041376647 0.066642374 0.31950957
0.016773947 0.060965501 0.32386568
0.032713465 0.060965501 0.32035363
0.046202242 0.060965501 0.32352352
0.05275549 0.068125889 0.32148898
0.063198894 0.060965501 0.32050347
0.08799953 0.060965501 0.32377046
0.028890923 0.060965501 0.33700573
0.036589175 0.066026628 0.33898857
0.040516675 0.066566661 0.33127785
0.082681455 0.060965501 0.33063608
0.016891476 0.060965501 0.34781992
0.029128052 0.060965501 0.34117359
0.065627724 0.069460101 0.34016326
0.028056243 0.063395619 0.35454258
0.034906238 0.060965501 0.35343099
0.094104268 0.068293422 0.35537118
0.017213134 0.060965501 0.36312097
0.026114449 0.064421445 0.36916599
0.062465459 0.06924203 0.3613216
0.080726214 0.060965501 0.36025763
0.090823889 0.061201192 0.36290684
0.077817716 0.070343666 0.36780927
0.015122321 0.061025389 0.3725099
0.03862863 0.066494577 0.37969863
0.050149109 0.060965501 0.37155971
0.064440034 0.069435835 0.37076277
0.093560219 0.063709497 0.3723827
0.022241099 0.060965501 0.38195547
0.053004168 0.068355516 0.38435885
0.061997753 0.060965501 0.3858709
0.073347829 0.060965501 0.38317096
0.059710536 0.067811683 0.39212
0.089579552 0.067467235 0.39297885
