# .PCD v0.7 - Point Cloud Data file format
VERSION 0.7
FIELDS x y z
SIZE 4 4 4
TYPE F F F
COUNT 1 1 1
WIDTH 817
HEIGHT 1
VIEWPOINT 0 0 0 1 0 0 0
POINTS 817
DATA ascii
-0.10294187 -0.0053566266 -0.27104217
-0.093913861 -0.022337761 -0.26068985
-0.081918553 -0.020012569 -0.26058596
-0.1002893 -0.010300394 -0.26807368
-0.094095528 -0.014422081 -0.26382035
-0.086792067 -0.011112155 -0.26735491
-0.09826839 -0.0089513967 -0.26906374
-0.092435844 -0.025271885 -0.25799739
-0.07189092 -0.023089383 -0.25970519
-0.085721895 -0.027556349 -0.24727313
-0.070047863 -0.029132057 -0.24487117
-0.061861333 -0.024941694 -0.24721321
-0.073851548 -0.025683606 -0.2349298
-0.075950831 -0.027402166 -0.22517651
-0.041965261 -0.028582003 -0.2215285
-0.06809742 -0.031377193 -0.21120758
-0.054959387 -0.032845717 -0.21191332
-0.054996725 -0.026654584 -0.21142009
-0.069804668 -0.0310844 -0.20727322
-0.050851177 -0.03322079 -0.20820257
-0.042060003 -0.033108905 -0.20272899
-0.068704285 -0.031260345 -0.195988
-0.063484922 -0.029259482 -0.19077666
-0.036387049 -0.027719241 -0.19428593
-0.045726772 -0.034848347 -0.18559879
-0.027650908 -0.032727618 -0.1890282
-0.058647603 -0.02887661 -0.1874997
-0.051990651 -0.034569766 -0.17440477
-0.048444327 -0.035247616 -0.17060956
-0.035351016 -0.036017474 -0.17715593
-0.048414633 -0.037931472 -0.1628467
-0.014438353 -0.033916496 -0.16744691
-0.036772981 -0.028753001 -0.16756007
-0.053160049 -0.031139344 -0.15582994
-0.046396226 -0.033287827 -0.15718681
-0.038815703 -0.038222529 -0.15720598
-0.018928705 -0.029305754 -0.15930229
-0.035015084 -0.044427268 -0.14035341
-0.040638234 -0.039577655 -0.13938466
-0.033176936 -0.033996206 -0.13761146
-0.01037793 -0.0301043 -0.13863923
-0.0047851643 -0.035173617 -0.13493367
0.0070312936 -0.034007665 -0.13240933
-0.017805314 -0.029877573 -0.13634907
-0.019067442 -0.031359997 -0.12000249
0.0056650359 -0.039250154 -0.12556131
-0.024230704 -0.032557782 -0.11266066
-0.010975397 -0.030846562 -0.11686631
0.0083300648 -0.031602677 -0.11358099
0.020990439 -0.035954073 -0.11041
0.0029916028 -0.042279739 -0.10598778
-0.03259857 -0.037202306 -0.10390826
0.021541417 -0.038993139 -0.10412636
-0.010293485 -0.03238859 -0.095668659
-0.017332999 -0.051309656 -0.084452838
-0.010271394 -0.047352917 -0.082605734
-0.0071824761 -0.044970728 -0.087743342
0.018161688 -0.043218557 -0.085886553
0.025771286 -0.042901848 -0.08238443
-0.027346836 -0.036551487 -0.084176332
-0.0017763134 -0.032333717 -0.086612359
0.018244766 -0.032651313 -0.086734466
0.023524912 -0.033117212 -0.084621362
0.033972979 -0.035092592 -0.081599012
-0.024537556 -0.040148307 -0.070856832
-0.0032310463 -0.043358274 -0.073589668
0.013185668 -0.044364687 -0.079498023
0.036797814 -0.042644441 -0.073856115
0.0073545133 -0.032296911 -0.077732466
0.010299966 -0.032369863 -0.073968537
0.02989362 -0.033542234 -0.076441012
-0.20173095 -0.0068802494 -0.070760846
-0.37884149 0.065390885 -0.072817609
0.036084678 -0.044364467 -0.063040018
0.046343878 -0.041310497 -0.063747101
-0.03611045 -0.037333611 -0.064066619
-0.0059947809 -0.033844143 -0.061240781
0.0012208775 -0.033327729 -0.064439513
-0.21255624 -0.010984373 -0.065141775
-0.19914921 -0.015028378 -0.063721061
-0.17132325 -0.014570077 -0.063572206
-0.21397981 -0.0092655318 -0.067704275
-0.18181837 -0.00021807055 -0.06260217
-0.21131441 0.0082425904 -0.06674549
-0.21007103 0.012616707 -0.066478215
-0.17647325 0.016265923 -0.062076975
-0.39710867 0.066663414 -0.065357357
-0.38978475 0.065741554 -0.061433904
0.0093588131 -0.07322453 -0.051646762
-0.016137427 -0.042364247 -0.058210544
-0.0012006905 -0.04482777 -0.055451404
0.035497691 -0.045072101 -0.057735726
0.0017303489 -0.033963043 -0.052663229
0.033806942 -0.033816975 -0.059819158
0.057682853 -0.03953436 -0.05223326
-0.17871171 -0.013473378 -0.054073617
-0.21332687 0.016313761 -0.056198206
-0.20351514 0.01766295 -0.055579387
-0.39246193 0.067404754 -0.050071377
-0.37592146 0.06558726 -0.059278015
-0.38745841 0.070320271 -0.052034743
-0.0059897117 -0.071039371 -0.040716171
-0.0063249683 -0.064066261 -0.045618698
0.0061720917 -0.062779434 -0.047141418
0.011873553 -0.066539802 -0.041003317
0.00068290439 -0.050289985 -0.045878578
-0.026173018 -0.040059481 -0.048730493
-0.013460968 -0.042994719 -0.049220514
0.0060246461 -0.04545182 -0.04396376
0.045192018 -0.045543529 -0.046513733
0.061176136 -0.042229179 -0.041169271
-0.031331118 -0.037400581 -0.042840421
-0.0086704278 -0.034652304 -0.049037151
0.041753147 -0.034286469 -0.045181748
0.053362627 -0.034863301 -0.047392838
-0.20581412 -0.013316584 -0.045505743
-0.18105781 -0.015524082 -0.046277441
-0.24720888 -0.00046590975 -0.042259235
-0.23049206 -0.0033660524 -0.045287356
-0.21630019 -0.0083355624 -0.047208097
-0.21041359 0.004789188 -0.041099567
-0.18244433 0.0069440044 -0.044027019
-0.21025816 0.012177425 -0.049487531
-0.20118901 0.01128427 -0.041681956
-0.19589075 0.014209116 -0.044435147
-0.17209581 0.016393337 -0.048029158
-0.3801201 0.065832235 -0.048148315
-0.35601777 0.069767281 -0.049313489
-0.0023519688 -0.071601629 -0.037074976
0.0088633103 -0.064509101 -0.037143558
0.0033280388 -0.045838609 -0.033483513
0.025073238 -0.047353353 -0.030694094
0.048725057 -0.046288006 -0.036257774
-0.13748555 -0.030173818 -0.030366613
-0.063985318 -0.033145674 -0.030192487
-0.054776426 -0.031289764 -0.030695777
-0.033299457 -0.039206512 -0.038019761
-0.00010994077 -0.034233604 -0.030165173
0.0014989646 -0.031441066 -0.030859787
0.033282794 -0.033224594 -0.032253426
0.060835589 -0.03210428 -0.0306665
0.2424507 -0.031343654 -0.030596482
-0.12463533 -0.020617178 -0.032416221
-0.031622432 -0.021108475 -0.032731809
-0.028681569 -0.026290271 -0.031771358
-0.0157637 -0.02110035 -0.032811251
0.0073228749 -0.025600491 -0.031944431
0.017214268 -0.023507662 -0.032324046
0.081549175 -0.029479096 -0.031132763
0.172865 -0.028871074 -0.031139731
0.26548487 -0.020821365 -0.032535799
0.27557483 -0.027613036 -0.031252403
0.2854397 -0.028645288 -0.031005995
-0.15946336 -0.010929881 -0.03063133
-0.082234293 -0.019766608 -0.032772042
-0.06693504 -0.01641015 -0.032280087
-0.033923298 -0.017428052 -0.032428995
-0.016625205 -0.019911231 -0.0328683
-0.0062620081 -0.015357058 -0.032032408
0.0017545338 -0.012008062 -0.031419754
0.023668773 -0.015817193 -0.032152608
0.05499357 -0.014791327 -0.031998441
0.11283513 -0.012199987 -0.031584397
0.16049977 -0.010739687 -0.031368647
0.22826 -0.010321795 -0.031369746
0.30282438 -0.017057957 -0.032017764
-0.25407022 -0.004258004 -0.033543766
-0.23943728 -0.0058193211 -0.038446262
-0.20759898 -0.0018710671 -0.037850492
-0.19661048 -0.0046118936 -0.036190853
-0.18768887 -0.0088185668 -0.039895911
-0.17242444 -0.0034871178 -0.038782775
-0.0034857311 -0.0061370265 -0.030108128
0.0035616516 -0.0085406769 -0.030778248
0.12694006 -0.0085903062 -0.03093048
0.17011169 -0.0070223333 -0.030689698
0.28440347 -0.0089327786 -0.03110691
0.30160075 -0.0073309494 -0.030054403
-0.18789813 0.003412138 -0.038125344
-0.36657834 0.066348508 -0.031826667
-0.35076016 0.066751659 -0.031700127
-0.34594646 0.06739042 -0.030039608
-0.13918789 -0.042399522 -0.022397773
-0.067964822 -0.044191375 -0.02297923
-0.057886984 -0.041942503 -0.024638869
-0.041256689 -0.04424648 -0.023489688
-0.027193643 -0.040096529 -0.026341824
-0.0086060166 -0.044276193 -0.023553245
0.0075920415 -0.043465648 -0.02434733
0.014858165 -0.046177689 -0.023008334
0.026262078 -0.045076229 -0.025283221
0.053159863 -0.044803478 -0.023832124
0.069887407 -0.044027325 -0.025267096
0.073974662 -0.041971244 -0.024312165
0.093596324 -0.04524193 -0.022423469
0.11594593 -0.046369188 -0.020600513
0.20962265 -0.043807428 -0.023213957
0.21027264 -0.045377515 -0.021048388
0.26212364 -0.04514005 -0.020868316
0.29715434 -0.044410553 -0.02140916
0.31457919 -0.040107705 -0.024664987
-0.18108197 -0.034765113 -0.02491544
-0.17406173 -0.038021609 -0.023465469
-0.16815194 -0.035385635 -0.025804043
-0.15119259 -0.037318408 -0.025382426
-0.12588419 -0.033161908 -0.029233657
-0.04062245 -0.038491111 -0.027109865
-0.033127703 -0.038639821 -0.028725125
0.036870252 -0.037134796 -0.028201252
0.079687439 -0.039172158 -0.026756242
0.083428979 -0.035758223 -0.028881788
0.17843111 -0.034118276 -0.029537391
0.19172439 -0.034878206 -0.029008664
0.20255348 -0.038587745 -0.02659614
0.21203014 -0.036777787 -0.027714163
0.26151109 -0.036568806 -0.027620461
0.28742915 -0.037096672 -0.027088284
0.29330939 -0.033297598 -0.029444318
0.34463045 -0.030816326 -0.026416346
-0.22506317 -0.027894225 -0.024036922
-0.26297218 -0.012293571 -0.021260582
-0.24979742 -0.012723903 -0.023062728
-0.21144435 -0.015827226 -0.027885713
-0.20854253 -0.016612545 -0.028329749
-0.19478193 -0.012863768 -0.028945185
-0.18792213 -0.011100687 -0.029160101
0.34950605 -0.01284181 -0.022628523
-0.25115871 -0.0070251878 -0.020700037
-0.24635863 -0.0040493053 -0.029792812
-0.23570418 -0.0036376521 -0.026241103
-0.22626331 -0.0027371584 -0.029129896
-0.21036857 -0.0097537246 -0.025483502
-0.20208682 -0.0043912418 -0.02323423
-0.19154304 -0.0046445103 -0.022665085
-0.1826373 -0.0060665524 -0.027832262
-0.17428365 -0.0065472447 -0.029392948
-0.14010809 -0.0032954211 -0.02862736
-0.11446813 -0.00057485874 -0.026826922
-0.00067588245 -0.0021177514 -0.027589789
0.029358516 -0.0018710899 -0.027552929
0.053369336 -0.00036364791 -0.02669845
0.1049335 -0.00070143538 -0.027113698
0.1170496 -0.00070514448 -0.027163843
0.13237742 -0.0045143445 -0.029621636
0.25244629 -0.0021140536 -0.028583637
0.3256337 -0.0063660494 -0.025931537
-0.16011995 0.0056673661 -0.021290705
-0.1557726 7.6775905e-06 -0.026332378
-0.1499542 0.0028011161 -0.024374759
-0.12638645 0.0056513888 -0.022366244
-0.11685685 0.0057319109 -0.022221114
-0.040535178 6.5272325e-05 -0.02625094
-0.030861892 0.0011699281 -0.025518833
0.0073352885 0.0059724231 -0.021749044
0.033456784 0.006502918 -0.021232087
0.048972122 0.0048104892 -0.023424897
0.073424175 0.005238262 -0.023251861
0.10685922 0.0077122198 -0.020175902
0.12971297 0.0033589536 -0.024656206
0.14007816 0.0054319398 -0.023392446
0.18610184 0.0061185136 -0.023117825
0.19746278 0.0096629607 -0.021625942
0.20077381 0.0084719826 -0.022905512
0.21114549 0.0019557935 -0.025859592
0.30470878 0.0062513417 -0.021896968
-0.36319834 0.066439278 -0.029311204
-0.3405636 0.067852288 -0.024782483
-0.37576503 0.071495779 -0.021769557
-0.029164163 -0.05246051 -0.012717944
0.12509471 -0.052212834 -0.012262132
0.27901617 -0.05108539 -0.012324633
0.31767032 -0.050938264 -0.010720895
-0.23161134 -0.041027717 -0.010170906
-0.13692531 -0.04426894 -0.019842388
-0.058006465 -0.049942151 -0.015051926
0.010102188 -0.048111178 -0.019207211
0.035714842 -0.048832148 -0.015396599
0.044500645 -0.048161604 -0.018762147
0.054899633 -0.047800656 -0.016055884
0.20468979 -0.046751194 -0.019166775
0.22629468 -0.048571702 -0.016390154
-0.237663 -0.03516423 -0.016874623
0.3885923 -0.036807239 -0.012309968
-0.28653079 -0.027367566 -0.010112388
-0.27086678 -0.029239669 -0.013771832
0.38922656 -0.026026655 -0.01121782
-0.29396778 -0.0064483741 -0.014354097
-0.26801798 -0.0078796381 -0.019644879
0.34099817 -0.0038257637 -0.019579861
0.35640872 -0.0094673065 -0.016923426
-0.26967168 0.0051786522 -0.010901992
-0.25560844 0.005351875 -0.01300673
-0.23741987 0.0067554009 -0.013415841
-0.22691676 0.0067333141 -0.01463072
-0.1497449 0.0071372702 -0.019524999
-0.12493519 0.0098084658 -0.016209865
-0.10247836 0.0090199066 -0.017406544
-0.085366793 0.0095334882 -0.016667211
-0.012945906 0.0073617585 -0.019614376
-0.006010158 0.0087601077 -0.017706621
0.0064568515 0.0095258048 -0.016738305
0.030275995 0.0082203867 -0.018785965
0.043609299 0.0084694801 -0.018552629
0.053681202 0.0092744678 -0.017507905
0.08833532 0.0077456953 -0.019965421
0.12717205 0.0089699719 -0.018583659
0.19272982 0.0098750591 -0.017886611
0.2483023 0.0089829452 -0.019632149
0.25483891 0.0090414099 -0.019607438
0.32436869 0.009460967 -0.011594299
0.34075958 0.0046865926 -0.010408752
-0.092215732 0.012877068 -0.010557068
-0.075248994 0.010960613 -0.014565544
-0.061662111 0.011247405 -0.014157777
-0.035000369 0.012592543 -0.012083914
-0.027043331 0.012810881 -0.011078469
0.14052407 0.010050505 -0.017179787
0.19029111 0.014033728 -0.01142609
0.24441326 0.013455009 -0.013144072
-0.37488478 0.068341389 -0.013390256
-0.35323456 0.073093176 -0.010092148
-0.3380776 0.072410077 -0.012054508
0.35055149 -0.07008072 -0.0041180253
-0.14893249 -0.051026534 -0.00016752863
-0.13141598 -0.050960161 -0.0061212508
-0.10117452 -0.052844375 -0.0013624014
-0.099429026 -0.051392272 -0.0087319613
-0.072945267 -0.052090488 -0.0092086084
0.043678902 -0.05405917 -0.0062501701
0.096273497 -0.053158004 -0.0087637631
0.11740711 -0.052976768 -0.0089199319
0.12789716 -0.053981382 -0.0038302348
0.16716173 -0.053353149 -0.005496507
0.17624457 -0.053838413 -0.002905102
0.18371239 -0.053880166 -0.0024608544
0.22892511 -0.053146835 -0.0044264481
0.26531684 -0.052778922 -0.004958895
-0.24510205 -0.040280271 -0.005128704
-0.21691576 -0.044708282 -0.0028642984
-0.18683355 -0.04681474 -0.0061212415
-0.28013271 -0.032099493 -0.0056444253
-0.25411293 -0.037966836 -0.0067435913
0.40218291 -0.032259479 -0.0055324575
-0.29280448 -0.026344707 -0.0089763124
-0.3329764 -0.002456039 -5.4103497e-05
-0.322128 -0.0072747814 -0.0083147772
-0.31044137 -0.0025900141 -0.0099710552
0.36375409 -0.0078569613 -0.0054559177
-0.32974023 0.0037135738 -0.0023401077
-0.29641098 0.0059631011 -0.0042769662
-0.26415533 0.0090990197 -0.0031419173
-0.25374451 0.0089765303 -0.0079367841
-0.30872723 0.012999247 -0.0031941773
-0.27115357 0.015340807 -0.0029390627
-0.26288193 0.013306494 -0.0029312856
-0.2180883 0.011682056 -0.0046009407
-0.18365087 0.013723328 -0.00024747808
-0.117226 0.014522488 -0.0023365717
-0.045653589 0.013469655 -0.0079082185
-0.032360256 0.014152636 -0.0047160271
-0.022771627 0.014146215 -0.0047869775
-0.0020535612 0.013213421 -0.0096200947
0.019702621 0.013482277 -0.0089930212
0.020265475 0.014972568 -0.0019730288
0.045615938 0.015114827 -0.0020498321
0.08548709 0.014483326 -0.0062087905
0.096172221 0.014316504 -0.0073119565
0.14637218 0.015772305 -0.0019203982
0.18776779 0.015135081 -0.0061513945
0.20022577 0.016284769 -0.0010908192
0.21294892 0.015557662 -0.0048996205
0.2393022 0.016343303 -0.0019682231
0.25753897 0.015918512 -0.0045123929
0.31018221 0.014266885 -0.0031242457
-0.340388 0.037110552 -0.00051328586
-0.31188494 0.030538173 -0.0043341503
-0.30792215 0.032233685 -0.004520176
-0.29099709 0.035884172 -0.0033756983
-0.28288588 0.032925624 -0.0021180743
-0.29177314 0.046814233 -2.0119114e-05
-0.31462765 0.057417803 -0.0038827993
-0.34553134 0.066112988 -0.0040784706
-0.33550924 0.067340732 -0.0030005132
-0.3235026 0.064577729 -0.0039973557
-0.31633195 0.061819632 -0.0036346817
-0.36895996 0.071471676 -0.0037685474
-0.3542282 0.073093623 -0.004929008
-0.34196138 0.073000886 -0.0031412484
-0.33556539 0.074369274 -0.0030697654
0.34218371 -0.063077107 0.0047021862
0.3558042 -0.066000625 0.0057795066
-0.14429736 -0.050105236 0.0075046048
-0.11653994 -0.052155599 0.0036071346
-0.10752374 -0.052216176 0.0046892734
-0.030149918 -0.054829944 0.0035806294
-0.015285031 -0.055909403 0.00058292382
0.026948597 -0.054846421 0.0041906927
0.053438757 -0.053935863 0.0076006074
0.064277947 -0.054055441 0.0066806003
0.089568496 -0.053188697 0.0099239517
0.12308318 -0.053447485 0.0076012691
0.13202785 -0.053066239 0.0090997815
0.17811081 -0.053014852 0.0078217452
0.20666265 -0.054064076 0.0019442444
0.24495842 -0.053766742 0.0020800247
0.26437449 -0.053393468 0.0031957
0.30348486 -0.053384624 0.00096760888
0.34360266 -0.052882858 0.0018481109
-0.21776551 -0.043706603 0.0082955137
-0.19383726 -0.046707585 0.0044835261
-0.18913788 -0.046197221 0.0091844704
-0.15300544 -0.049568173 0.0072406512
0.4012695 -0.038339585 0.0067590233
-0.32012835 -0.020109519 0.0035810587
0.39934701 -0.02875242 0.0067571923
-0.32232714 -0.019052505 0.0019687079
0.37539715 -0.012499326 0.0029178306
0.38351661 -0.015621094 0.00039117958
0.35628423 -0.0023628885 0.00633852
-0.31156906 0.0032316041 0.0072638532
-0.26292115 0.0086718416 0.0067456509
0.3355993 0.0075226342 0.0080605401
0.35621423 3.9924846e-05 0.0024431611
-0.3341828 0.017478824 0.00055417686
-0.29550856 0.017391507 0.0056850933
-0.28605396 0.018900173 0.0055768373
-0.24803519 0.01013178 0.005883255
-0.2025968 0.013126999 0.0026667535
-0.1632635 0.013980264 0.0018795037
-0.12203939 0.015091988 0.00059102033
-0.10461549 0.013243563 0.0097048217
-0.074502446 0.014635282 0.0031272336
0.0029442739 0.013554471 0.0092429314
0.015154891 0.014975606 0.0029154846
0.022419399 0.015510874 0.00061069516
0.082922146 0.01477388 0.005858589
0.10194886 0.018939087 0.00017021949
0.11707449 0.014923857 0.0061577917
0.15133661 0.015163324 0.0060391612
0.16836479 0.01611799 0.0019209565
0.17647724 0.016427446 0.00028405219
0.18578781 0.015415307 0.0058671986
0.19079557 0.015178008 0.0071310764
0.21493804 0.014906919 0.0091169495
0.23050082 0.015256176 0.007931537
0.28984278 0.016088886 0.0031254864
0.29743153 0.014864441 0.0070714508
0.3066723 0.014128541 0.0064577674
0.32461941 0.012092878 0.0022933695
-0.33925143 0.024620231 0.00027840747
-0.292436 0.025909837 0.0056204903
-0.34046265 0.039881807 0.0018467158
-0.30341357 0.031984691 0.0058100303
-0.29579717 0.031815179 0.0054258001
-0.29462761 0.048125863 0.002073413
-0.34387997 0.053600512 0.0018874531
-0.36762089 0.068285473 0.0022237482
-0.35171023 0.067193352 0.0056830165
-0.33740163 0.067206994 0.008427904
-0.32422054 0.069240779 0.0096946442
-0.31763288 0.06125921 0.0044638519
-0.36824694 0.074638367 0.001615993
-0.35491496 0.072053961 0.0040975125
-0.32170537 0.071688302 0.0022582046
-0.054692402 -0.051366687 0.014289945
-0.045561239 -0.052507587 0.012332353
-0.00048271939 -0.05363689 0.01078534
0.057167463 -0.053358898 0.010191852
0.080993511 -0.052450124 0.013435252
0.11569889 -0.051712722 0.013895556
0.14600392 -0.051889069 0.013584391
0.19030307 -0.052229546 0.011113971
0.23397821 -0.050459631 0.014735398
0.32229608 -0.051070027 0.010798424
-0.2311008 -0.041689239 0.010012626
-0.20485789 -0.042479791 0.014263724
-0.18034707 -0.046700656 0.0108277
-0.17412667 -0.045711327 0.014251825
-0.16223101 -0.047211308 0.013861623
-0.14497426 -0.046701036 0.016536307
-0.043015759 -0.047906451 0.019759404
-0.012398625 -0.043632951 0.01930669
-0.006014226 -0.049786389 0.018071488
0.0084273359 -0.047132589 0.015132943
0.024111006 -0.048118997 0.01510406
0.043067932 -0.048141923 0.019882305
0.053253207 -0.04864683 0.019096788
0.070571013 -0.046350174 0.019289155
0.13459539 -0.049584046 0.016962197
0.14644423 -0.049928438 0.016356805
0.24735875 -0.049592167 0.015823159
0.3276749 -0.049561933 0.014186732
0.35256937 -0.044396617 0.018828616
-0.23798788 -0.03996975 0.011095928
-0.21151938 -0.039262064 0.017816424
0.37268245 -0.035113871 0.019175654
0.38461268 -0.032940827 0.015550762
-0.27702314 -0.027314007 0.014459346
-0.2861622 -0.013407752 0.01735751
0.37547654 -0.015922129 0.011848677
-0.31649861 -0.0073290411 0.010676622
-0.27505866 -0.001216641 0.016867103
-0.26595616 0.005661916 0.011994331
-0.22916248 0.0066369879 0.015644727
-0.21128358 0.0074134497 0.016597221
-0.17276284 0.0074127708 0.019198921
-0.083823591 0.0081645986 0.019526783
-0.073478602 0.0086115152 0.018861547
-0.050861556 0.0086991787 0.018734658
-0.042715274 0.0091994815 0.018040204
-0.033991784 0.0097278552 0.017306935
0.032671519 0.0098850839 0.017534576
0.065576993 0.0085063102 0.019765589
0.1761494 0.0096125221 0.019181628
0.20617831 0.0096948976 0.01933025
0.3242299 0.0099549517 0.012016562
0.33514884 0.0068989992 0.011294714
-0.11285153 0.01087138 0.015619597
-0.052328032 0.011490603 0.01480256
0.036982138 0.012969803 0.012995413
0.056259546 0.013692496 0.010162206
0.095634766 0.013632327 0.011603855
0.17562985 0.011454356 0.016583562
0.19331574 0.011607114 0.016524319
0.21726963 0.014025857 0.01332587
0.22060433 0.010042891 0.018967267
0.29274505 0.013890823 0.012532304
0.30442846 0.012167264 0.014330838
-0.37603888 0.06838046 0.015731763
-0.33938304 0.067543551 0.01865506
-0.36643034 0.072228484 0.014756538
-0.35167325 0.072888568 0.015896231
-0.32853368 0.071997032 0.010654714
-0.1017772 -0.044308402 0.022581011
-0.082976453 -0.045525037 0.02158545
-0.020002488 -0.042126507 0.025513612
-0.018022958 -0.041950211 0.026421729
0.0029373786 -0.046052605 0.02772579
0.012385445 -0.041841395 0.026402151
0.020827286 -0.041416068 0.026630878
0.039065395 -0.047488317 0.029457433
0.064950623 -0.043230306 0.025295271
0.14728528 -0.043571081 0.024711894
0.15514824 -0.044821426 0.023073532
0.16916353 -0.047015581 0.020239554
0.21184909 -0.042007964 0.025402088
0.22511573 -0.04452616 0.023180576
0.26383579 -0.042435817 0.024911804
0.27673385 -0.045662545 0.021059932
0.29631624 -0.040963601 0.025621412
-0.20249978 -0.033161499 0.024582611
-0.19730039 -0.03606502 0.023286132
-0.17757265 -0.035871804 0.025602864
-0.15831029 -0.036866419 0.026449643
-0.015950115 -0.038333293 0.028709579
0.0023123706 -0.036724187 0.02965547
0.051025145 -0.038344029 0.02842107
0.10345596 -0.036950864 0.029074829
0.13793164 -0.036404558 0.029283201
0.20663145 -0.036028996 0.029248437
0.23244578 -0.039036833 0.027214676
0.25362372 -0.039351679 0.02692778
0.28780034 -0.035642378 0.029107817
-0.25567922 -0.026068289 0.020531304
-0.2413269 -0.021973219 0.024480116
-0.24428894 -0.015559987 0.025343122
-0.23806465 -0.019889448 0.02531423
-0.21455126 -0.01074254 0.022857508
0.33501327 -0.013052146 0.0283168
0.35090116 -0.013129181 0.023466315
-0.25385284 -0.0064612152 0.023925688
-0.24318248 -0.00055328081 0.020853978
-0.23531435 -0.0027531211 0.022738496
-0.22303011 -0.0020473164 0.023860436
-0.20539725 -0.0077171237 0.027970932
-0.19168991 -0.0093175657 0.029567782
-0.18309909 -0.0090420544 0.026735362
-0.16869722 -0.0022979276 0.028741736
-0.037016101 -0.00078285177 0.027779857
0.022600934 -0.0016842727 0.028479617
0.11097901 -0.00020147684 0.027894236
0.15406175 -0.0026963162 0.029633714
0.17058125 -0.0016529394 0.029042231
0.19046132 -0.0022067151 0.02946917
0.29319999 -0.00057172985 0.028542941
0.31381249 -0.0044293823 0.028306536
0.32707313 -0.00097238307 0.023576012
0.34443879 -0.0068242196 0.021435769
-0.16404483 2.7943344e-05 0.026975265
-0.094021335 0.0067208046 0.021702446
-0.03177331 0.0035047405 0.025076838
0.02202028 0.0057975762 0.023195773
0.038320318 0.0064843092 0.022372413
0.056928441 0.0034137643 0.025406495
0.061962321 0.0081280833 0.020266237
0.079789363 0.0082949987 0.020188142
0.10772251 0.0038105331 0.025356587
0.11250371 0.007825206 0.021137381
0.19391552 0.004318587 0.027138617
0.23709975 0.0067589837 0.023736263
0.27301854 0.0072651836 0.023339748
-0.38135716 0.069545671 0.022555796
-0.35100728 0.066728503 0.022639461
-0.34932548 0.066634402 0.026417512
-0.33893484 0.067995459 0.023995768
-0.35437572 0.072008617 0.028730974
0.0088661369 -0.069628984 0.037033759
0.024091674 -0.047012281 0.038460031
0.045624927 -0.046511799 0.035813268
0.054337904 -0.045610458 0.039162774
0.066248313 -0.043070067 0.032410398
-0.067864902 -0.032439373 0.031485256
-0.035459571 -0.038561165 0.031626783
-0.016870178 -0.034967855 0.032926407
0.0038971296 -0.03481251 0.035675939
0.033559341 -0.032601893 0.031711355
0.062485084 -0.03538774 0.033736955
0.079819016 -0.032254603 0.031687476
0.25332338 -0.031473964 0.031630237
0.26982364 -0.032179635 0.031465098
0.28286827 -0.033768557 0.03036318
-0.16428176 -0.028537607 0.03094906
-0.13756165 -0.027025977 0.032090589
-0.1246152 -0.023220373 0.032984633
-0.072018355 -0.025670873 0.032787599
-0.033863559 -0.023685636 0.033322025
-0.0086674588 -0.028948212 0.032408841
0.0111758 -0.020142244 0.034012266
0.09930335 -0.026960209 0.032653898
0.1665152 -0.025053211 0.032931913
0.172149 -0.023682563 0.033181466
0.19343835 -0.020537425 0.033744186
0.24396378 -0.025499914 0.032757767
0.26027977 -0.024545098 0.032917216
0.29872692 -0.025263412 0.032589328
-0.1798746 -0.018122181 0.032033149
-0.16610746 -0.019852471 0.032836359
-0.14071123 -0.017650146 0.033485536
-0.13151935 -0.01234863 0.032610331
-0.10525578 -0.01566375 0.033225078
-0.091970935 -0.012120757 0.032509658
-0.071049683 -0.010947734 0.032277156
-0.060911305 -0.012234706 0.032515429
-0.053341839 -0.011504801 0.032379571
-0.042921007 -0.013329877 0.032717817
0.014392952 -0.014678509 0.033001591
0.026632352 -0.010556859 0.03225055
0.1329692 -0.013077937 0.032841958
0.16979194 -0.016163183 0.033457462
0.17471331 -0.015701424 0.03337729
0.20028256 -0.015982682 0.03345938
0.21159217 -0.01526952 0.033340283
0.22299545 -0.012139453 0.032772195
0.24361055 -0.013085658 0.032971848
0.26061875 -0.016826887 0.033686362
0.27308398 -0.017480461 0.033822179
0.30668363 -0.011948843 0.031479713
0.31225687 -0.01372494 0.031695683
0.32851738 -0.01559309 0.0304626
-0.23901957 -0.0074082878 0.032779165
-0.21445894 -0.0009473291 0.033756707
-0.20512789 -0.0029631613 0.03781328
-0.19488889 -0.0014621897 0.032635078
-0.1836534 -0.0047108261 0.039004847
-0.14292184 -0.0077247233 0.031539373
-0.11377591 -0.0083218673 0.031797748
-0.097230226 -0.0062363497 0.031404078
-0.057190824 -0.0098874429 0.032079559
0.089850374 -0.0099141123 0.032204602
0.10373075 -0.0048160395 0.030769844
0.14140168 -0.0098261219 0.032248281
0.17239244 -0.0079048323 0.031927343
0.1970993 -0.004525918 0.030954823
0.21132258 -0.0086605623 0.032112785
0.22119893 -0.0090752179 0.03220116
0.23476231 -0.0064513963 0.031729799
0.2987901 -0.0069837496 0.031414583
0.31249899 -0.0079804352 0.030092297
-0.17709966 0.0047249869 0.039330903
-0.37001812 0.06635277 0.031918254
-0.37021279 0.071749307 0.034416258
-0.36601606 0.072037995 0.032708738
-0.35460088 0.071149029 0.039523799
-0.34713662 0.07070554 0.037263229
-0.0055061183 -0.068306774 0.048021104
-0.017397331 -0.042314366 0.045677211
-0.0038791825 -0.044686869 0.046658993
0.00069947587 -0.046231337 0.048695896
0.045931425 -0.045387369 0.047452822
0.063632287 -0.040581476 0.04159769
-0.036523141 -0.03828714 0.046910942
-0.0049373657 -0.03459695 0.046907347
0.00059811771 -0.034283735 0.047879163
0.01518421 -0.033633359 0.047314174
-0.20730361 -0.015846997 0.047985815
-0.18070383 -0.017064234 0.049718082
-0.17952178 -0.011882648 0.042726509
-0.21503253 -0.0062478632 0.043620825
-0.18269187 -0.007473839 0.042379975
-0.24884938 0.0029245445 0.0485918
-0.2213138 0.0040543703 0.045068514
-0.21276769 0.0047711418 0.0442953
-0.18173139 0.0028885636 0.048100017
-0.17676957 0.0072693336 0.044740565
-0.21684924 0.01126497 0.045076173
-0.20564437 0.013844998 0.045162223
-0.16675819 0.011450833 0.046985649
-0.37647405 0.066024691 0.042312846
-0.35333008 0.067235991 0.04348956
-0.38329107 0.070695072 0.045025412
0.006900575 -0.071763515 0.053312633
-0.0099449679 -0.052990846 0.055970691
-0.025357515 -0.043343402 0.053924263
-0.0069442992 -0.046451397 0.058471747
0.0025519284 -0.045873776 0.054985374
0.0039037913 -0.03358138 0.05766619
0.049162906 -0.034709409 0.058264837
0.052188244 -0.034860302 0.053927593
-0.18264523 -0.015422495 0.057893202
-0.1791015 -0.017573345 0.058250725
-0.24222177 0.0079921503 0.058115937
-0.22937499 0.010101233 0.057710312
-0.19037224 0.018283775 0.056762386
-0.17428133 0.014859366 0.05289343
-0.38440341 0.06597583 0.052014098
-0.38802847 0.07029292 0.051732048
-0.37526226 0.070681557 0.058790796
-0.36946654 0.070927292 0.052100666
-0.00632759 -0.04337066 0.068565413
-0.028502982 -0.035825737 0.068048649
0.0010827775 -0.033443086 0.062493593
0.02753602 -0.033456244 0.069254704
0.047815971 -0.034631602 0.060163893
-0.2150569 -0.00603275 0.064945146
-0.1982462 -0.0099577662 0.069396436
-0.17864999 -0.0028795954 0.067638583
-0.24526954 0.0019288426 0.063019574
-0.23201126 0.0054981089 0.063658006
-0.21320602 0.006522133 0.068441942
-0.17345181 0.010131909 0.064174689
-0.37103039 0.069438569 0.069819883
-0.017048707 -0.041928858 0.076259442
0.023266178 -0.04389539 0.0766754
0.032181203 -0.042798899 0.07817027
-0.030799769 -0.036094937 0.071341887
-0.019904284 -0.034045778 0.077823229
0.034617599 -0.033804983 0.071278214
-0.17319684 -0.0023484966 0.071642213
-0.20654272 0.0054137888 0.071628571
-0.37381279 0.066371918 0.073780991
-0.38538599 0.070298374 0.070419729
-0.017956387 -0.041601561 0.087014228
0.0068158698 -0.043816403 0.088122882
-0.019222775 -0.033560891 0.086237907
-0.4005155 0.064713284 0.089884453
-0.39652714 0.06933751 0.083379202
-0.016960425 -0.04140212 0.096787304
0.025831323 -0.040394355 0.094332367
-0.036767844 -0.035988115 0.099383436
0.027506497 -0.036691818 0.099823467
0.014763096 -0.041491441 0.10278196
-0.035162948 -0.035343669 0.10566782
-0.027597705 -0.03672497 0.10510215
-0.027897662 -0.045905486 0.11468672
-0.015141752 -0.041109759 0.1115211
-0.031549327 -0.037603598 0.11661147
-0.025597919 -0.032852642 0.11223987
0.0049939188 -0.031294856 0.11272188
0.012821048 -0.032642659 0.1163352
-0.012925702 -0.040741906 0.12246452
-0.043017779 -0.034364052 0.12960917
0.0069128904 -0.037599474 0.12593918
-0.037497044 -0.03446278 0.13365373
-0.026693985 -0.036246412 0.13691132
-0.0053718048 -0.038517341 0.13855714
0.0037943807 -0.035934918 0.13701588
-0.050397471 -0.031789221 0.14569248
-0.048116714 -0.031745501 0.14420903
-0.035117537 -0.036240552 0.14308362
-0.02066531 -0.038465798 0.14920522
-0.017517151 -0.03934918 0.14056405
-0.055215567 -0.032523729 0.15843625
-0.0097159483 -0.030080013 0.15076673
-0.02513789 -0.029286578 0.15147343
-0.044079363 -0.037263006 0.1634707
-0.021121299 -0.036108844 0.16692783
-0.049367033 -0.029825568 0.16809094
-0.025811542 -0.028725194 0.1655063
-0.060960192 -0.031919833 0.1737088
-0.056962758 -0.033259943 0.17388853
-0.040532541 -0.035851717 0.17366931
-0.032496229 -0.035896648 0.17613232
-0.02461095 -0.035164259 0.17600688
-0.015837854 -0.031820275 0.17525578
-0.038995765 -0.028448563 0.17307779
-0.037745006 -0.034903396 0.18699561
-0.02625649 -0.031907089 0.18967447
-0.054145373 -0.028547209 0.18734445
-0.054198936 -0.033502907 0.19863653
-0.038454778 -0.027552437 0.19399053
-0.044427194 -0.027004937 0.20586514
-0.068370342 -0.031304881 0.21703996
-0.046435572 -0.031190027 0.21869071
-0.072141379 -0.027885891 0.21676746
-0.059419826 -0.026818208 0.21127103
-0.049420293 -0.026499987 0.21286851
-0.060156886 -0.025859643 0.22042595
-0.050256535 -0.026514821 0.22857368
-0.063992962 -0.029627502 0.23830076
-0.081301808 -0.025967402 0.24214135
-0.072776102 -0.026174163 0.24314244
-0.075432576 -0.02393809 0.25508004
-0.068206012 -0.027424032 0.25619715
-0.097448535 -0.021990901 0.26018578
-0.072478868 -0.02159496 0.26119843
-0.10483956 -0.0088461051 0.26774266
-0.094545729 -0.0041870144 0.27107984
