# .PCD v0.7 - Point Cloud Data file format
VERSION 0.7
FIELDS x y z
SIZE 4 4 4
TYPE F F F
COUNT 1 1 1
WIDTH 834
HEIGHT 1
VIEWPOINT 0 0 0 1 0 0 0
POINTS 834
DATA ascii
-0.24882366 -0.0111897 -0.39461333
-0.23359385 -0.01283781 -0.37389407
-0.22378969 -0.011312369 -0.37256786
-0.23378071 -0.0066465246 -0.3735044
-0.23187856 -0.01278183 -0.36607516
-0.22523883 -0.0063905939 -0.3678866
-0.22153595 -0.011437446 -0.3507438
-0.21372075 -0.014110965 -0.35473764
-0.20977037 -0.0108504 -0.3592793
-0.20648788 -0.0082883518 -0.35599685
-0.21980639 -0.014891572 -0.34818003
-0.21691644 -0.0045374092 -0.34801033
-0.20023775 -0.015925052 -0.33320659
-0.18381141 -0.01026166 -0.33332038
-0.20647186 -0.0037289972 -0.33669171
-0.20346203 -0.017068213 -0.32419348
-0.19499391 -0.016492765 -0.32607049
-0.17619564 -0.011147323 -0.3257046
-0.20320851 -0.007344041 -0.32357615
-0.1935738 -0.0025732815 -0.32130075
-0.17477587 -0.0060254307 -0.32428482
-0.16385469 -0.015809385 -0.31090814
-0.17352305 -0.0025943909 -0.31369841
-0.17306724 -0.017484765 -0.30864093
-0.1859839 -0.00074550137 -0.30193722
-0.16830347 -0.0014241645 -0.30116105
-0.15493184 -0.0055675302 -0.3044408
-0.17643233 -0.018891055 -0.29731944
-0.16710883 -0.018235531 -0.2995832
-0.16792169 -0.00021981436 -0.29019728
-0.1445944 -0.0049207979 -0.29410332
-0.15856975 -0.018971099 -0.28965908
-0.13915512 -0.015572648 -0.2886641
-0.13797295 -0.0004587021 -0.28070426
-0.13985685 -0.02015706 -0.27173656
-0.12711371 -0.019363219 -0.27391356
-0.16831619 -0.0032209689 -0.27185357
-0.14117274 -0.020754773 -0.26688018
-0.13905936 -0.021097299 -0.26298285
-0.16638857 -0.018218162 -0.26899618
-0.11496815 -0.011778987 -0.2644771
-0.14476611 0.0019069992 -0.26209942
-0.15717249 -0.021926429 -0.25533468
-0.12388808 -0.021134637 -0.25675184
-0.15395856 -0.011563692 -0.25057054
-0.10577507 -0.016958131 -0.25528398
-0.15491483 -0.0079969242 -0.25198805
-0.10350918 -0.0016855802 -0.25301814
-0.13857059 0.0023511536 -0.25570315
-0.12952377 0.001511038 -0.25973195
-0.11106747 0.00088589173 -0.2581737
-0.11938628 -0.022795875 -0.24008366
-0.15087992 -0.015532605 -0.24600694
-0.095345624 -0.019490166 -0.24485457
-0.1521762 -0.0028369089 -0.24792849
-0.11608118 0.0026648499 -0.2441465
-0.12609074 -0.023679677 -0.23475209
-0.08646027 -0.020720327 -0.2359692
-0.14012106 -0.010087257 -0.23005855
-0.14135851 0.0045485902 -0.23705295
-0.13946284 0.0044442182 -0.23725358
-0.12499301 0.0044451794 -0.23162183
-0.091352731 0.0027966877 -0.23335287
-0.12449109 -0.025011059 -0.22217396
-0.1361369 -0.0052899411 -0.22415264
-0.077984184 -0.0076406989 -0.22749311
-0.11600538 0.0047121826 -0.22573139
-0.087870762 0.0037068613 -0.22382613
-0.07805039 -0.02347699 -0.21790341
-0.13122648 -0.0018893806 -0.21687368
-0.1260086 0.0064187013 -0.21429369
-0.12439877 -0.025099404 -0.20675263
-0.11000884 -0.02677634 -0.20069295
-0.095109835 -0.02570018 -0.20456751
-0.087908037 -0.025008218 -0.207983
-0.12238098 -0.017965917 -0.20376156
-0.055413414 -0.017831691 -0.20492235
-0.1204773 -0.0026178528 -0.20093964
-0.054365546 -0.007998093 -0.20387448
-0.10248971 0.0065408805 -0.20405683
-0.088436514 0.0057369196 -0.20581546
-0.079178073 0.0051836632 -0.20718595
-0.043265581 -0.023120835 -0.1927745
-0.074962363 -0.027270062 -0.18263972
-0.10647817 -0.019590765 -0.18018804
-0.040392116 -0.017549997 -0.18990104
-0.10844961 0.0084531717 -0.18919998
-0.04499387 -0.026737152 -0.17577951
-0.037090905 -0.026645146 -0.1735346
-0.10597783 -0.014450822 -0.17944637
-0.047471508 0.0073518748 -0.17539333
-0.089571573 -0.030185746 -0.16213268
-0.056284104 -0.028090773 -0.16801079
-0.025930345 -0.02688688 -0.16702664
-0.015827052 -0.021115888 -0.16533595
-0.020405849 -0.013390492 -0.16991477
-0.099403843 0.0045125736 -0.16970143
-0.054157943 0.0087983441 -0.16500202
-0.044516567 0.0082514109 -0.16616693
-0.012678079 0.001542103 -0.16218698
-0.078386016 -0.030201111 -0.15764791
-0.084636889 -0.023078969 -0.1535894
-0.076596543 -0.028352572 -0.15469487
-0.059067003 -0.029633064 -0.1552417
-0.020280644 -0.027897546 -0.15575482
-0.016388651 -0.027753338 -0.15553743
-0.084683016 -0.019952744 -0.15360935
-0.0076989457 -0.019097067 -0.15720786
-0.084415764 -0.0022512607 -0.15350549
-0.0088143041 -0.0059895944 -0.15832321
-0.090093315 0.0054131029 -0.15589999
-0.051319622 0.0094181187 -0.15833327
-0.04577608 0.0098921666 -0.15192193
-0.075921625 0.011221644 -0.15169764
-0.080478363 -0.030923299 -0.14376542
-0.065515384 -0.030923299 -0.14081165
-0.045321744 -0.030186079 -0.14493382
-0.062710375 -0.020872375 -0.1450706
-0.020115804 -0.028626975 -0.14914013
-0.0052597523 -0.028391793 -0.14547898
-0.071414016 -0.012341895 -0.14845291
0.0018544579 -0.015353013 -0.14765444
-0.086223662 -0.0045576184 -0.14030436
-0.070824258 -0.0023248619 -0.14822373
-0.060099773 -0.00097839814 -0.1440561
-0.05794666 -0.0046249968 -0.14321938
-0.087827034 0.0071124448 -0.14695652
-0.066245742 -0.030923299 -0.13595939
-0.044480365 -0.030923299 -0.13563189
-0.084118925 -0.024879068 -0.13157274
-0.08626581 -0.018160988 -0.13712738
-0.049649987 -0.016158994 -0.13999522
0.016278278 -0.018085636 -0.13323064
-0.084642962 -0.00738073 -0.13039573
-0.036396839 -0.0089978203 -0.13484493
-0.093193412 0.0030207671 -0.13325685
-0.0850894 0.0032550462 -0.13559893
-0.082645498 0.0113879 -0.13320701
-0.023706045 0.010881084 -0.13277461
-0.074358195 -0.030923299 -0.12497894
-0.062694393 -0.030923299 -0.12434357
-0.0034758355 -0.030735398 -0.12373899
-0.083463833 -0.02406461 -0.12885514
0.028281819 -0.014002509 -0.12122709
-0.084535576 -0.0065193949 -0.1299499
-0.02266999 -0.00056245178 -0.12951055
-0.0054570735 -0.0090048444 -0.12282147
-0.083857328 0.0058757728 -0.12492839
-0.017682344 0.0039278674 -0.12757233
0.023774564 0.0016429441 -0.12573433
-0.028339472 0.0113879 -0.12157182
-0.012868996 0.011335864 -0.12616912
-0.0042852513 0.011371753 -0.1225111
0.0071552545 0.010926513 -0.12206361
-0.065856375 -0.030923299 -0.11676368
0.012194278 -0.030923299 -0.11152955
0.0055964477 -0.029571794 -0.11852598
-0.080205262 -0.015481661 -0.11533616
0.0065064356 -0.010531306 -0.11817235
0.034916375 -0.013081497 -0.11459252
0.032735281 0.0059147244 -0.11677362
-0.079950705 0.010910432 -0.1142801
-0.039859693 0.0113879 -0.11874849
-0.0058804508 0.0113879 -0.11338492
-0.044838995 -0.030923299 -0.10733265
-0.0173504 -0.030923299 -0.10087979
-0.0038985563 -0.030923299 -0.10155129
0.0022007916 -0.030923299 -0.10902429
0.022844262 -0.030923299 -0.10980434
-0.077423096 -0.023575135 -0.10379384
0.042097379 -0.027924586 -0.10741152
-0.07878305 -0.018164221 -0.10943583
0.052050821 -0.014009506 -0.10007894
0.046778105 -0.003992768 -0.1027308
0.028737262 0.0027285218 -0.10953326
0.042725001 0.0063753827 -0.1040975
0.051356226 0.0082395943 -0.10040442
-0.022294827 0.0113879 -0.10688925
0.033571362 0.011387901 -0.10753119
-0.064232096 -0.030923299 -0.093496986
-0.041095562 -0.030923299 -0.096497498
-0.028960265 -0.030923299 -0.096321724
0.011409087 -0.030923299 -0.093917876
0.056912765 -0.0263233 -0.097800672
0.047161955 -0.011378524 -0.0967751
-0.075762965 -0.0084604127 -0.096906461
0.055936296 -0.00855486 -0.098258235
0.062364653 -0.0015426262 -0.095245957
0.073253542 -0.0098728128 -0.090143509
-0.075168498 0.008375911 -0.094440222
0.047180697 0.0077593019 -0.094331048
0.054722793 0.0029048836 -0.09882687
0.071548469 0.0080924854 -0.090085812
-0.068477839 0.0113879 -0.095278502
-0.010148502 0.0113879 -0.090768971
0.0065127807 0.0113879 -0.098088481
-0.054944299 -0.030923299 -0.083128035
-0.018582486 -0.030923299 -0.081324108
0.0065935943 -0.030923299 -0.088439561
0.01522225 -0.030923299 -0.083407708
-0.072361469 -0.02785743 -0.082794711
0.047232579 -0.015625848 -0.087565914
-0.081666149 -0.0061193374 -0.081476882
-0.073752925 0.0053131254 -0.088567451
0.085741229 0.0035216685 -0.084291883
-0.049915679 0.0113879 -0.084309146
-0.0070199706 0.0113879 -0.081909508
0.00063143391 0.0113879 -0.08768189
0.031937432 0.0113879 -0.086817198
-0.049632952 -0.030923299 -0.079341635
-0.025839088 -0.030923299 -0.077635005
0.002650287 -0.030923299 -0.079528712
0.026861459 -0.030923299 -0.07186006
0.04954271 -0.030819219 -0.075263985
0.062443398 -0.030212596 -0.077074692
-0.076046519 -0.0203414 -0.076522656
0.047308087 -0.021284537 -0.077719502
0.095588699 -0.025932986 -0.078121498
0.11501136 -0.024373559 -0.070576124
-0.076981492 -0.019763891 -0.077490345
-0.069307655 -0.01454039 -0.070125386
0.047308512 -0.011343701 -0.077663362
0.10510208 -0.013278652 -0.075219542
-0.07363873 -0.0098247621 -0.078457206
-0.069612816 -0.0036693963 -0.07139089
0.047346905 -0.0097947977 -0.0726569
0.098280132 -0.0092504527 -0.078416251
0.10989894 -0.0010242001 -0.072971776
0.11618309 -0.00055108359 -0.070027068
0.059073687 0.0098019289 -0.07061433
0.074012071 0.0077726236 -0.076701045
0.095101126 0.00075677317 -0.079905905
-0.024221014 0.0113879 -0.071808904
-0.00033981114 0.0113879 -0.075252771
0.012041567 0.0113879 -0.079820961
-0.054029886 -0.030923299 -0.062720165
-0.037726969 -0.030923299 -0.069180287
0.00062498637 -0.030923299 -0.061555706
0.047594242 -0.030916149 -0.060258545
0.050427578 -0.030781377 -0.064928152
0.10685907 -0.028132344 -0.060291409
0.11119167 -0.027927238 -0.0647147
0.13293312 -0.020466026 -0.062178124
-0.074396126 -0.015479269 -0.062901765
-0.06759046 -0.0046196142 -0.062612757
0.04738583 -0.0063362042 -0.067581154
0.12728946 -0.0033710045 -0.064822711
0.072130255 0.0080359671 -0.068505362
0.084664181 0.0063387137 -0.06839101
0.11706181 0.0019552235 -0.065008134
-0.048345454 0.0113879 -0.065299354
-0.026411256 0.0113879 -0.068578742
-0.012525013 0.0113879 -0.063829757
0.009283646 0.0113879 -0.066062801
0.016006036 0.0113879 -0.066237591
0.036550224 0.0113879 -0.065851972
0.053996034 0.010495274 -0.06510137
-0.05679189 -0.030923299 -0.0536111
-0.042832591 -0.030923299 -0.052096888
-0.011286502 -0.030923299 -0.052096274
0.0011169608 -0.030923299 -0.059751514
0.011519609 -0.030923299 -0.055893756
0.040478501 -0.030923299 -0.051762681
0.04745442 -0.028216537 -0.058636468
0.071823567 -0.029780399 -0.053719137
0.10979754 -0.027994815 -0.058910064
0.14087225 -0.026536198 -0.056057412
-0.065776154 -0.01535365 -0.055474304
0.047484986 -0.017929258 -0.054651096
-0.065016694 -0.006833991 -0.052323539
0.14195609 -0.0014028409 -0.05243542
0.07055521 0.0082608275 -0.057360757
0.1000393 0.0042669326 -0.058692683
0.12922335 0.00032170955 -0.05213384
-0.018030725 0.0113879 -0.057896078
-0.0061262539 0.0113879 -0.055835374
0.011385634 0.0113879 -0.050793219
0.047189973 0.011387901 -0.054594558
-0.060011581 -0.030923299 -0.047464438
-0.042288318 -0.030923299 -0.043702204
-0.023659214 -0.030923299 -0.049045075
0.03419948 -0.030923299 -0.04503255
0.045038756 -0.030908315 -0.047365852
0.047583405 -0.029706236 -0.041816231
0.11772471 -0.027628278 -0.042755209
0.13101068 -0.027004875 -0.040907029
0.14664629 -0.02626878 -0.045508556
0.15442881 -0.025902323 -0.047990289
0.16260047 -0.023435349 -0.048276249
-0.063846014 -0.016502354 -0.047466736
0.15983424 -0.013580292 -0.04957249
0.16539261 -0.01233652 -0.046967871
-0.061135806 -0.0042463974 -0.042255376
0.13975723 -0.0010969916 -0.044651568
0.164764 -0.005351644 -0.04726243
0.058335863 0.0099257482 -0.04757921
0.065278821 0.0089915693 -0.041749202
0.076042511 0.0075347461 -0.040959883
0.12979233 0.00025015767 -0.046840433
-0.057130765 0.0113879 -0.047846466
-0.038127195 0.0113879 -0.043170325
0.0448086 0.0113879 -0.049984686
-0.050880767 -0.030923299 -0.03395281
-0.02808119 -0.030923299 -0.031509548
-0.010824303 -0.030923299 -0.038431291
-0.0041958839 -0.030923299 -0.032327093
0.045417987 -0.030477 -0.036701515
0.063993067 -0.030155221 -0.034270994
0.047663849 -0.026980838 -0.031326212
0.078788787 -0.02946163 -0.030404396
0.10589644 -0.028187722 -0.032082357
0.12007459 -0.027521644 -0.032355871
0.14966765 -0.02613141 -0.032878939
-0.056285471 -0.01807707 -0.035578001
0.14223504 -0.0014212236 -0.033768795
0.1517404 -0.0027094744 -0.034784239
0.16579679 -0.0046179877 -0.039625809
-0.056137841 0.009213089 -0.035374764
0.047639683 0.006925791 -0.034477588
0.079943769 0.0070114392 -0.036135688
-0.023854163 0.0113879 -0.034835845
-0.018596029 0.011387901 -0.038304053
-0.0013981684 0.0113879 -0.037254728
0.0016217511 0.011387901 -0.036351193
0.010502944 0.0113879 -0.035386261
0.029267075 0.0113879 -0.03312207
-0.040986523 -0.030923299 -0.027266035
-0.018144257 -0.030923299 -0.024037074
-0.0096747633 -0.030923299 -0.020768598
0.021466652 -0.030923301 -0.02065267
0.060732149 -0.030312954 -0.021613006
0.071326286 -0.029815309 -0.021659357
0.11068875 -0.027966585 -0.021065395
0.13594535 -0.026778525 -0.025799464
0.14411759 -0.026396327 -0.021162592
0.18289289 -0.024573317 -0.025760274
-0.050393119 -0.013605738 -0.027466111
0.20241702 -0.01071203 -0.029618528
0.21891981 -0.014678665 -0.021885451
-0.047064126 -0.0060275206 -0.022883141
0.14334373 -0.0015635337 -0.026233481
0.16947415 -0.0050999112 -0.024168951
0.047696739 3.8742612e-05 -0.027036965
0.082498327 0.0066803861 -0.021820057
0.11992866 0.0016036608 -0.029450703
0.0029198872 0.0113879 -0.022980455
0.014815317 0.011387901 -0.028354507
0.034392558 0.011387901 -0.025506278
0.05162774 0.010861649 -0.021141969
-0.03467549 -0.030923299 -0.018837113
-0.0070212027 -0.030923299 -0.014688378
0.006792645 -0.030923299 -0.016696675
0.023693353 -0.030923299 -0.017714331
0.047147058 -0.030923299 -0.018731065
0.054697871 -0.030597528 -0.018470611
0.070702776 -0.029845608 -0.01884795
0.085816875 -0.029137578 -0.013543123
0.098303199 -0.028551344 -0.012781701
0.14076537 -0.026556697 -0.013094021
0.15391482 -0.025938725 -0.013961307
0.16198687 -0.025559157 -0.015096728
0.17638904 -0.024883889 -0.011676362
0.18860239 -0.024308642 -0.01600514
0.20006484 -0.023770818 -0.014364121
0.2156304 -0.023038222 -0.018391322
0.047771513 -0.0047383197 -0.017286528
-0.03821655 0.007221472 -0.010702848
0.10525234 0.0036030682 -0.017981783
-0.041408211 0.0113879 -0.018840581
0.036348954 0.012503261 -0.011421263
0.048790053 0.01494669 -0.013295421
0.050142776 0.011070665 -0.013551521
0.067054555 0.010592139 -0.01263412
-0.022416137 -0.030923299 -0.0075119627
0.0051889271 -0.030923299 -0.0072813137
0.017924223 -0.030923299 -0.00064269081
0.028709657 -0.030923299 -0.0060768556
0.036857195 -0.030923299 -0.0042459778
0.053575609 -0.030656364 -0.0014781132
0.083121553 -0.02926806 -0.0027808144
0.11936058 -0.027564339 -0.0069354847
0.13032703 -0.027050178 -0.0042870939
0.14221387 -0.026489941 -0.0095242364
0.15348814 -0.025961971 -0.0050705336
0.19269437 -0.024119508 -0.0074717766
0.20624448 -0.023482841 -0.007998365
0.24455376 -0.021685578 -0.0018825496
0.047882065 -0.013339829 -0.0028703362
0.20711356 -0.010172838 -0.00095231528
-0.035451125 -0.00066456571 -0.0068957377
0.13410562 -0.0002598702 -0.0011466676
0.14497572 -0.0017580928 -0.00073768385
0.15640569 -0.0033127898 -0.0073071565
0.17430741 -0.0057344148 -0.0049123294
0.098186567 0.0045729796 -0.0055788392
0.1126672 0.0026154418 -0.0023165806
0.12461803 0.00099006563 -0.0089725852
-0.033005424 0.010142798 -0.0035287878
-0.0018083127 0.0113879 -0.0077976808
0.005042145 0.0113879 -0.0096147563
0.01195921 0.0113879 -0.0040927455
0.025314786 0.011787916 -0.0091133136
0.045944657 0.013223153 -0.0036239058
0.076823093 0.014813167 -0.0027532717
0.05734494 0.022089163 -0.00025742792
-0.02475854 -0.023072595 0.0078245467
0.087730616 -0.029052638 0.00020390056
0.090091154 -0.028942488 0.0022274032
0.17027682 -0.025176056 0.0023815092
0.20355237 -0.023612201 6.6494104e-05
0.21802479 -0.022933073 0.0019338755
0.22933066 -0.022404164 0.0079074251
0.23805025 -0.02199221 0.0013043233
0.21038088 -0.010607206 0.0068280203
0.22893201 -0.013117979 0.0081574563
0.13256507 -7.0157053e-05 0.006262714
0.15880781 -0.0036219133 0.0081627406
0.12315919 0.0043095201 0.0046664481
-0.010269593 0.0113879 0.0087382514
0.0075205513 0.014133987 0.0017987466
0.018934403 0.011387901 0.0067718485
0.04792694 0.012694199 0.0029579804
0.11460585 0.011694709 0.0079586115
0.026128469 0.020133024 0.0024200943
-0.020706218 -0.030923301 0.015519448
-0.0032217354 -0.030923299 0.017699849
0.052188203 -0.030727483 0.015043808
0.066665947 -0.030046219 0.011673469
0.068951726 -0.0299384 0.010418553
0.11231805 -0.027904611 0.019352291
0.12974229 -0.027085368 0.017151166
0.14507653 -0.026363607 0.013042338
0.18986285 -0.024259221 0.011154469
0.20165586 -0.023706462 0.014445074
0.22409612 -0.022651987 0.013308435
-0.023144498 -0.017037969 0.010046567
0.22302109 -0.012309712 0.015694218
0.25077805 -0.016072186 0.012138424
0.047988445 -0.0080321506 0.01100228
0.13739373 -0.00071745575 0.012608768
0.058254156 0.0099969842 0.010241241
0.071075097 0.0082615102 0.010924404
0.10691963 0.0034150626 0.018185981
-0.022239994 0.0113879 0.014084414
-0.017854527 0.0113879 0.01674935
-0.0028581633 0.014042187 0.012703865
0.0029832572 0.011387901 0.017455827
0.01278888 0.014146295 0.014916074
0.033857778 0.0113879 0.011134638
0.055149302 0.010421022 0.013697342
0.026119554 0.02391118 0.010549283
-0.031171627 -0.030804139 0.022479558
-0.021244276 -0.030923299 0.027741384
0.024251061 -0.030923299 0.023374453
0.048111297 -0.03012757 0.027022779
0.0506244 -0.030804245 0.024222024
-0.033358727 -0.027063251 0.025495302
0.081090167 -0.029375073 0.029407075
0.10562155 -0.028222591 0.028873704
0.11686418 -0.027693741 0.026764186
0.12211687 -0.027447859 0.029115127
0.13458753 -0.026860742 0.025388483
0.14072168 -0.026570944 0.020767022
0.18528284 -0.024479683 0.025955893
0.20589188 -0.023512565 0.028536696
0.23578203 -0.022107353 0.025185198
0.24515927 -0.021666329 0.023638031
-0.035233956 -0.014877395 0.028081013
0.21847197 -0.011687804 0.021354547
0.22576167 -0.012667965 0.028094452
0.15979621 -0.0037403244 0.023031862
0.06599085 0.0089691859 0.029407546
0.097512797 0.0046954267 0.024462249
0.10641416 0.0034907886 0.025218209
0.12472755 0.0010071807 0.02170123
0.026793437 0.014320325 0.024362685
0.033309162 0.0113879 0.027747583
0.044284537 0.0113879 0.022219449
0.060154554 0.016873097 0.023390513
-0.033824299 -0.030867411 0.035759952
-0.010986911 -0.030923299 0.038126413
-0.0054575782 -0.030923299 0.032829307
0.030890159 -0.030923299 0.038242467
0.058851995 -0.030422471 0.037259266
0.064154699 -0.030173032 0.036247138
0.069788866 -0.029909726 0.039978966
0.084728166 -0.029207427 0.03839986
0.095902994 -0.0286796 0.030287055
0.13170472 -0.027001109 0.039142884
0.14005904 -0.026608802 0.039453268
0.16129772 -0.025608966 0.033318907
0.18263777 -0.024608597 0.038914938
0.048167154 -0.01220258 0.034306936
0.21912244 -0.011763389 0.03339399
0.22520904 -0.016948158 0.033383884
0.13861217 -0.0008582836 0.035951637
0.16982214 -0.0050900048 0.030745972
0.18761638 -0.0074981069 0.032242153
0.19728349 -0.0088016549 0.037589535
-0.039351001 0.0066297767 0.033757921
0.067796394 0.0087312488 0.035766322
0.091226727 0.0055607501 0.038119886
0.1023135 0.0040546376 0.033512462
0.11361539 0.0025254467 0.034763843
-0.0037000291 0.0113879 0.035520352
0.016701736 0.0113879 0.030972797
0.053596109 0.012926773 0.031750478
-0.031335268 -0.030923299 0.044288352
-0.015512886 -0.030923299 0.045371216
0.010711621 -0.030923299 0.041479576
0.086969316 -0.029103801 0.042960793
0.10416684 -0.02829749 0.047110461
0.14057079 -0.026586067 0.043072686
0.16492094 -0.02544307 0.045237429
0.17147781 -0.025134427 0.043427967
0.18985215 -0.024272468 0.046544675
0.19506662 -0.024026372 0.043319035
-0.049350169 -0.013637115 0.04754556
0.19126786 -0.013631113 0.049927928
0.048215162 -0.0057411557 0.040566932
0.13749707 -0.00069741928 0.045386165
0.15847263 -0.0035342399 0.048896775
0.17489998 -0.0057621296 0.045682684
0.19309844 -0.008225848 0.046334092
0.20543815 -0.0099008279 0.042515375
-0.046846446 0.0019505147 0.044093229
0.086212501 0.0062427828 0.041034237
0.12357968 0.0011909117 0.048993424
0.00076085795 0.0113879 0.048301332
0.022913691 0.0113879 0.040007647
-0.046560008 -0.030923299 0.05692232
-0.036132589 -0.030923299 0.05759019
-0.019699739 -0.030923299 0.054648325
0.025463976 -0.030923299 0.056231055
0.034766786 -0.030923299 0.05134644
0.078600623 -0.029501356 0.055351369
0.11381616 -0.027847249 0.055456955
0.13160251 -0.027009893 0.050201666
0.1709258 -0.025162995 0.050749015
0.048355468 -0.010566062 0.058863781
0.048331521 -0.0076478184 0.055740636
0.13408466 -0.00022711977 0.053283293
-0.053495336 0.0073556527 0.053261243
0.11474367 0.002397439 0.058573402
-0.047504861 0.0113879 0.052547753
0.019838998 0.0113879 0.054957174
0.042847142 0.0113879 0.055220228
-0.01222524 -0.030923299 0.065768391
0.015123606 -0.030923299 0.065610133
0.030643718 -0.030923299 0.065170489
0.048721552 -0.030908363 0.065135121
0.076072633 -0.029625148 0.069357447
0.12045921 -0.027538851 0.065565705
0.14635159 -0.026322227 0.064439654
-0.060713667 -0.016256874 0.063214451
0.04842538 -0.0098090591 0.067980155
0.14909264 -0.0022457335 0.066516362
0.048408575 0.0031327158 0.065788761
0.10456789 0.0037865771 0.069294639
0.11258652 0.0026989053 0.067538112
0.12582262 0.0009087394 0.069692634
-0.00011538062 0.0113879 0.066825792
0.0041228849 0.011387901 0.064984158
0.056214646 0.010326566 0.061855786
0.04976064 -0.030862609 0.073612295
0.064364918 -0.030178564 0.079022549
0.08099778 -0.02939656 0.077013433
0.13033374 -0.027076919 0.07082507
0.14332461 -0.024925135 0.072788142
-0.064526923 -0.011489564 0.073170334
0.048460841 -0.01877339 0.072604746
0.13501458 -0.016829407 0.077347636
-0.064355291 -0.0014690696 0.072543293
0.048500765 -0.0057035061 0.077811047
0.058832955 0.0099888444 0.078067824
0.064807788 0.0091817426 0.079964556
0.10146604 0.0042095808 0.072141811
-0.011940047 0.0113879 0.07781636
-0.04757816 -0.030923299 0.087755099
0.010340269 -0.030923299 0.080030948
0.024014134 -0.030923299 0.086548209
0.047961682 -0.030923299 0.087038733
0.048588086 -0.023820231 0.089197487
0.081676155 -0.029367898 0.085906506
0.092881881 -0.028841699 0.086343482
0.11897296 -0.017660035 0.085166842
-0.073497236 -0.0049115517 0.083012
-0.069348738 -0.0069849202 0.088554651
0.11635254 -0.0074447072 0.086444125
0.058969431 0.0099731581 0.080746382
0.06572777 0.0090625202 0.085098505
0.10417691 0.0038520978 0.081393152
0.12283351 0.00021545967 0.083285086
-0.062957458 0.0113879 0.081994623
-0.051641773 0.0113879 0.08056353
-0.044365596 0.0113879 0.082541808
-0.063772693 -0.030923299 0.094823971
-0.048802786 -0.030923299 0.090849563
-0.0081255184 -0.030923299 0.093232609
0.025568122 -0.030923299 0.094154529
0.053707164 -0.030686162 0.098411784
-0.071400568 -0.022468362 0.098282538
-0.069996357 -0.024119642 0.093152396
0.077340133 -0.029576335 0.099134535
0.084248789 -0.029250791 0.096273497
0.09450081 -0.025115039 0.097095378
-0.081651345 -0.01654565 0.097598732
-0.072195724 -0.016868304 0.094702244
-0.080766194 -0.0009041889 0.095005453
-0.071089238 -0.0017598569 0.097145133
0.048600812 -0.0033352161 0.090857305
0.1045772 -0.0043299492 0.092183813
0.048623588 0.0079968041 0.093827233
0.069054604 0.0086186053 0.091414124
0.087356471 0.0061471993 0.098073624
0.094573148 0.0051644528 0.09279307
-0.067479633 0.0113879 0.092810556
-0.049763002 0.0113879 0.099280931
-0.021766407 0.0113879 0.095643401
-0.0093888966 0.011387901 0.092150062
0.033231702 0.0113879 0.090597689
-0.020208048 -0.030923299 0.106353
-0.0076437108 -0.030923299 0.10257812
0.069731951 -0.029934522 0.10139262
0.08239609 -0.028482558 0.10299562
-0.07720463 -0.01381431 0.1011342
0.048717514 -0.012529099 0.10607591
-0.081791095 -0.0058093993 0.10141993
-0.076182365 -0.0056117522 0.10174761
0.085240871 -0.00075661438 0.10160897
-0.071534254 0.0113879 0.10889268
-0.057868086 0.0113879 0.10391559
-0.04665637 0.0113879 0.10973818
-0.0050015138 0.0113879 0.10038717
0.03216524 0.0113879 0.10741498
-0.042727087 -0.030923299 0.11301194
-0.0058305534 -0.030923299 0.11097403
0.02134436 -0.030923299 0.11967665
0.057695184 -0.030504528 0.1142088
0.063002095 -0.030254485 0.11207909
0.048771285 -0.017179646 0.11308749
0.064377613 -0.019678179 0.11177842
-0.065025985 0.0113879 0.11072163
-0.049334843 0.0113879 0.11443559
0.01391458 0.0113879 0.11206565
0.050929308 0.011096834 0.11422823
-0.013138761 -0.030923299 0.12552494
0.04143348 -0.030161761 0.1259619
0.037970688 -0.024832886 0.1239237
-0.078353748 -0.0040211789 0.12368532
0.026044782 -0.0089301821 0.12893836
0.033324279 -0.0079302778 0.12587744
0.04694964 -0.0082360506 0.1201482
-0.079081073 0.0084302379 0.12634258
0.025079865 0.0068380116 0.12934409
-0.065365605 0.0113879 0.12383274
-0.027130725 0.0113879 0.12355623
-0.00050687417 0.0113879 0.12396347
0.0082311351 0.0113879 0.12710077
0.011759833 0.0113879 0.12262396
0.030763552 0.0113879 0.12463354
0.040765658 0.011358827 0.12296221
-0.073527999 -0.030923299 0.13227968
-0.059649188 -0.030923299 0.1341667
-0.012862835 -0.030923301 0.13354978
-0.0078320084 -0.030923299 0.13831973
0.009371601 -0.030923299 0.13062689
0.0061111785 -0.011310359 0.13732013
-0.081793897 -0.0041968827 0.13625361
0.0067069167 -0.0028995713 0.13706961
-0.080322132 0.0053969775 0.13087666
0.012418317 0.0045506447 0.13466808
-0.076365069 0.0113879 0.13114619
-0.049152572 0.0113879 0.13978957
-0.026630908 0.0113879 0.13105409
0.001134323 0.0113879 0.13165903
0.031459231 0.010918158 0.13011514
-0.072725378 -0.030923299 0.14150545
-0.065863602 -0.030923299 0.1492704
-0.095293269 -0.021514108 0.14953421
-0.083030134 -0.020230481 0.14077006
-0.023207076 -0.027392372 0.14964798
-0.017650114 -0.026142966 0.14731137
0.019973036 -0.029302279 0.14340916
-0.085212812 -0.014711514 0.14874354
-0.019933803 -0.015431966 0.14827162
-0.085513785 -0.0073933238 0.14445174
-0.093881123 0.0024423068 0.14747977
0.016735677 0.0095026903 0.14671239
0.020500271 0.0037100636 0.14466742
-0.064195067 0.0113879 0.14200775
-0.053552948 0.0113879 0.14383271
-0.048285443 0.011387901 0.14796007
-0.036401115 0.0113879 0.14644155
-0.080266841 -0.030923299 0.15079595
-0.061908022 -0.030923299 0.15166539
-0.033790946 -0.030923299 0.15276523
-0.094194755 -0.022228675 0.15319778
-0.097105145 -0.016170735 0.15983403
-0.045149684 -0.014743512 0.1588745
-0.038639791 -0.014990945 0.15613718
-0.029758438 -0.010458654 0.15240273
0.014400722 -0.014235673 0.15011783
-0.097686939 -0.0025111313 0.1590952
-0.086672105 -0.0052589625 0.15407541
-0.042013273 -0.007364552 0.1575557
-0.016408009 0.0096142683 0.1598285
-0.073866062 0.0113879 0.15286621
-0.035847105 0.0113879 0.15474267
-0.064181991 -0.030923299 0.16239542
-0.059450861 -0.030923299 0.1625229
-0.089881659 -0.02634671 0.16580147
-0.052918848 -0.024931252 0.16214131
-0.039189316 -0.029231114 0.16880918
-0.0064361598 -0.027988702 0.1641712
-0.091049463 -0.0026561636 0.16414222
-0.090443194 0.00069527375 0.167853
-0.089268535 0.0042380099 0.16356149
-0.068300031 0.0071834503 0.16860884
-0.039505072 0.009887876 0.16752893
-0.025407784 0.0099646887 0.16103652
-0.0028820203 0.0052249352 0.16473371
-0.089485653 0.0113879 0.16817221
-0.079037264 0.011387901 0.16148163
-0.080721885 -0.030792451 0.17383203
-0.093929932 -0.025486672 0.17969704
-0.070089117 -0.029728996 0.17814161
-0.059365392 -0.029809648 0.17303953
-0.023678666 -0.028009551 0.17126809
-0.017726094 -0.026996372 0.17621401
-0.071927659 -0.019602213 0.17013422
-0.08424031 -0.0030386411 0.17531149
-0.012242883 -0.0080718268 0.17392603
-0.042419937 0.0088358521 0.17648888
-0.022998735 0.0075927936 0.1774613
-0.09230642 0.010058649 0.17466013
-0.077730931 -0.028991016 0.1867805
-0.065265767 -0.028008645 0.18876147
-0.052844577 -0.027546551 0.18693587
-0.024078984 -0.019953893 0.18450251
-0.020222884 -0.0044522001 0.1810568
-0.09060213 0.01061639 0.18365853
-0.10520787 -0.025177641 0.19385061
-0.095251523 -0.028298495 0.19923903
-0.084462695 -0.027987206 0.19699107
-0.041227795 -0.0096082771 0.19982636
-0.035519406 -0.0037880046 0.19472547
-0.10158856 0.0069633443 0.19458529
-0.09641584 0.0092529096 0.19612716
-0.074739352 0.0079131573 0.19686213
-0.032149732 0.0030298545 0.19171439
-0.11606026 -0.027355192 0.20747009
-0.061436869 -0.026225533 0.20026089
-0.042176981 -0.024096664 0.20067453
-0.11053589 -0.012118397 0.20053713
-0.11314648 -0.0094112996 0.20381334
-0.11433042 0.0059422222 0.20529918
-0.10484143 0.0080322614 0.20864396
-0.07656832 0.0073523079 0.20175445
-0.1164263 -0.027605183 0.21323991
-0.12333883 -0.016121453 0.21660453
-0.062015709 -0.0047298549 0.21840201
-0.054509096 -0.0047147977 0.21169426
-0.12159742 0.0031381536 0.2144191
-0.091522872 0.0065475488 0.21395904
-0.10512523 -0.025559824 0.22352543
-0.081879728 -0.023945417 0.22562014
-0.079844564 -0.0238337 0.22558573
-0.073877648 -0.018507905 0.22900163
-0.12539752 0.0074576936 0.22151157
-0.079001158 0.0045511406 0.22337107
-0.066164516 0.001872733 0.2221093
-0.13464125 -0.024654454 0.23078883
-0.12090395 -0.025317237 0.23194361
-0.07869181 -0.018937755 0.23330344
-0.1132721 0.0052729733 0.23247468
-0.097734451 0.0034848985 0.23908694
-0.088930547 0.0031844801 0.23759367
-0.075977899 0.0034637535 0.23009411
-0.093192704 -0.020899607 0.24626115
-0.093315005 -0.0033984561 0.24637043
-0.13637182 0.0043564904 0.24892557
-0.10507362 0.0025817344 0.24881282
-0.089580342 0.00087878201 0.24303323
-0.15295212 -0.023306124 0.25376856
-0.10992026 -0.021339443 0.2565698
-0.15066895 -0.018684799 0.25090322
-0.16283721 -0.0070135389 0.26617408
-0.15803351 -0.0077383379 0.26014557
-0.15767191 0.0028481311 0.26480997
-0.16080284 -0.022273354 0.27109903
-0.1534467 -0.021315608 0.27504718
-0.17271909 -0.012245059 0.27857566
-0.13266642 -0.019702308 0.27817035
-0.1242494 -0.011712203 0.27401277
-0.17129344 -0.0079198387 0.27678651
-0.12882641 -0.0023175057 0.27810273
-0.16695166 0.0019157117 0.27133766
-0.13097428 9.9843368e-05 0.27795005
-0.17875203 -0.020917367 0.28614688
-0.18133833 -0.011470149 0.28939259
-0.17607397 -0.0030607572 0.28278595
-0.1483966 5.4727658e-05 0.28560752
-0.18768811 -0.016277166 0.29736143
-0.17335856 -0.019580582 0.29617572
-0.15818909 -0.0004131794 0.29316506
-0.19001889 -0.018999055 0.30745649
-0.17837396 -0.018504545 0.30619562
-0.16522017 -0.018413991 0.30133042
-0.15879899 -0.017890846 0.30247656
-0.19123194 -0.0066237496 0.30180886
-0.17079812 -0.0017727595 0.30846232
-0.19852659 -0.018100891 0.31469491
-0.16928051 -0.0068151318 0.31425169
-0.20862824 -0.014038018 0.32468647
-0.21034838 -0.0036881252 0.32579955
-0.21714643 -0.012910027 0.33433098
-0.19523573 -0.014846998 0.33253917
-0.2195536 -0.002994484 0.33794516
-0.19264579 -0.006935142 0.33513042
-0.18924852 -0.0037325565 0.33062851
-0.22408175 -0.011217838 0.34303463
-0.21776724 -0.015925553 0.34172055
-0.20750681 -0.014863299 0.34521583
-0.22391795 -0.0052993181 0.35672498
-0.21252671 -0.0053283954 0.35214892
-0.24321291 -0.0071065882 0.36704379
-0.22624642 -0.0066004782 0.36515528
-0.25181249 -0.010062356 0.37783611
-0.24003042 -0.013171324 0.37133092
-0.25171828 -0.0067745922 0.37926051
-0.24570212 -0.0059432173 0.3706187
-0.26039469 -0.0076224804 0.3891423
-0.2650657 -0.010738535 0.39974362
