# .PCD v0.7 - Point Cloud Data file format
VERSION 0.7
FIELDS x y z
SIZE 4 4 4
TYPE F F F
COUNT 1 1 1
WIDTH 823
HEIGHT 1
VIEWPOINT 0 0 0 1 0 0 0
POINTS 823
DATA ascii
-0.080379613 -0.040808693 -0.30547038
-0.061767321 -0.049960054 -0.30263236
-0.056841217 -0.044672176 -0.30296221
-0.076306246 -0.027656676 -0.30939239
-0.044295613 -0.050489489 -0.2979188
-0.057628386 -0.047405079 -0.29429719
-0.055432878 -0.048788268 -0.27656591
-0.034330342 -0.048763879 -0.27933192
-0.056992158 -0.050157573 -0.26695505
-0.036399923 -0.053673379 -0.26561648
-0.04348544 -0.048981346 -0.2629303
-0.036822416 -0.054837391 -0.25012019
-0.038242873 -0.055179879 -0.23625693
-0.016075369 -0.053749185 -0.22523779
-0.035005949 -0.05578113 -0.21619113
-0.02224965 -0.057114065 -0.2179992
-0.01425812 -0.050816804 -0.21146101
0.00044601597 -0.055720799 -0.21892762
-0.038651254 -0.054153308 -0.20230494
-0.023696177 -0.05219375 -0.20163266
-0.011956038 -0.051314965 -0.20230815
-0.0049593607 -0.051230788 -0.20279944
0.009871983 -0.056019206 -0.20369712
-0.018881468 -0.052443285 -0.1936218
-0.02510095 -0.054687686 -0.18496045
0.0063415845 -0.052124318 -0.18247329
0.020429801 -0.058987699 -0.18080744
-0.021065839 -0.057220705 -0.17336309
0.0022829031 -0.052029666 -0.17836164
0.023488289 -0.053374112 -0.17079706
0.015723273 -0.060804546 -0.16796255
-0.022396745 -0.054321013 -0.16841343
-0.018650204 -0.057388026 -0.16583925
0.015660923 -0.062271893 -0.1542753
0.027458597 -0.061504297 -0.15351024
0.036793988 -0.06100288 -0.15043879
0.0032427295 -0.061875243 -0.14423397
-0.013429333 -0.057873189 -0.14427471
0.02533293 -0.05349968 -0.14011191
0.040208984 -0.05623123 -0.14793792
-0.35484284 -0.018128753 -0.14790025
0.073228873 -0.08639203 -0.13224557
0.090574838 -0.08290007 -0.13483977
0.087990284 -0.077777065 -0.13414605
0.013341711 -0.062888227 -0.13818455
0.033106446 -0.062850252 -0.13702872
0.099225342 -0.069912598 -0.13110667
-0.0043707485 -0.056011468 -0.13477273
0.023200879 -0.05337555 -0.13623729
-0.33286291 -0.016808584 -0.13304591
-0.32973111 -0.019774275 -0.130602
0.077832997 -0.10073695 -0.12419192
0.10281648 -0.10383043 -0.12058563
0.1134301 -0.10113757 -0.12241438
0.069969967 -0.093432724 -0.12886995
0.10563594 -0.097306237 -0.12865211
0.11746041 -0.081603497 -0.12564631
0.016672973 -0.063499659 -0.12869135
0.11526292 -0.065199122 -0.12358516
0.0076555638 -0.055066716 -0.12778962
-0.34826785 -0.020094378 -0.12914363
0.10826185 -0.10498273 -0.11450979
0.046424937 -0.092346177 -0.11677349
0.113821 -0.092808165 -0.11252263
0.024460787 -0.082541093 -0.1118867
0.031106096 -0.083522655 -0.11518909
0.025856987 -0.074182838 -0.11192235
0.035936341 -0.075526208 -0.11294323
0.049758513 -0.07026282 -0.11245696
0.11446577 -0.074593894 -0.11871964
0.055845182 -0.064759955 -0.11369312
0.065655433 -0.065003291 -0.1182881
0.084458195 -0.060011115 -0.11793399
-0.011234014 -0.058421232 -0.11219086
0.031748865 -0.054128628 -0.11644644
0.047700107 -0.055297278 -0.11473893
0.084194466 -0.058251902 -0.11248934
-0.34706426 -0.020779558 -0.11291414
-0.352155 -0.019342348 -0.11630417
-0.33749866 -0.017859766 -0.11416484
-0.32433879 -0.017717868 -0.1155989
0.065518484 -0.10083079 -0.10564036
0.070882894 -0.10338227 -0.10697836
0.11823539 -0.10064206 -0.1004612
0.03628521 -0.091494098 -0.10904103
0.025369732 -0.083121791 -0.1083964
0.037713502 -0.080891714 -0.10285918
0.040073395 -0.085014433 -0.10099898
0.037597433 -0.074574247 -0.10732047
0.067598604 -0.066880375 -0.10005809
0.075049333 -0.060786143 -0.10602991
0.10811283 -0.061559856 -0.10167284
-0.0015476998 -0.05740083 -0.10180983
-0.34304112 -0.018524321 -0.10975295
0.07525266 -0.09827131 -0.095448367
0.1058808 -0.093931518 -0.090499237
0.065859675 -0.07344602 -0.094921887
0.00028717087 -0.061579682 -0.090083458
0.05762032 -0.06521786 -0.095225222
0.073607996 -0.06237822 -0.090088747
0.11544543 -0.065539718 -0.097717181
-0.0045654885 -0.058195736 -0.090271741
0.0082193622 -0.05653457 -0.091427438
0.053558737 -0.055811111 -0.093397744
-0.3488915 -0.021136712 -0.096803911
0.086376362 -0.090484016 -0.088507168
0.077898093 -0.080447219 -0.088236578
0.09353435 -0.083283246 -0.086800747
0.0023554231 -0.062207893 -0.081933729
0.064510219 -0.065556243 -0.086561874
-0.011168228 -0.059478272 -0.083525501
-0.0084331352 -0.058961809 -0.083312087
-0.32479611 -0.025189053 -0.08095739
-0.29490083 -0.022955796 -0.085527226
-0.3243736 -0.019307243 -0.088272758
-0.31281739 -0.019549433 -0.08237531
0.034083292 -0.089831881 -0.075979553
0.011508357 -0.0641957 -0.071269184
0.027752709 -0.065940082 -0.070679389
0.051108237 -0.06746535 -0.072775975
0.066591367 -0.066140406 -0.079181865
0.0085395668 -0.057176724 -0.073697984
0.017800806 -0.056463119 -0.079977401
0.069872141 -0.056799904 -0.07432241
-0.31516331 -0.02631587 -0.07299792
-0.2925126 -0.021074656 -0.076866001
-0.30265212 -0.019697901 -0.078244857
0.013892907 -0.094526775 -0.068303689
0.032497101 -0.098694906 -0.067790903
0.011312706 -0.064195968 -0.068556316
0.051875308 -0.06767711 -0.067654759
0.073119119 -0.066687137 -0.068739012
-0.0074362112 -0.059441239 -0.064145267
0.0033597671 -0.058014788 -0.06637013
0.015715061 -0.0572211 -0.062489331
0.05461001 -0.055916063 -0.061340977
0.07517913 -0.057083864 -0.064410366
-0.32607782 -0.026257828 -0.067078799
-0.28636694 -0.020646608 -0.060430244
0.019026864 -0.11021799 -0.052080788
0.029032173 -0.10859565 -0.058990601
0.019182995 -0.099256247 -0.052598793
0.030301617 -0.086105987 -0.05408781
0.014090473 -0.064805321 -0.053864025
0.047648758 -0.067866951 -0.051723354
0.051347867 -0.068190649 -0.050784059
0.060444601 -0.068400525 -0.054311581
0.087815426 -0.067223787 -0.052089654
0.09417177 -0.063712828 -0.056410044
0.036128026 -0.056796908 -0.055277679
0.066417314 -0.056705303 -0.055800274
0.078043737 -0.057258088 -0.053250659
-0.32401809 -0.027516659 -0.051205076
-0.30350634 -0.021237761 -0.053178053
-0.27456 -0.024970913 -0.052755613
0.012016683 -0.064556643 -0.046937801
0.043039121 -0.067771196 -0.047476575
0.056761011 -0.068765089 -0.045412481
0.065023601 -0.068694398 -0.047527716
0.072911263 -0.068523616 -0.045176167
-0.0022051353 -0.059541777 -0.042686105
0.078598775 -0.057306532 -0.047016952
0.1022498 -0.05956921 -0.044547122
-0.32875815 -0.026689932 -0.040518928
-0.3072142 -0.028738882 -0.04812821
-0.03674747 -0.066923253 -0.032124616
-0.010325199 -0.061206628 -0.035155408
-0.0083563924 -0.068228729 -0.031588834
0.0054343888 -0.064652547 -0.034504466
0.017690223 -0.065556802 -0.038146473
0.026770651 -0.06379649 -0.034314491
0.08435449 -0.068743899 -0.035310704
-0.031292804 -0.058433544 -0.035294153
-0.010659065 -0.059939947 -0.035567135
-0.0053986548 -0.051753554 -0.038226627
0.00011068286 -0.059431236 -0.038365178
0.01348408 -0.056328133 -0.036740512
0.022527196 -0.05402445 -0.037488796
0.032007068 -0.057440363 -0.036379177
0.078483343 -0.057339299 -0.036434148
0.10573918 -0.054404538 -0.033799604
0.11111251 -0.059124626 -0.031493053
0.1352028 -0.053134039 -0.030261742
0.24731939 -0.050932858 -0.031571414
0.25841624 -0.051501971 -0.031114206
0.27774459 -0.051725619 -0.030621212
-0.21380526 -0.040236626 -0.031869639
-0.16708857 -0.041645229 -0.033160422
-0.1597065 -0.049869545 -0.030372322
-0.14992802 -0.044967446 -0.032597817
-0.13974579 -0.047694527 -0.032090738
-0.11983562 -0.04039827 -0.033668861
-0.059330694 -0.040967345 -0.033864509
0.08078178 -0.041902449 -0.034971081
0.093444929 -0.042924345 -0.034423292
0.11645621 -0.04321871 -0.033529244
0.13793026 -0.047521368 -0.032724373
0.22598274 -0.047739089 -0.032674111
0.25081137 -0.047615543 -0.032633469
0.26140025 -0.046067812 -0.032759063
-0.17694536 -0.038983002 -0.033632211
-0.15181278 -0.033483103 -0.034684785
-0.14611474 -0.035952408 -0.034394853
-0.12354922 -0.038036507 -0.034106836
-0.04443616 -0.039640602 -0.034182139
-0.028896965 -0.037709914 -0.034560882
0.017635707 -0.034707107 -0.034689255
0.065415308 -0.039753836 -0.034434281
0.17572923 -0.034029495 -0.034571152
0.19778673 -0.037771046 -0.034539349
0.210291 -0.03093503 -0.033998258
0.27856469 -0.035384461 -0.033312771
-0.32713673 -0.023779787 -0.038860112
-0.31034452 -0.022475857 -0.03405688
-0.30366418 -0.022481486 -0.03284733
-0.29231602 -0.022328019 -0.033460345
-0.19395557 -0.026105957 -0.033080325
-0.17833957 -0.027677618 -0.033603903
-0.14575322 -0.026465323 -0.033291772
-0.13859679 -0.029114749 -0.03379643
-0.11052141 -0.028471634 -0.03360657
-0.098124355 -0.028746227 -0.033639897
-0.068905428 -0.0273245 -0.033345263
-0.043221373 -0.020453464 -0.031529821
-0.035255849 -0.022069849 -0.032340266
0.017300719 -0.029103599 -0.033648755
0.045650437 -0.022811305 -0.032481782
0.092866257 -0.026278822 -0.033127908
0.11695714 -0.02752126 -0.033359639
0.13716389 -0.024741139 -0.032844678
0.23223031 -0.026144162 -0.033109561
-0.19658956 -0.019863714 -0.031791233
-0.040153909 -0.019780599 -0.031095674
0.083580494 -0.018934969 -0.030583899
0.24637762 -0.019116107 -0.030552313
0.034949847 -0.071903326 -0.024848327
0.043185927 -0.070415758 -0.027577043
0.066093072 -0.072390378 -0.023954893
0.10951731 -0.071257524 -0.020373493
-0.083553061 -0.061682008 -0.022772921
-0.05793428 -0.068066508 -0.023153555
0.15381363 -0.061032526 -0.025204502
0.18465185 -0.062674724 -0.023479283
0.20564425 -0.063363835 -0.022474196
0.26386377 -0.064893588 -0.020055123
-0.21886417 -0.056850385 -0.020173928
-0.18884104 -0.052970782 -0.027571626
-0.1671948 -0.058678202 -0.024249431
-0.15844549 -0.054141749 -0.027568117
-0.1161736 -0.0589072 -0.025107648
-0.058183827 -0.059969764 -0.029670149
0.13645899 -0.055978671 -0.02843686
0.16682509 -0.055863313 -0.028498143
0.19083193 -0.059985153 -0.025844462
0.2483657 -0.054088343 -0.029539462
0.29772994 -0.052138895 -0.029189367
-0.24085563 -0.045504056 -0.02566115
-0.30438516 -0.030715313 -0.025621815
-0.29876685 -0.031034786 -0.025119133
0.29880422 -0.032403719 -0.029112944
-0.3317219 -0.026207432 -0.023815181
-0.31369612 -0.023015313 -0.025787313
-0.24068645 -0.02756411 -0.029388245
-0.23549408 -0.023307528 -0.029349525
-0.24980573 -0.01348915 -0.023151148
-0.17915186 -0.014991502 -0.028845437
-0.11359093 -0.010169343 -0.025347069
-0.10539168 -0.015906645 -0.028940771
-0.072448388 -0.012961363 -0.026935009
-0.04615828 -0.016163297 -0.028841939
-0.035442103 -0.010826562 -0.02546132
0.0046132253 -0.010619855 -0.025337778
0.046419855 -0.011677573 -0.026010307
0.080874778 -0.0168528 -0.029272925
0.096008122 -0.015392447 -0.028356396
0.13008372 -0.015359547 -0.028341245
0.14777872 -0.013586606 -0.027228337
0.18565592 -0.01431639 -0.02769354
0.23997279 -0.010199873 -0.025064843
0.26284865 -0.012464428 -0.025654405
-0.24785358 -0.009619562 -0.020922618
-0.1898061 -0.0079294629 -0.023538144
-0.1650202 -0.0080642998 -0.023776243
-0.12916996 -0.0081423251 -0.023497559
0.043521866 -0.0072636963 -0.021424724
0.1704706 -0.0092239045 -0.024230916
0.20599683 -0.0088956915 -0.02378178
-0.056495614 -0.073312797 -0.012173414
-0.043847479 -0.074515365 -0.013939678
-0.018195385 -0.07473781 -0.019648906
0.052814141 -0.075740531 -0.01384789
0.086221881 -0.074713901 -0.018981868
0.11735764 -0.071488708 -0.017178126
0.12555028 -0.071909294 -0.012228145
0.17949986 -0.070395365 -0.010944268
0.18961732 -0.070411377 -0.010817138
-0.21355782 -0.063057937 -0.010634558
-0.18736592 -0.061004248 -0.019722816
-0.1612092 -0.066472962 -0.011695338
-0.15104797 -0.066983499 -0.010161512
-0.14990738 -0.062574312 -0.019151852
-0.13137986 -0.067167923 -0.012210543
-0.10125753 -0.064069271 -0.018752854
-0.094139367 -0.066147946 -0.015931839
0.13910884 -0.06853582 -0.015301139
0.14229864 -0.065385923 -0.019731807
0.19462393 -0.066945203 -0.017449526
0.23983653 -0.069522642 -0.013732212
0.34304059 -0.06235934 -0.012553057
-0.23949885 -0.056104142 -0.016033601
-0.28453225 -0.046359446 -0.011695763
-0.27648693 -0.046351351 -0.016044887
-0.2622714 -0.049659938 -0.018060699
-0.28763962 -0.032636579 -0.019801416
0.32564229 -0.031845301 -0.018699048
0.33358595 -0.038016476 -0.018984066
-0.33049196 -0.026684765 -0.016881153
-0.31245637 -0.023750944 -0.017220872
-0.30378169 -0.021210931 -0.015613727
-0.26346898 -0.0042969743 -0.011695971
-0.25676543 -0.0062880763 -0.015432023
-0.22281192 -0.0038789869 -0.015930947
-0.198257 -0.00061011867 -0.010130013
-0.16632804 -0.00078208279 -0.012597811
-0.073755525 -0.0036725961 -0.016553383
-0.051979575 -0.0014257682 -0.013075616
-0.032013625 -0.0057961196 -0.019331016
-0.019258687 -0.0042783199 -0.017198533
0.060027912 -0.0055033597 -0.018952101
0.11570016 -0.003500005 -0.015605022
0.12036954 -0.0024586429 -0.014686901
0.15538056 -0.0057923696 -0.019393537
0.18449986 -0.0016022804 -0.013265306
0.21835706 -0.0012653202 -0.012390573
0.29264471 -0.0088206474 -0.013515672
0.30312866 -0.1020666 -0.00095346686
0.30428663 -0.09748216 -0.0059010433
0.30194363 -0.086005025 -0.0037217
-0.071491852 -0.071008146 -0.0057803835
-0.063050754 -0.073126167 -0.0035250371
-0.024402946 -0.076439381 -0.007709627
-0.016196962 -0.077597439 -0.00029867722
0.063800618 -0.077065453 -0.0041800388
0.10415038 -0.075705886 -0.0035890886
0.13840804 -0.070935249 -0.008614528
0.15219745 -0.071227476 -0.0071689975
0.18742378 -0.071182445 -0.007200405
0.19717121 -0.071442813 -0.0059254831
0.21605796 -0.070983276 -0.0079909666
0.23615369 -0.072307795 -0.0016414878
0.27394229 -0.07124313 -0.0053468137
0.30985126 -0.070066556 -0.0071610399
0.31017053 -0.079127647 -0.0087895049
-0.14888406 -0.067211576 -0.0092539471
-0.13693859 -0.067349523 -0.0097755576
-0.081183925 -0.069677703 -0.0031522489
0.33920312 -0.068033151 -0.0012084603
-0.28117099 -0.051584791 -0.00099611294
0.36321825 -0.056186229 -0.0086249691
0.36193746 -0.043366559 -0.003785558
-0.32541698 -0.034727484 -0.0041578729
-0.31440425 -0.037112884 -0.0077326065
0.34939474 -0.036489416 -0.0074605746
-0.36665288 -0.021239871 -0.0014577881
0.33718452 -0.028781416 -0.00017027835
-0.35583615 -0.012046244 -0.003036201
-0.34695902 -0.016516207 -0.0080902725
-0.33140016 -0.018960947 -0.0099049713
-0.30375475 -0.010583467 -0.0031806738
-0.24983448 -0.010290973 -0.0041006794
-0.32689476 -0.0085239783 -0.00033875834
-0.26527035 -0.0045025046 -0.0062661888
-0.22499199 -0.00092280511 -0.0091514299
-0.20418221 -0.00018921538 -0.0071473448
-0.17845295 -0.0019074178 -0.00056959427
-0.076548234 -3.2941403e-05 -0.0069334381
-0.034497969 -0.00066221668 -0.0092460318
0.091473356 -0.00037937122 -0.0080684945
0.20732956 -0.00060389302 -0.0092656091
0.23116523 -0.00018885749 -0.0073411856
-0.27891603 0.0065850085 -0.0036395986
-0.24855137 0.0042865453 -0.003067527
-0.22801346 0.00016773927 -0.0035968043
-0.20529509 0.0025679546 -0.0025352882
-0.19999459 0.0048671169 -0.00051926199
-0.17721862 0.00046756861 -0.0066922493
-0.11825643 0.00099947769 -0.0028368342
-0.10565701 0.00075944886 -0.0037362962
-0.045313671 0.00013981311 -0.0055506779
-0.020220879 0.0002685494 -0.0048840465
-0.00078883767 0.00072020554 -0.0027825986
0.063929826 0.0012210906 -0.00050446222
0.14171913 0.0011621184 -0.00087646279
0.19268243 0.00091136969 -0.0021175279
0.23585644 0.00062176189 -0.0035333869
-0.25197232 0.015945379 -0.0026280202
-0.23766808 0.012922144 -0.0026627283
-0.33296645 0.024147041 -0.0010307463
-0.32114375 0.020291537 -0.0011849515
-0.31109899 0.033771507 -0.0026509538
-0.33030039 0.049750894 -0.0020519113
-0.28969896 0.041944835 -0.0023979978
-0.34594125 0.059315883 -0.00095643837
-0.32792088 0.053410415 -0.0021300281
-0.31868976 0.057232324 -0.0024694602
-0.30414104 0.077418111 -0.0016779422
-0.29855758 0.076456964 -0.00035829484
-0.33390698 0.082395487 -0.0020263959
-0.36560926 0.098872423 -0.00032744763
-0.35572317 0.094160773 -0.0012901273
-0.31562847 0.096250862 -0.00014689163
-0.3487339 0.10475189 -0.0015791187
-0.32292128 0.10420187 -0.00080324244
0.29429203 -0.097072393 0.0012664329
-0.041192967 -0.076208621 0.0037706015
0.016817752 -0.077452675 0.0013552111
0.047191761 -0.077432498 0.0015023943
0.12219055 -0.073217705 0.0056614429
0.13953047 -0.070806518 0.0092469258
0.30092949 -0.070251994 0.0080451453
-0.23840076 -0.061600044 0.00061819865
-0.21446493 -0.063905329 0.0057420749
-0.20311002 -0.06562233 0.0036388899
-0.13411504 -0.068692409 0.0037917187
-0.12687692 -0.069021128 0.0022536509
0.36520216 -0.061809909 0.0003657518
-0.27790463 -0.05249089 0.0018200021
-0.26637915 -0.054908931 0.0076618856
-0.24921723 -0.059699126 0.0026879064
-0.29897508 -0.045251563 0.0022087672
0.35860121 -0.044875786 0.0092823617
0.36393431 -0.044453077 0.0021166443
0.35547081 -0.038171582 0.001172443
-0.36339584 -0.01368478 0.0054582371
-0.33230865 -0.017035343 0.0096029304
-0.32602355 -0.014148867 0.00018858748
-0.31209499 -0.010785806 0.0023335314
0.31820887 -0.018197825 0.0039177574
-0.33331966 -0.0081990231 0.0042417133
-0.32650119 -0.0038069491 0.00060793519
-0.31511241 -0.0059401561 0.0050994232
-0.30816698 -0.0077188425 0.002111716
-0.27117258 -0.0058244038 0.0059553217
-0.25615653 -0.0043725385 0.0051744804
-0.22267981 -0.0073138019 0.0036381143
-0.15581135 -0.0094261216 0.003404082
-0.13577588 -0.00023113174 0.0093828216
-0.069277048 -0.00026134518 0.0080250502
-0.03565865 -9.2608563e-05 0.0065877265
0.055835187 -0.00069600099 0.009548258
0.15875292 -0.0002615095 0.0076224152
0.1756212 -0.00060601212 0.0092695523
0.20980038 -0.00053453445 0.0089727156
0.216048 -0.00038614502 0.0082794251
0.27071601 -0.0028138831 0.0090038031
0.28198612 -0.0039569065 0.0055367467
-0.3319627 0.0069423006 0.00041777952
-0.30774185 0.0039706458 0.0028571934
-0.27023533 0.0040047341 0.0035541207
-0.26088983 0.0052973866 0.0032882527
-0.11721548 0.001294279 0.001505187
-0.090981312 0.00061636808 0.0043563331
-0.077570543 0.0010343773 0.0020304888
-0.037664667 0.00037616957 0.0043719788
0.018903896 0.0012919679 0.00011701161
0.088391617 0.0013237703 5.1621497e-05
0.096095026 0.00032602763 0.004771939
0.16568466 0.00099555403 0.0016947988
0.17876561 0.0012236473 0.00063420692
0.23449387 0.00058258895 0.0037294161
0.24547651 0.00095206546 0.0002899211
-0.28652686 0.018024877 0.0032928537
-0.24796213 0.014428708 0.0027044928
-0.23528278 0.01679158 0.00027189672
-0.3361401 0.023722038 0.00062504469
-0.28999281 0.034959942 0.0026941821
-0.33604747 0.05400575 0.001716684
-0.34460986 0.065906942 0.0013980558
-0.32005239 0.068857893 0.0023089424
-0.30955684 0.063020423 0.0022240682
-0.31247696 0.076114386 0.00185903
-0.31895968 0.080425419 0.0018645963
-0.35174692 0.099620409 0.0014868404
-0.34090686 0.098939329 0.0018310889
-0.35141748 0.10307769 0.0015120481
-0.031071791 -0.075879946 0.010045764
0.0079785427 -0.075756624 0.013730493
0.039832156 -0.0762216 0.010336991
0.067759268 -0.076176696 0.010666275
0.093658976 -0.074917734 0.015913136
0.11219291 -0.073050246 0.01640936
0.18501669 -0.070130676 0.012204094
-0.19397128 -0.061555132 0.017817885
-0.1092554 -0.064731523 0.017338339
-0.071357481 -0.066839226 0.017735243
-0.066601478 -0.069693536 0.016089417
0.12551118 -0.069550246 0.016624331
0.13665397 -0.065624475 0.01943958
0.19246699 -0.068748161 0.014955658
0.20610741 -0.069864795 0.013350882
0.33331841 -0.060315408 0.017042302
-0.27000871 -0.052740939 0.010578173
-0.26780427 -0.052770749 0.011672523
0.33547848 -0.054461896 0.018954765
-0.29273799 -0.041424159 0.013720588
-0.28537691 -0.044472389 0.01395326
-0.27631235 -0.045920677 0.016623951
0.35086998 -0.049657904 0.015053605
0.33306605 -0.035187401 0.016760835
-0.32011843 -0.024847686 0.01880582
-0.30336121 -0.023321388 0.019048063
-0.31289798 -0.015303541 0.012094248
-0.28855801 -0.019808618 0.019480933
0.29545766 -0.013805425 0.019201688
-0.29814851 -0.0089166882 0.010428334
-0.24408628 -0.0037538153 0.013557618
-0.18240517 -0.0049241311 0.019369146
-0.14547215 -0.0020939265 0.014922407
-0.11529768 -0.00071494112 0.011205036
-0.085547313 -0.0032623908 0.016228247
-0.071956463 -0.00097177795 0.011439759
-0.061129667 -0.0024422612 0.014467856
-0.054077774 -0.0033498972 0.016070208
0.060940444 -0.0010764808 0.011350894
0.085186943 -0.0029175465 0.015367176
0.1118876 -0.0017158141 0.013684697
0.15280253 -0.0050969543 0.018460479
0.17197478 -0.00096693216 0.010969174
0.19442317 -0.0032481628 0.015872359
0.22688289 -0.0034539825 0.016173506
0.23937453 -0.0038797597 0.016679773
0.24110058 -0.0014329107 0.012545945
0.29280221 -0.0099334465 0.015193311
-0.022028003 -0.072511286 0.023551829
-0.0026267103 -0.07188908 0.024874765
0.078971557 -0.072378621 0.023919135
-0.14854243 -0.061377063 0.020921404
-0.10913589 -0.0626451 0.020401504
-0.054471768 -0.063522667 0.02953925
-0.035746455 -0.068533644 0.029298788
0.099773221 -0.069003269 0.027277928
0.16466919 -0.063542448 0.022328202
0.23006958 -0.064468205 0.020924274
0.24414806 -0.060452677 0.025520941
0.30431634 -0.062310759 0.021629162
-0.23564324 -0.053712752 0.020657465
-0.216812 -0.05613311 0.021860367
-0.20166466 -0.056582548 0.024097299
-0.1588531 -0.052422129 0.028703675
-0.13060378 -0.057662465 0.025705162
-0.098954648 -0.059221387 0.025210384
0.22358173 -0.059776843 0.026016187
0.26390022 -0.057258993 0.02734323
0.30555108 -0.059364352 0.023382399
0.33142072 -0.043811701 0.021480706
-0.29571611 -0.030829391 0.029489543
-0.31538239 -0.023643047 0.022553612
-0.30863121 -0.022834174 0.027904615
-0.26065066 -0.021558888 0.025355611
-0.24210934 -0.024424031 0.028637787
0.28305256 -0.025760541 0.029773189
0.29193553 -0.028401155 0.0295181
0.30708811 -0.024379 0.021857366
-0.26966369 -0.013147624 0.020148776
-0.21696508 -0.011912696 0.025614738
-0.16442114 -0.012218622 0.027007665
-0.12449573 -0.011122041 0.026108004
-0.078552395 -0.017531317 0.029978629
-0.057259843 -0.010006205 0.025076203
-0.0032286448 -0.01373906 0.027346022
0.033882096 -0.016027831 0.028792573
0.11078749 -0.017698647 0.029856699
0.1304318 -0.016403301 0.029044647
0.15211941 -0.016736407 0.029257806
0.181925 -0.015200486 0.028295882
0.2589336 -0.015124044 0.02763411
0.26044077 -0.014376186 0.027047724
0.27260497 -0.018429331 0.027931016
-0.1397789 -0.0090907114 0.024831627
0.10019522 -0.0083646346 0.023041982
0.1236456 -0.0088344328 0.023711961
0.17285927 -0.0062140734 0.020040683
0.24146289 -0.007579389 0.021749528
0.26497215 -0.0092107281 0.022128113
-0.0021824816 -0.067622803 0.03270033
0.018911773 -0.06571956 0.033689693
0.035027761 -0.067866489 0.034966137
0.041130994 -0.064287484 0.034154966
0.072685316 -0.06891758 0.039879344
-0.056587152 -0.054288357 0.032169133
-0.0062326761 -0.05848816 0.036038727
0.039139986 -0.054944746 0.037190076
0.046182014 -0.057201471 0.0383632
0.07581339 -0.056143459 0.036800709
0.083459564 -0.053078592 0.037448909
0.11371756 -0.054134563 0.03254465
0.12722133 -0.051612649 0.031310983
0.23924583 -0.05242236 0.030712683
-0.19533436 -0.044983048 0.03193678
-0.16262601 -0.044295687 0.032696478
-0.063415818 -0.040902533 0.033882309
-0.052035522 -0.049378309 0.033380985
0.033794656 -0.042304158 0.035263132
0.13376456 -0.046976291 0.032873757
0.15212224 -0.041596346 0.033876412
0.2217547 -0.040601149 0.034055579
0.26670262 -0.04822655 0.032195933
-0.22562291 -0.035750668 0.031378597
-0.21950682 -0.031151915 0.032527868
-0.19208334 -0.038269181 0.033413656
-0.12271556 -0.036015399 0.034523591
-0.073100001 -0.038841471 0.034212843
-0.056223646 -0.035815664 0.034886301
-0.037750155 -0.037511416 0.034585264
-0.025085274 -0.030802384 0.034008801
0.0066325162 -0.034189887 0.034639269
0.01597929 -0.039310988 0.034308396
0.071098953 -0.031716827 0.034183145
0.10379723 -0.035351697 0.034859698
0.16956763 -0.039088592 0.034342989
0.19747967 -0.036287416 0.034862701
-0.3347064 -0.025366191 0.039086804
-0.32239848 -0.025569702 0.037991747
-0.29270285 -0.022423556 0.031961631
-0.22337529 -0.028423514 0.031680699
-0.21566227 -0.02436235 0.031766713
-0.12755014 -0.026961219 0.033455819
-0.066373467 -0.026435494 0.033250514
-0.02245976 -0.021818049 0.032340668
0.0087195728 -0.020821273 0.031805228
0.014325987 -0.022951666 0.032242805
0.026426926 -0.027297935 0.033360358
0.045456488 -0.029490301 0.03376846
0.065962158 -0.027374588 0.033376768
0.12997507 -0.022891089 0.03254725
0.18557465 -0.028629521 0.033615451
0.19156414 -0.029450547 0.033768192
0.2223098 -0.023927916 0.032744281
0.23785317 -0.02339468 0.032645874
0.25017193 -0.022412367 0.032324117
-0.13611722 -0.019062489 0.031324282
-0.028984683 -0.019072222 0.030698236
0.032291189 -0.093661457 0.049501162
-0.0082681635 -0.060063556 0.048481673
0.074061267 -0.0686111 0.043283526
0.00051261194 -0.05901159 0.048432179
0.019602966 -0.057852823 0.043718845
0.044496596 -0.057048246 0.043152131
0.088876612 -0.057794839 0.044907615
0.1001575 -0.058326676 0.043738596
-0.33685344 -0.024542876 0.046976566
-0.32441184 -0.027462654 0.049703062
-0.30547255 -0.021519098 0.048900127
-0.29336095 -0.021731429 0.043398395
-0.26537913 -0.026466772 0.042521786
0.025473947 -0.11035435 0.058990605
0.013704425 -0.10337785 0.056257393
0.025709795 -0.10442615 0.056904364
0.017597439 -0.094931059 0.056880265
0.030348187 -0.094455466 0.051221304
-0.0048857438 -0.061309036 0.055183496
0.079732016 -0.067728758 0.05206567
-0.0045603095 -0.059413273 0.053580761
0.03901545 -0.056612063 0.057305399
0.076226451 -0.057152346 0.059004772
0.096836403 -0.059633385 0.054137815
-0.330971 -0.022786546 0.053493906
-0.30813384 -0.028336931 0.052495904
-0.28168562 -0.029490253 0.053343907
0.023171827 -0.11108045 0.069241986
0.032467514 -0.098841786 0.067791298
0.026516557 -0.08321844 0.065204524
0.024931595 -0.072538622 0.061697423
-0.010021291 -0.060276784 0.063824251
0.0016030656 -0.06224877 0.065602355
0.032825027 -0.066296615 0.069033876
0.04826596 -0.067698509 0.060390301
-0.0024816971 -0.058784403 0.064006396
0.032783575 -0.056484498 0.064971797
-0.34129679 -0.023086829 0.066884398
-0.29948851 -0.027873153 0.063431978
0.011936481 -0.10236942 0.071267299
0.023995634 -0.10082302 0.075978599
0.023614019 -0.090620711 0.077220514
0.033711262 -0.097340956 0.077293687
0.01550059 -0.064768575 0.076433323
0.054663625 -0.066958904 0.077637419
-0.0058160424 -0.058986876 0.07119336
0.056216158 -0.05601956 0.077276111
-0.34161147 -0.022801219 0.07215935
-0.32245618 -0.025723364 0.075829566
-0.30778754 -0.01990293 0.075746186
0.097372472 -0.090886988 0.088490292
0.087708347 -0.088291533 0.087634481
0.097865328 -0.087990679 0.087514564
0.057961531 -0.065757565 0.089627802
0.070809267 -0.065388441 0.083357424
-0.010810627 -0.059187021 0.086642489
-0.0054894993 -0.059069157 0.084650487
0.015620375 -0.056516044 0.081596568
0.048690233 -0.055434272 0.082540676
-0.33417529 -0.024347551 0.084785797
-0.32282501 -0.019689959 0.081747524
-0.3174178 -0.019606806 0.082204513
-0.30435586 -0.019489013 0.081948906
0.11206932 -0.10094134 0.098507613
0.11352872 -0.091046236 0.090708479
0.055732988 -0.083955862 0.097165555
0.065598279 -0.084475026 0.094906695
0.064536758 -0.076564267 0.096178509
0.11923246 -0.079018056 0.096312702
0.0056390939 -0.062816277 0.096863419
0.087974779 -0.069709174 0.090670131
0.10936299 -0.063893951 0.09784165
-0.30729884 -0.024578396 0.094321825
-0.32552037 -0.01918654 0.090439759
0.11114486 -0.10435337 0.10597765
0.051602039 -0.07315252 0.10200825
0.0045092637 -0.062469713 0.10155754
0.013114724 -0.063689709 0.10631834
0.043965518 -0.064840987 0.10949274
0.11942741 -0.067953855 0.10754138
0.1219098 -0.067991205 0.10197622
-0.010934808 -0.058823522 0.10508845
-0.0079571353 -0.058042776 0.10970834
0.018261869 -0.055660788 0.10092683
0.031461015 -0.054776371 0.10630509
0.10801205 -0.059356257 0.10609201
-0.34245899 -0.01937975 0.10120693
-0.33008015 -0.018056171 0.10970806
0.066132061 -0.10034097 0.11733989
0.074625246 -0.10292437 0.1190419
0.052736595 -0.095525607 0.11018701
0.067598604 -0.099674918 0.11613061
0.113821 -0.093795963 0.11112347
0.035453126 -0.084260985 0.11870246
0.01979045 -0.071587048 0.11284415
0.0063739922 -0.06238462 0.11454686
0.016655412 -0.065615557 0.11422303
0.04903847 -0.064650014 0.11315712
0.056837544 -0.068860799 0.1144695
0.063827865 -0.066973172 0.11267881
0.074571013 -0.060652554 0.11384246
0.10811946 -0.060864035 0.11826321
0.11480597 -0.064671643 0.1163155
-0.0094230799 -0.058506962 0.11344798
0.020815037 -0.054699522 0.11653996
0.032241017 -0.056282319 0.1166535
0.091587298 -0.057858001 0.1158879
0.10928148 -0.059474982 0.11213183
-0.34869382 -0.019129986 0.11270337
-0.33869064 -0.017842636 0.11464369
0.05729948 -0.090601057 0.1223303
0.066808976 -0.095378079 0.12632598
0.086029366 -0.097312123 0.12921907
0.11330814 -0.09734951 0.12699343
0.045911118 -0.085513957 0.12191568
0.065867752 -0.074173719 0.12700775
0.0075553055 -0.0629467 0.12310654
0.10904185 -0.067197889 0.12767875
0.12088329 -0.066590503 0.12217343
-0.0080621326 -0.05906418 0.12536854
0.0056847595 -0.055787876 0.12041599
0.044646192 -0.054984108 0.12002766
-0.35562918 -0.019337485 0.12555715
0.1012911 -0.092972137 0.13202684
0.06802731 -0.087804474 0.13079524
0.088647194 -0.089144684 0.13378967
0.091550604 -0.080923066 0.134718
0.074624039 -0.076044455 0.13200435
0.011375583 -0.062714808 0.13871895
0.047450408 -0.056143019 0.13146195
-0.35465643 -0.017548095 0.13861358
-0.33240306 -0.016846983 0.13231796
0.033064842 -0.061913244 0.14582141
-0.018820412 -0.056391485 0.14357664
0.016856993 -0.053305943 0.1450813
0.02154904 -0.053247407 0.14380392
0.040094092 -0.059554771 0.14917699
-0.33781949 -0.01876408 0.14266853
-0.0018953094 -0.061232075 0.15076736
0.012166239 -0.062142655 0.15365995
0.020936348 -0.062177647 0.15139738
-0.017936384 -0.0554672 0.15193674
-0.0013749221 -0.060577661 0.16809213
0.019565504 -0.061179988 0.16188042
-0.0044613504 -0.053830072 0.16017896
0.031284343 -0.057463843 0.167402
-0.023240533 -0.05666323 0.17445442
0.02716166 -0.057346631 0.17403407
-0.014184909 -0.059002601 0.18466717
-0.0050245626 -0.059540752 0.18765146
-0.021539481 -0.052821349 0.19047859
0.016300352 -0.055113558 0.19705054
-0.0019762754 -0.051424302 0.2072724
0.0043897922 -0.057679307 0.20465851
-0.033071954 -0.056095168 0.21408963
-0.018903721 -0.051248364 0.21009755
-0.037656434 -0.055338256 0.22180989
-0.029433709 -0.051004615 0.22394368
-0.010095128 -0.050765254 0.22633292
-0.043954615 -0.051352054 0.23661838
-0.015588954 -0.053259585 0.23310153
-0.049207892 -0.053414792 0.24474455
-0.037007362 -0.049776811 0.24839345
-0.026222959 -0.049528323 0.24449088
-0.04664569 -0.053815674 0.25218382
-0.036085721 -0.054864012 0.25051367
-0.021134311 -0.050013889 0.25843635
-0.053648692 -0.052595407 0.26308686
-0.022968462 -0.05298885 0.26185006
-0.019360228 -0.051195785 0.26448393
-0.060761664 -0.051335547 0.27672967
-0.059350979 -0.05143448 0.28172576
-0.044688009 -0.04779876 0.2831977
-0.03600505 -0.048697695 0.28854549
-0.056348756 -0.051063497 0.29685667
-0.046050437 -0.051068097 0.29330316
-0.080733664 -0.040346578 0.3056913
-0.076140091 -0.047124159 0.30523133
-0.064224809 -0.047658727 0.30588481
-0.050627109 -0.046775617 0.30198684
-0.07738997 -0.03523824 0.30776465
