# .PCD v0.7 - Point Cloud Data file format
VERSION 0.7
FIELDS x y z
SIZE 4 4 4
TYPE F F F
COUNT 1 1 1
WIDTH 805
HEIGHT 1
VIEWPOINT 0 0 0 1 0 0 0
POINTS 805
DATA ascii
-0.10005464 -0.00048999581 -0.32128268
-0.10788297 0.0065812143 -0.32131594
-0.12150316 0.014038045 -0.32294521
-0.12829807 0.025403421 -0.32436794
-0.10406077 -0.0053948238 -0.31976178
-0.074362241 -0.018920494 -0.30793381
-0.097465642 -0.023790326 -0.2835519
-0.077003241 -0.023091789 -0.28496173
-0.060880605 -0.024442537 -0.28410044
-0.084482074 -0.024642143 -0.27186447
-0.070540935 -0.024029076 -0.27091503
-0.053189993 -0.0240415 -0.27807787
-0.075734697 -0.027026813 -0.26359895
-0.064115524 -0.027325064 -0.26308769
-0.059329025 -0.027422436 -0.26286215
-0.047190819 -0.026273875 -0.2678284
-0.073715225 -0.027140711 -0.25682235
-0.044995036 -0.028804412 -0.25388581
-0.05874335 -0.030444259 -0.24076167
-0.07050018 -0.028001511 -0.24554919
-0.080754623 -0.029874183 -0.23907395
-0.043339767 -0.028876565 -0.2324329
-0.029318998 -0.029558141 -0.23157872
-0.070816368 -0.031860795 -0.2224077
-0.06469208 -0.032691706 -0.22280379
-0.055444002 -0.033274956 -0.22014278
-0.048896473 -0.030314626 -0.22376439
-0.073793903 -0.033420391 -0.21502
-0.068147823 -0.033380821 -0.21429923
-0.053080291 -0.032900583 -0.21348982
-0.033700448 -0.033650689 -0.21996607
-0.016213644 -0.035483353 -0.20776437
-0.053125072 -0.034735605 -0.19716477
-0.021463519 -0.037703548 -0.19171429
-0.049144063 -0.037436143 -0.18990344
-0.016826307 -0.03478238 -0.18705601
0.0057726027 -0.040693976 -0.17172115
-0.047644805 -0.039600641 -0.17377247
-0.03929149 -0.039496493 -0.17620999
-0.025973419 -0.037339654 -0.17076235
-0.006001364 -0.036043338 -0.17719094
0.012148485 -0.040731139 -0.16308321
-0.047308199 -0.041906185 -0.15015788
0.014705281 -0.043074153 -0.15527545
-0.00012529828 -0.038882487 -0.15505008
-0.043101974 -0.047086738 -0.14732753
-0.031498596 -0.048952598 -0.1454024
0.003582187 -0.04237555 -0.14480145
0.017177513 -0.042245965 -0.14427
-0.011766266 -0.039862785 -0.14993972
-0.0050621424 -0.039722852 -0.14960295
-0.045762274 -0.045318082 -0.13035333
-0.023429681 -0.043888696 -0.13458049
-0.012097338 -0.041863337 -0.13634245
-0.0069876658 -0.046243571 -0.13087925
-0.033888545 -0.046623971 -0.12322915
-0.016170986 -0.043689691 -0.12554331
-0.0012695631 -0.042809628 -0.12714909
0.088856891 -0.083672509 -0.11040232
0.067312092 -0.073710218 -0.11051726
0.090784237 -0.079337724 -0.11169654
0.085593164 -0.069449127 -0.11058831
-0.025403075 -0.047945481 -0.11500249
-0.019275293 -0.046162881 -0.11078219
0.003418687 -0.046469625 -0.1146656
0.028452054 -0.043931857 -0.11703265
0.034052122 -0.046554491 -0.11408539
-0.34251517 -0.0215622 -0.11797585
-0.32957992 -0.023439847 -0.1182675
-0.31927365 -0.024095546 -0.11397913
0.094420806 -0.092074737 -0.10418983
0.064364605 -0.088214785 -0.10396547
0.048143707 -0.074204721 -0.105701
0.065749407 -0.074789286 -0.10870769
0.073680021 -0.076049879 -0.10096984
0.10720399 -0.073367395 -0.10663038
0.045781754 -0.067597531 -0.10199746
0.059092302 -0.064223006 -0.10185871
0.067197859 -0.068619251 -0.10736904
0.073042169 -0.067696147 -0.10468159
0.10391475 -0.062532455 -0.10101628
0.11116276 -0.065852322 -0.10800901
0.017277345 -0.050441131 -0.10284153
0.032083761 -0.050366148 -0.10443727
0.0038987412 -0.049697433 -0.10680468
0.015176202 -0.049734361 -0.10778853
0.023364358 -0.045956101 -0.10043296
0.037265126 -0.049835205 -0.10839045
-0.31314927 -0.025317276 -0.10459251
0.058792017 -0.091857389 -0.095766425
0.065679647 -0.091783054 -0.091121256
0.074503027 -0.092415065 -0.096717007
0.099564426 -0.095137849 -0.098022334
0.1092634 -0.095675826 -0.09335272
0.11534332 -0.092360526 -0.095925868
0.046334352 -0.08911062 -0.094306827
0.07294526 -0.080119841 -0.090884335
0.035015225 -0.074365236 -0.095584333
0.041940358 -0.069124505 -0.093553111
0.064017326 -0.065650225 -0.098574087
-0.0049165604 -0.051371716 -0.091621734
0.017525455 -0.051372889 -0.091217227
0.029057339 -0.059013568 -0.09398073
0.041818015 -0.05195684 -0.093583837
0.072350211 -0.058744274 -0.090057179
0.085637063 -0.05801709 -0.092726931
0.11479789 -0.059989475 -0.09603253
-0.0031265728 -0.047137354 -0.098497555
0.03436866 -0.049947411 -0.094973996
-0.33450407 -0.023955073 -0.0964773
-0.32638285 -0.024371747 -0.091178045
-0.31938499 -0.02399762 -0.095801838
0.074929401 -0.092901401 -0.082835831
0.10413073 -0.094930284 -0.086195558
0.047408216 -0.081163406 -0.080451161
0.058890413 -0.087377653 -0.081084728
0.06198851 -0.086196989 -0.080537006
0.037629634 -0.07303676 -0.086670503
0.042878017 -0.073655367 -0.084631063
0.071244195 -0.07458806 -0.081927575
0.045056783 -0.069637828 -0.08187975
0.054035444 -0.062327653 -0.089489855
0.073959954 -0.060927935 -0.083636701
-0.022344727 -0.05181174 -0.086195692
-0.015380265 -0.050492022 -0.080915608
-0.0014478692 -0.05399121 -0.082991607
0.032470934 -0.053565104 -0.081550457
0.041738868 -0.053274911 -0.084238298
0.06927377 -0.055443205 -0.086122796
0.071729332 -0.054454885 -0.085854352
0.10070875 -0.059505422 -0.085004173
-0.013140745 -0.049198885 -0.089032479
-0.0057173385 -0.049296796 -0.085142873
0.011801972 -0.048586432 -0.084033467
0.021291506 -0.048707977 -0.080353424
0.047152542 -0.04830274 -0.083172187
-0.31310335 -0.026464924 -0.083740741
-0.30238497 -0.02878936 -0.082463697
-0.2988157 -0.026648516 -0.080841228
0.10019574 -0.090989031 -0.079363845
0.067213058 -0.086357035 -0.078637049
0.080823593 -0.081047043 -0.075228825
0.1121669 -0.086440802 -0.076784909
0.048612006 -0.074968681 -0.079438373
0.065122679 -0.068072088 -0.078110598
0.074494407 -0.064820834 -0.0772461
0.082555354 -0.065232374 -0.076847285
0.097293317 -0.062543258 -0.073742166
-0.013319454 -0.053712372 -0.073871791
0.035568826 -0.054829732 -0.07261502
0.040964451 -0.054807983 -0.073187701
0.061535273 -0.051704362 -0.076775335
-0.33332002 -0.026897466 -0.072622418
-0.32943425 -0.025954042 -0.079002723
-0.30464542 -0.02993645 -0.074449882
-0.28909206 -0.02918122 -0.074582927
0.0016842036 -0.094019204 -0.063425116
0.013142128 -0.097896121 -0.064009808
0.021780575 -0.09467984 -0.062362354
-0.017215718 -0.05322044 -0.060905643
-0.0072737047 -0.051780425 -0.066669136
0.021126971 -0.052653365 -0.068513088
-0.3314212 -0.027896736 -0.066719502
-0.29550737 -0.028112069 -0.063222013
-0.010732691 -0.090470999 -0.056240529
0.0097137112 -0.094912544 -0.051907901
0.044849966 -0.051144846 -0.053587906
0.077222258 -0.057327338 -0.055919576
-0.30589637 -0.031807497 -0.055624798
-0.29384899 -0.032438524 -0.056947753
-0.27676865 -0.032235906 -0.054819874
0.0033998797 -0.071326531 -0.045670889
0.0049671736 -0.066521302 -0.040742286
-0.026884362 -0.056028113 -0.046931785
0.0035495153 -0.058406018 -0.041283589
0.025279909 -0.052237388 -0.04927101
0.044291537 -0.059001293 -0.042686831
0.057940029 -0.058605257 -0.046744734
0.063966766 -0.055093475 -0.047182363
0.083855189 -0.055624444 -0.049628653
0.090487503 -0.057544071 -0.041744649
-0.27546352 -0.034540299 -0.04334547
0.027951833 -0.071001917 -0.032012891
0.067544401 -0.070812561 -0.032096013
-0.044534519 -0.069182359 -0.031448573
0.038026884 -0.067219406 -0.033002779
0.054525327 -0.067648694 -0.032966737
0.061630074 -0.060378157 -0.034009848
0.079526804 -0.060555361 -0.033817913
-0.10486201 -0.056951694 -0.030376755
-0.071336813 -0.057021193 -0.030345982
-0.050063748 -0.053176664 -0.031301595
-0.035347931 -0.057910569 -0.034841932
-0.014726642 -0.056789804 -0.030994121
-0.0095696347 -0.055955652 -0.035060685
0.0021820418 -0.055342928 -0.033326283
0.021333339 -0.059631094 -0.034900457
0.043711744 -0.05364725 -0.032976381
0.058319926 -0.053001922 -0.033755973
0.06453494 -0.055515155 -0.031911079
0.093907289 -0.056224119 -0.03619045
0.11326053 -0.058749996 -0.031216517
0.12354919 -0.059439473 -0.030041218
0.13157219 -0.052058965 -0.031621844
0.20265396 -0.056071073 -0.030736476
0.23384032 -0.053806249 -0.031214409
-0.22024399 -0.040815316 -0.03003585
-0.11429831 -0.043809935 -0.032792564
-0.10423149 -0.044342469 -0.032733675
-0.085310958 -0.045607489 -0.032587085
-0.02622202 -0.042308643 -0.032958578
-0.00098432403 -0.040753406 -0.033105355
0.064213052 -0.042510699 -0.032936238
0.083875671 -0.043056078 -0.032875925
0.11239713 -0.049682561 -0.032146253
0.12501201 -0.046942197 -0.032473054
0.14891414 -0.049771663 -0.032126591
0.15989919 -0.045683734 -0.032585356
0.21710767 -0.040102888 -0.033159252
0.22033456 -0.043627512 -0.032812737
0.26272273 -0.042469122 -0.032940835
0.27450526 -0.044739768 -0.032610819
-0.31483483 -0.030554533 -0.037966236
-0.30493021 -0.030139154 -0.039822556
-0.26031944 -0.03552245 -0.032327808
-0.18242624 -0.030587494 -0.031378824
-0.1410726 -0.032894105 -0.032442562
-0.11609464 -0.030946372 -0.031873159
-0.062790141 -0.039969906 -0.033153851
-0.041975826 -0.039512526 -0.033135276
-0.0056859367 -0.033956483 -0.032718245
0.011290687 -0.039704487 -0.033143103
0.14028452 -0.03506691 -0.032954413
0.29661179 -0.03472212 -0.03057513
-0.12351605 -0.026536267 -0.030575987
-0.099490985 -0.028362621 -0.031113261
-0.056491893 -0.02662757 -0.030603129
-0.0095913224 -0.027725905 -0.030926172
0.038638555 -0.029338533 -0.031400483
0.10354786 -0.026490254 -0.030562736
0.17682841 -0.029866671 -0.03155563
0.24525478 -0.026794411 -0.030652061
-0.063117608 -0.072990634 -0.023682579
-0.030869018 -0.077151954 -0.020091828
-0.013403075 -0.075384483 -0.026800476
0.037056766 -0.076163657 -0.025271639
0.23619509 -0.071022682 -0.020764496
-0.18195505 -0.061297152 -0.026408548
-0.12826565 -0.065671436 -0.025610495
-0.1148689 -0.064835846 -0.026171912
-0.1083535 -0.068832122 -0.023098284
-0.075406738 -0.061021902 -0.02857472
-0.06943243 -0.060930878 -0.029138044
0.0027483399 -0.060208559 -0.026373006
0.016253818 -0.06038883 -0.027676264
0.063834935 -0.06164141 -0.02447952
0.073545232 -0.061060645 -0.029717676
0.11986479 -0.06789583 -0.028227219
0.1214713 -0.068802997 -0.026260367
0.13264053 -0.062928751 -0.027374666
0.17931843 -0.067002922 -0.024552193
0.19461823 -0.066040292 -0.02512881
0.20704439 -0.063782662 -0.026836131
0.26577452 -0.066980571 -0.024569949
0.27222741 -0.062623963 -0.027566899
0.28543365 -0.062975973 -0.026733667
-0.20007217 -0.055527315 -0.027057197
-0.19514553 -0.052722432 -0.029164732
-0.1698308 -0.059977308 -0.028544663
0.093747199 -0.054213356 -0.028735645
0.30203453 -0.055302281 -0.027851572
0.31362239 -0.059109397 -0.02355843
-0.27450329 -0.046338454 -0.020533053
-0.26895067 -0.046645284 -0.021465585
-0.2343125 -0.044003624 -0.028186359
-0.2273473 -0.045339499 -0.028331896
-0.28590208 -0.037358239 -0.022006728
-0.27023861 -0.036985729 -0.027032802
-0.26417798 -0.037090138 -0.026736822
-0.24889508 -0.036693335 -0.02814332
-0.23319346 -0.039106652 -0.029367454
0.30643854 -0.035862461 -0.029083623
-0.25861961 -0.022562122 -0.02378886
-0.24271984 -0.029009448 -0.028366622
-0.23745032 -0.024228338 -0.027250608
-0.20476441 -0.022546802 -0.027616806
-0.11333723 -0.023842428 -0.029479284
-0.0936554 -0.021673154 -0.028314963
-0.086217433 -0.020884853 -0.027891854
-0.062578306 -0.020629507 -0.027750237
0.040158581 -0.02430423 -0.02972715
0.11817847 -0.024326814 -0.029739272
0.18738431 -0.020048553 -0.027288482
0.24294166 -0.024661878 -0.029919112
-0.18271875 -0.014734756 -0.02165311
-0.17622998 -0.018553697 -0.026022129
-0.16701466 -0.016229713 -0.023993134
-0.084558092 -0.016290598 -0.024073567
-0.071970657 -0.014667702 -0.021929583
-0.060183033 -0.016336882 -0.024134714
-0.01277275 -0.017478626 -0.025245737
-0.0028202827 -0.018636221 -0.02616586
0.0072709508 -0.015143652 -0.022558354
0.043664582 -0.018960627 -0.026423715
0.062056266 -0.013972264 -0.021010846
0.11633931 -0.016509552 -0.024346139
0.13639684 -0.01397352 -0.021012509
0.15491273 -0.019199254 -0.026613392
0.20703904 -0.014338383 -0.021494523
0.24334767 -0.017825475 -0.025521159
0.26614642 -0.016762352 -0.024676379
-0.14500356 -0.074946031 -0.014952322
-0.12880209 -0.073559299 -0.017455302
-0.08674562 -0.077063195 -0.01056061
-0.027076906 -0.077800214 -0.015996266
0.020952284 -0.077819243 -0.017295413
0.11967924 -0.076959863 -0.01080431
0.19542588 -0.073548555 -0.017186105
0.23074536 -0.073893182 -0.016913492
0.28375867 -0.073986679 -0.015984984
0.29638761 -0.074602701 -0.01128853
-0.22385328 -0.060907476 -0.018823722
-0.19701815 -0.069371656 -0.014107643
0.32634658 -0.067535132 -0.010029589
0.33501142 -0.062090829 -0.012356185
-0.29484114 -0.043557409 -0.017324392
-0.27800843 -0.046803091 -0.019462503
-0.31503746 -0.034321222 -0.01648041
-0.30170256 -0.036491722 -0.011321456
-0.29619867 -0.035717919 -0.019695904
-0.26322275 -0.038190529 -0.019586904
-0.32665339 -0.028204974 -0.010557758
-0.31528893 -0.026559152 -0.012828141
-0.28654692 -0.019596217 -0.013592338
-0.26563668 -0.017621301 -0.016274139
-0.16622919 -0.011722069 -0.017346334
-0.080006227 -0.010054307 -0.013933096
-0.070798196 -0.010003613 -0.013804396
-0.053539123 -0.012755479 -0.019149618
-0.04713393 -0.012481036 -0.018670715
0.038469553 -0.0122103 -0.018198289
0.046622694 -0.01033072 -0.014634845
0.097813271 -0.012814946 -0.019253386
0.10835601 -0.012359073 -0.018457893
0.21354476 -0.011908359 -0.017671404
0.24434385 -0.012730984 -0.019106874
0.27078068 -0.010780908 -0.015704023
-0.12296212 -0.0098335398 -0.013372616
0.0067474544 -0.0087194657 -0.010531252
0.055558525 -0.0097275339 -0.013103493
0.26076061 -0.009391075 -0.012249297
0.31301019 -0.09918648 -0.0050242338
-0.20616043 -0.070092373 -0.0026644391
-0.18843205 -0.073141515 -0.0065590078
-0.16943432 -0.076618835 -0.0050216783
-0.15402576 -0.076580092 -0.0072788633
-0.13513879 -0.078680642 -0.0038217444
-0.0656268 -0.078881808 -0.0013331573
-0.036885917 -0.078617588 -0.0055092368
-0.02457273 -0.078531995 -0.0063095749
0.0057737846 -0.07847891 -0.0075691324
0.16650201 -0.078961141 -0.00035182398
0.3162539 -0.072685182 -0.0051553645
-0.23804837 -0.063130923 -0.0063520144
-0.22916114 -0.064633667 -0.0084325401
-0.20579708 -0.069814079 -0.0053436528
0.34862921 -0.062246997 -0.0010286405
-0.27292678 -0.054875404 -0.0058769747
-0.2591083 -0.058632851 -0.00573231
-0.31257612 -0.045613598 -0.0062360992
0.35712081 -0.043206416 -0.0082026105
0.35798028 -0.038204297 -0.002205279
-0.32001382 -0.022677315 -0.0046173525
-0.3199189 -0.023656113 -0.0085628266
-0.29720923 -0.019077137 -0.0076703159
-0.28349113 -0.017097916 -0.008861525
-0.21787666 -0.010312461 -0.0094682733
0.30420202 -0.011266036 -0.0045212754
0.3169868 -0.015363759 -0.0080496874
-0.31820297 -0.00054264045 -0.00032757653
-0.27575183 -0.0017437139 -0.0034199581
-0.26897255 -0.0044201915 -0.003807463
-0.2549392 -0.0052553006 -0.0045633656
-0.22337882 -0.0093795424 -0.00090786791
-0.19239675 -0.0093080215 -0.0094395168
-0.15338728 -0.0072064763 -0.0011675718
-0.14386773 -0.0083100619 -0.0087574571
-0.064006098 -0.0072802999 -0.0021501358
-0.052109696 -0.0079106307 -0.0070268624
-0.04732269 -0.0085773356 -0.009915458
0.027696183 -0.0084985737 -0.0095742121
0.10387935 -0.0072784387 -0.0021253559
0.12389772 -0.0073892213 -0.0035998242
0.15133668 -0.0076353149 -0.0058340207
0.25883371 -0.0080742911 -0.0077359467
0.26390517 -0.0073662465 -0.0032938395
0.27378133 -0.0075866701 -0.0056180866
-0.24514711 0.0099722147 -0.0040544318
-0.22218665 0.00021314455 -0.0023826763
-0.30389336 0.017060991 -0.0020155248
-0.29159093 0.016590878 -0.0028777164
-0.32012531 0.026812401 -0.0010500023
-0.24956208 0.023902671 -0.0023460553
-0.32819942 0.035808608 -0.00071681396
-0.28767952 0.03822314 -0.0036330097
-0.29881418 0.048618615 -0.0032762259
-0.29514557 0.054567583 -0.003283483
-0.28318673 0.053572357 -0.0023266538
-0.32388574 0.083824441 -0.0022982887
0.30822101 -0.097935528 0.0018409828
0.30739111 -0.087805614 0.0018416038
-0.183514 -0.073841967 0.0087789819
-0.16516237 -0.076745652 0.0064861104
-0.14259462 -0.07757017 0.0085374331
-0.13141575 -0.078686841 0.0037760586
-0.10104503 -0.078990936 1.681014e-05
-0.073874988 -0.078575946 0.0037308978
-0.033263542 -0.078814447 0.0022055225
-0.0043588453 -0.078544267 0.0059831645
0.0040741637 -0.078487486 0.0072548864
0.01937231 -0.078634374 0.0044218246
0.13107008 -0.078886971 0.0013128269
0.15740773 -0.077465966 0.0094961179
0.207592 -0.078827411 0.0020459695
0.31715339 -0.072451361 0.0058689197
-0.24344139 -0.062880896 0.0005680527
-0.26298514 -0.058213539 0.0026973987
-0.31322134 -0.044488009 0.0096024461
-0.3162446 -0.02207529 0.0052198321
-0.30440772 -0.020029262 0.0057032094
0.33823133 -0.026911942 0.0085476991
-0.29505235 -0.010487562 0.0018196313
-0.26820028 -0.013752272 0.0015489873
-0.25837848 -0.012263594 0.00030553614
-0.24684629 -0.011376324 0.0063312845
-0.21700594 -0.010164166 0.008608168
0.30629343 -0.011386604 0.0025934672
-0.30094177 -0.0023300836 0.0016291805
-0.27141213 -0.0070568039 0.0035960996
-0.22776903 -0.0099519994 0.0031306767
-0.21044815 -0.0093088951 0.00445549
-0.20751414 -0.0090967715 0.0040245932
-0.18473169 -0.0084851673 0.0019625144
-0.15579498 -0.0075305263 0.0037393086
-0.034205556 -0.007877891 0.0063857846
0.030200509 -0.008513825 0.0096651679
0.069693826 -0.0083536534 0.0089712627
0.10721971 -0.0075288182 0.0053978655
0.12280828 -0.0074231359 0.0040823966
0.13562438 -0.0081533073 0.008103312
0.15927346 -0.0084904693 0.0095639871
0.16452423 -0.0076865125 0.0060810372
-0.31556731 0.013239582 0.0010085228
-0.25327921 0.016487589 0.0040225401
-0.24229254 0.019329097 0.0013677891
-0.23730463 0.013730763 0.0020005102
-0.29447392 0.023920141 0.0029794574
-0.28843385 0.027057787 0.0034911146
-0.27251962 0.026320079 0.0041616168
-0.30537808 0.032992132 0.0025203708
-0.27106664 0.032534469 0.0037516148
-0.33842385 0.045988116 0.00030371887
-0.30556232 0.046363421 0.0029292903
-0.2738983 0.043554954 0.0025751889
-0.29639217 0.055151604 0.0033325991
-0.34541714 0.061487712 0.00026066357
-0.33551353 0.061725333 0.0010549028
-0.33446327 0.076409422 0.0018811009
-0.32408673 0.070182256 0.0024028523
-0.33802968 0.085315868 0.0019140854
-0.35253543 0.092741832 0.00089134183
-0.32529977 0.092671148 0.0014761358
-0.35016292 0.10379427 0.00057827786
-0.19379605 -0.070712239 0.012831992
-0.17266801 -0.073018901 0.015735086
-0.13110867 -0.073400669 0.01773791
-0.11543515 -0.074711137 0.015611365
-0.086828634 -0.075948969 0.013213651
-0.076115757 -0.073499188 0.017578045
-0.032680139 -0.077940077 0.013672661
0.05382283 -0.077842243 0.017105151
0.13125169 -0.077195875 0.010272537
0.14486286 -0.076621495 0.011627328
0.16291839 -0.075681359 0.013844887
0.19562991 -0.074233234 0.016386881
0.22290176 -0.071904793 0.01976911
0.23605162 -0.071896546 0.01977866
0.24789344 -0.072982214 0.018416971
0.28938118 -0.076160058 0.010442462
-0.22124492 -0.062553242 0.017183429
-0.20994431 -0.064558081 0.017469469
0.33837071 -0.061274093 0.012195045
-0.28378728 -0.051300637 0.011097412
-0.26300171 -0.052759029 0.018083038
-0.25170565 -0.055256527 0.018007465
-0.28568539 -0.044922091 0.01854546
-0.32334349 -0.038455535 0.011769945
-0.31503847 -0.03743203 0.014445902
-0.26118717 -0.03819719 0.019728672
-0.25716221 -0.034358092 0.016845565
0.32755452 -0.030877033 0.019799238
-0.29455751 -0.023882307 0.016431507
-0.27964666 -0.017119559 0.010263977
-0.26554465 -0.018189304 0.017696183
-0.24131382 -0.013986465 0.017589938
-0.21172507 -0.0144588 0.019854855
-0.18785053 -0.010354271 0.013110482
-0.17018485 -0.010867177 0.015879482
-0.16505915 -0.012843013 0.019327503
-0.07895764 -0.01095264 0.016028622
0.027859878 -0.011729312 0.017383989
0.035675757 -0.010935461 0.015998643
0.053109113 -0.010055769 0.013961673
0.15402935 -0.011574587 0.01711398
0.16519566 -0.010922421 0.015951857
0.25264928 -0.011429035 0.016859977
0.27545193 -0.012909707 0.019371396
-0.15451652 -0.0088139949 0.010809027
-0.051637571 -0.0089820521 0.011235695
-0.027720563 -0.0091602616 0.011688136
0.070657209 -0.0091715604 0.011716822
0.20992585 -0.0088302782 0.010850365
0.2916407 -0.0098270718 0.010259761
-0.080036134 -0.070417523 0.021489374
-0.071432218 -0.071600378 0.021802336
-0.033158917 -0.074723691 0.027065627
-0.0058017364 -0.07610137 0.025418654
0.015641432 -0.077144101 0.021946445
0.03869452 -0.075908087 0.025836974
0.050169487 -0.077387482 0.020193119
0.065948755 -0.075269997 0.026158988
0.079574637 -0.075415626 0.026807018
0.093780607 -0.075268328 0.024518132
-0.19945115 -0.060741425 0.023978999
-0.1501506 -0.063360259 0.026926368
-0.14565286 -0.061881036 0.027957242
-0.13494754 -0.065471858 0.025794432
-0.10656367 -0.065427594 0.025824014
0.048493147 -0.060435276 0.025915999
0.055979405 -0.060302235 0.02784035
0.094479665 -0.061141185 0.02432047
0.14231914 -0.067639828 0.024071034
0.1504291 -0.065098502 0.026031561
0.20143628 -0.068254657 0.023582291
0.22141764 -0.061861459 0.028073087
0.26360893 -0.061172124 0.028507832
0.29004729 -0.06553591 0.024419926
0.30335516 -0.067782022 0.020081857
-0.23135252 -0.056071796 0.022022981
-0.0068446374 -0.059078321 0.026879437
0.024111228 -0.054113351 0.025683291
0.10942718 -0.056076299 0.023466863
0.13043001 -0.059906431 0.029093761
0.17547037 -0.059396833 0.029319327
0.20088315 -0.058144715 0.029873557
0.21362031 -0.059109032 0.029446717
0.30868977 -0.054608524 0.02683413
0.31489319 -0.051943906 0.026142737
-0.2475284 -0.043475769 0.026829368
-0.22836927 -0.043044019 0.028996406
-0.32336903 -0.032692324 0.022950254
-0.31522912 -0.033546131 0.02116349
-0.30780604 -0.031447668 0.028870381
-0.29741123 -0.035858445 0.022976043
-0.25106403 -0.03761977 0.020591158
-0.2310279 -0.032406464 0.029671272
0.30243033 -0.036444962 0.029780803
0.33340245 -0.038584188 0.020628527
-0.27346605 -0.024754634 0.021763902
-0.2676053 -0.025582552 0.02377064
-0.25108549 -0.025536586 0.026401674
-0.23908818 -0.02642847 0.027958453
-0.22589439 -0.02628262 0.028436605
-0.20575562 -0.023630841 0.028215075
-0.17071238 -0.022354772 0.028705612
-0.1453203 -0.024437925 0.029823709
-0.094398744 -0.021871699 0.028446328
-0.086869262 -0.022059895 0.028547339
-0.030990236 -0.022874828 0.028984744
-0.028779907 -0.020480443 0.027656555
0.0043444904 -0.02236945 0.028713487
0.018278206 -0.022633033 0.028854961
0.075868674 -0.020701818 0.027818415
0.090465605 -0.020896018 0.027922647
0.16068272 -0.021556085 0.028276928
0.18303029 -0.020510409 0.027680373
0.30485338 -0.023446711 0.024778493
-0.14254719 -0.01484669 0.022191107
0.025839761 -0.013633176 0.02058303
0.12983565 -0.013429799 0.0203194
0.14560884 -0.015112586 0.022542354
0.22178479 -0.016286898 0.024093619
0.26869473 -0.015588102 0.023170512
0.27459791 -0.01385409 0.020824162
-0.030009124 -0.065497294 0.032352716
0.0046079494 -0.060947798 0.033141579
0.043262795 -0.063506097 0.033145599
0.088003941 -0.066498071 0.032703228
-0.073315009 -0.053280845 0.031377167
-0.060983174 -0.053903613 0.031236213
-0.041631129 -0.053210873 0.031661581
-0.030771397 -0.056434225 0.03853837
-0.014537757 -0.055835448 0.034623623
-0.0074783675 -0.057718851 0.038167074
0.010272174 -0.055146977 0.033042781
0.053525284 -0.05168882 0.039621629
0.061869189 -0.059733741 0.032797925
0.072149687 -0.059713297 0.033707432
0.093326636 -0.059733871 0.032643232
0.12417344 -0.0547143 0.031060759
0.14263523 -0.050014351 0.032098178
0.19687787 -0.055861972 0.030644169
0.2371223 -0.054094948 0.03119747
0.241505 -0.056378912 0.030655164
0.27971068 -0.055069663 0.030631429
-0.1994105 -0.043208092 0.031190075
-0.073571086 -0.048506163 0.032373533
-0.0021278546 -0.045276776 0.032655213
0.0050506759 -0.041177411 0.033108816
0.042101476 -0.043602999 0.032840423
0.063752785 -0.044130884 0.032782182
0.10399986 -0.043718759 0.032827612
0.14083263 -0.0429634 0.032911193
0.17219578 -0.041216504 0.03310449
0.23438697 -0.044797018 0.032708302
-0.2881673 -0.033072457 0.035875916
-0.10273713 -0.03541819 0.032773219
-0.099790603 -0.037137561 0.033063632
-0.0016804049 -0.031680267 0.03211413
0.046334915 -0.03944622 0.033157796
0.051495507 -0.033479374 0.032619487
0.067772165 -0.033028595 0.032502692
0.077169374 -0.032394521 0.032324374
0.087133139 -0.034444127 0.032869637
0.094370961 -0.036129545 0.033022583
0.20706929 -0.032478958 0.032326691
0.28257847 -0.035528377 0.032447163
-0.12522557 -0.02972788 0.031539708
0.058566161 -0.026790781 0.030675927
0.23536019 -0.029952914 0.031606097
0.021699781 -0.096720248 0.047981575
0.0037952675 -0.067720547 0.042307623
-0.023347387 -0.056210879 0.046167031
-0.0062892335 -0.055404995 0.043815717
0.0040674345 -0.057500809 0.042151459
0.028076824 -0.058107045 0.041428071
0.043597478 -0.051569089 0.042781547
0.072452754 -0.05490445 0.044903755
0.08372318 -0.053298935 0.043174993
-0.32308304 -0.030770261 0.045711793
-0.31352675 -0.030184105 0.040659148
-0.01196456 -0.091430008 0.051640891
0.009183323 -0.096395835 0.052412767
0.0084374575 -0.084459327 0.055421185
-0.014998519 -0.05382359 0.056420684
0.052759945 -0.054446071 0.054714441
0.06781698 -0.057068847 0.052559718
-0.32367891 -0.028348114 0.05829332
-0.2926214 -0.028754167 0.057208136
0.0050588385 -0.093364909 0.063719362
0.021757692 -0.096645288 0.063076019
-0.003403178 -0.08734493 0.065322444
-0.032086074 -0.053293977 0.063669197
-0.0065076114 -0.050891448 0.066992328
0.063950181 -0.054855682 0.068127237
0.074353054 -0.055656195 0.060298316
-0.30461651 -0.03132344 0.061316386
-0.29160652 -0.031769935 0.062180605
-0.28498679 -0.03156323 0.062846325
-0.32794744 -0.028607722 0.063752107
0.057728626 -0.082625985 0.079082601
0.080656245 -0.082884267 0.077528201
0.075244442 -0.074981436 0.073969603
0.080011807 -0.07208354 0.076138988
0.10418889 -0.0693838 0.074110657
-0.03178256 -0.052213196 0.071797282
-0.022542663 -0.050515689 0.078753293
-0.019464158 -0.050333802 0.078342713
-0.0018723602 -0.057662383 0.079812407
0.025113046 -0.053821906 0.073100969
-0.32613093 -0.026459718 0.074077688
-0.31012997 -0.028972557 0.07982783
0.081329904 -0.088609971 0.08208818
0.10234253 -0.082037881 0.088585719
0.1121189 -0.086327925 0.081822589
0.036169644 -0.077374265 0.087938145
0.072225802 -0.07942418 0.085629545
0.10234725 -0.072159462 0.08299844
0.065409184 -0.06115919 0.086223662
0.076279461 -0.061075892 0.08409857
-0.014874065 -0.051094864 0.080024607
-0.0066882642 -0.053794503 0.082934782
0.009173763 -0.051576301 0.0876946
0.014752095 -0.052029032 0.084274672
0.026352484 -0.052429635 0.087646492
0.03926063 -0.052603982 0.083144769
0.067272715 -0.059139002 0.088628717
0.071769394 -0.059089676 0.084015414
0.090925977 -0.053623192 0.087268941
-0.031285074 -0.049883422 0.088546462
-0.029957559 -0.049927928 0.087559134
-0.31192702 -0.025418991 0.083571166
-0.30292112 -0.029133134 0.080100752
0.067630723 -0.091971084 0.092914388
0.076838434 -0.093801275 0.092505939
0.08496999 -0.093881607 0.096533179
0.11287816 -0.091420956 0.090854928
0.10705288 -0.075256191 0.094319589
0.027245188 -0.061447084 0.093427166
0.043341409 -0.064542599 0.098557308
0.10239087 -0.061003979 0.09811753
-0.021304619 -0.050257698 0.092155106
0.037593976 -0.05553399 0.094672464
0.048388522 -0.053739645 0.095851183
0.065418229 -0.058354385 0.095174491
0.073904037 -0.051210046 0.09559159
0.080411069 -0.058210611 0.099086851
0.1001495 -0.05526334 0.093217984
0.11046957 -0.058431111 0.092620775
0.0050257202 -0.049373358 0.090674117
0.014947761 -0.049331591 0.091240451
0.053295411 -0.049341615 0.090357758
-0.32985717 -0.026056342 0.091243133
-0.31842449 -0.02560067 0.093288809
-0.30875942 -0.027050406 0.094299585
0.080448732 -0.089735016 0.10067092
0.045127839 -0.074829236 0.10539884
0.066748828 -0.076550543 0.10708212
0.081861049 -0.070084773 0.10870686
0.081872828 -0.065499008 0.10780676
0.10659695 -0.064693384 0.10419417
0.064742498 -0.059940979 0.10030082
-0.036669597 -0.047741629 0.10435694
-0.0039774943 -0.045495063 0.10428996
0.0088799689 -0.049089041 0.1059753
0.013201988 -0.044725038 0.10508762
0.03892561 -0.044954665 0.10979089
-0.32774869 -0.022574296 0.10798943
0.073888071 -0.07269673 0.11058886
0.082465813 -0.07428208 0.11147531
-0.0075171366 -0.047481336 0.11566927
0.025559722 -0.045818374 0.11365426
0.035379589 -0.047898259 0.11630668
-0.33892158 -0.021470677 0.11753336
-0.034911208 -0.043623447 0.12857746
-0.028111108 -0.044012081 0.12304041
-0.0051183524 -0.04481145 0.12285227
0.032108363 -0.044834346 0.12454425
-0.33057052 -0.023163339 0.12101352
-0.030041791 -0.044272214 0.13583571
-0.029068369 -0.044803139 0.13201019
-0.012711693 -0.043104198 0.13407712
0.007607705 -0.045135185 0.13459909
0.014310302 -0.040697277 0.13434571
0.023304297 -0.043265909 0.13516371
-0.042571895 -0.043444239 0.14861701
-0.031428821 -0.045033306 0.14888096
-0.029803101 -0.043091565 0.14729579
-0.0044096969 -0.043112352 0.14820713
0.0058986791 -0.04405969 0.14219522
-0.045413658 -0.040610351 0.15630168
-0.027853031 -0.041945241 0.15376383
-0.012093503 -0.042647548 0.15080091
-0.0017108815 -0.042202827 0.15500583
-0.035543494 -0.039496392 0.15472062
-0.042555965 -0.040311649 0.16332327
-0.025140204 -0.040794842 0.16274717
0.0073667732 -0.040484298 0.16762874
-0.052261814 -0.038752377 0.16699764
-0.041234147 -0.037970915 0.16671361
-0.024872053 -0.036854669 0.16829814
-0.052878749 -0.037183337 0.17688864
-0.047795348 -0.03820806 0.17821617
-0.033452611 -0.036464453 0.17347866
0.0049391971 -0.039865624 0.17190899
-0.045395158 -0.03595829 0.1811734
-0.018792126 -0.038427629 0.18087649
-0.037158113 -0.036676262 0.19160604
-0.0501303 -0.032077536 0.20754096
-0.034949325 -0.031547263 0.20690911
-0.018071 -0.035729736 0.20028526
-0.047277212 -0.032511454 0.21165869
-0.014615473 -0.033227898 0.21005818
-0.074263036 -0.03098288 0.22560155
-0.044054523 -0.028890833 0.22685693
-0.075553797 -0.030482223 0.2311067
-0.054439552 -0.030354403 0.23599134
-0.043683894 -0.030951221 0.23284522
-0.071790352 -0.029588187 0.23158373
-0.034920301 -0.027689461 0.24544339
-0.048050717 -0.028047618 0.25340644
-0.039489865 -0.026860964 0.25412157
-0.083039813 -0.025551068 0.2672452
-0.047698747 -0.027031042 0.26063198
-0.087692961 -0.023416322 0.27583694
-0.095583111 -0.021090603 0.29337046
-0.070156209 -0.020442083 0.30629674
-0.066623829 -0.02129522 0.30040023
-0.10168622 -0.019917268 0.30326784
-0.086816579 -0.018508753 0.30629742
-0.071535408 -0.018693035 0.30414209
-0.082841292 -0.019127591 0.31504235
-0.077805474 -0.017366434 0.31329364
-0.11021306 -0.0028115809 0.32074782
-0.1043018 -0.0088204611 0.32003826
