# .PCD v0.7 - Point Cloud Data file format
VERSION 0.7
FIELDS x y z
SIZE 4 4 4
TYPE F F F
COUNT 1 1 1
WIDTH 825
HEIGHT 1
VIEWPOINT 0 0 0 1 0 0 0
POINTS 825
DATA ascii
-0.092699379 -0.026470527 -0.29376799
-0.10003408 -0.028106563 -0.28248236
-0.099223718 -0.027367104 -0.28891113
-0.073390298 -0.028624032 -0.28752494
-0.079358324 -0.029991876 -0.27599397
-0.090377562 -0.03017805 -0.26620036
-0.088857427 -0.030594444 -0.25171047
-0.073596068 -0.033071112 -0.24106745
-0.065863214 -0.029998019 -0.24459727
-0.053688616 -0.029796593 -0.24397895
-0.08283855 -0.033164598 -0.23293604
-0.076325923 -0.03168036 -0.23174134
-0.068065472 -0.031006388 -0.23480237
-0.059130285 -0.030539138 -0.23595749
-0.033303689 -0.032918263 -0.21263665
-0.075752236 -0.035919722 -0.20252517
-0.067159064 -0.036488127 -0.20618622
-0.050398707 -0.036653347 -0.20871118
-0.043899614 -0.037334543 -0.20270911
-0.037428983 -0.037758119 -0.20011437
-0.05033882 -0.037906557 -0.19357708
-0.036863539 -0.033130497 -0.19999644
-0.042589881 -0.038890567 -0.18525325
-0.031635884 -0.034565423 -0.18168488
-0.028528269 -0.039736964 -0.18036947
-0.01897487 -0.034650199 -0.18271683
-0.028553035 -0.040441051 -0.17278081
-0.067127302 -0.038631558 -0.17182887
-0.059347741 -0.038853999 -0.17443132
-0.041156385 -0.03548333 -0.17532863
-0.023262233 -0.03471148 -0.17819953
-0.049035706 -0.050001357 -0.15019234
-0.058641758 -0.040387623 -0.15449443
-0.040113457 -0.047477975 -0.15169042
-0.034176126 -0.042023364 -0.15217273
-0.024106797 -0.042099431 -0.15469663
-0.047747672 -0.037282623 -0.15697214
-0.035947528 -0.037570499 -0.15089396
-0.027416687 -0.042786077 -0.14461347
-0.01165398 -0.041855991 -0.14882897
0.00043571554 -0.037746921 -0.14910783
-0.059427474 -0.04134991 -0.13316078
-0.032582432 -0.043258369 -0.13589317
-0.0096502202 -0.044659197 -0.13027716
-0.0088084452 -0.038054902 -0.13484924
0.049703877 -0.067806311 -0.12099965
0.10130575 -0.065262765 -0.12060332
-0.023252469 -0.044631984 -0.12386163
-0.017257392 -0.045011546 -0.12227874
0.014916087 -0.044081844 -0.12624118
-0.017479029 -0.039037064 -0.12740044
0.034587443 -0.08017689 -0.11072567
0.086930208 -0.082911298 -0.11655061
0.10468777 -0.081268683 -0.11373384
0.028311778 -0.072871372 -0.11426999
0.033880845 -0.073920682 -0.11101614
0.046022538 -0.071919635 -0.115384
0.061768088 -0.073439486 -0.1153685
0.025979608 -0.065143496 -0.11131445
0.034206077 -0.064619996 -0.11783428
0.040262427 -0.061372451 -0.11834993
0.055632979 -0.063561946 -0.11374363
0.099101119 -0.060978487 -0.11941466
0.02723255 -0.057132777 -0.11179859
0.063931033 -0.053632125 -0.11464407
0.079921156 -0.05632655 -0.11744436
-0.043918025 -0.044384059 -0.11665118
-0.034537263 -0.04266841 -0.11700334
-0.0050477386 -0.045725003 -0.11932021
0.012681136 -0.046937931 -0.11062691
-0.017062845 -0.039940201 -0.11748216
-0.35671818 -0.010301672 -0.11844426
-0.3650201 -0.0091828052 -0.11391808
0.048055977 -0.080550104 -0.10554031
0.065853596 -0.08839719 -0.10162171
0.089803196 -0.081757195 -0.10953122
0.098200947 -0.08556205 -0.1031265
0.014955951 -0.072423518 -0.10402716
0.087992698 -0.073305048 -0.10841431
0.015451368 -0.066009574 -0.10427061
0.025936047 -0.055653285 -0.10449574
0.054327819 -0.053294718 -0.10435688
0.075400822 -0.055412684 -0.10603391
0.095754467 -0.0506984 -0.10454648
-0.054456968 -0.046835434 -0.10384492
0.017353376 -0.047885828 -0.10231532
0.056156226 -0.0441842 -0.10326346
0.061557829 -0.044210248 -0.10597985
0.081908047 -0.049777366 -0.10175864
-0.34120089 -0.013498046 -0.10638712
0.097683676 -0.086629152 -0.096450023
0.10399119 -0.082643926 -0.096046656
0.039479878 -0.070052616 -0.091856942
0.046489254 -0.07563591 -0.093063965
0.056860439 -0.079151675 -0.09551309
0.099001892 -0.07935559 -0.092993408
0.021147115 -0.061178934 -0.097615167
0.039541032 -0.067167856 -0.091444492
0.044100102 -0.061072696 -0.091915175
0.053148545 -0.060264237 -0.091812268
-0.038717937 -0.05141988 -0.092813842
0.033587016 -0.05471459 -0.098176658
0.065716021 -0.051531635 -0.095289335
-0.058707945 -0.04540031 -0.092333034
-0.03363651 -0.045083739 -0.094632775
-0.025523188 -0.042188518 -0.092572764
0.0051775505 -0.043796148 -0.096993141
0.01274791 -0.048144132 -0.099045023
-0.35287702 -0.012753854 -0.09465608
0.040894482 -0.075484693 -0.087897465
0.084521212 -0.072872855 -0.084017456
0.052743003 -0.063807435 -0.085134871
0.07064563 -0.068473399 -0.08646924
0.094625518 -0.06524314 -0.084540173
0.1000758 -0.06780827 -0.084677786
-0.054123562 -0.046258386 -0.086166896
-0.047985204 -0.044828702 -0.080873854
-0.028880928 -0.047574379 -0.088095844
0.02643965 -0.049974378 -0.08377298
0.034019846 -0.042288058 -0.087657213
-0.34953186 -0.01311451 -0.084066652
-0.3179892 -0.016378146 -0.083126485
-0.027416363 -0.10342132 -0.070071682
-0.016641056 -0.050174087 -0.071474276
-0.0015046711 -0.050116848 -0.074421324
0.016707484 -0.050824843 -0.073970109
0.028485207 -0.051130358 -0.07303381
-0.05518464 -0.047244187 -0.072882943
-0.032242261 -0.049496032 -0.070127875
-0.0078383991 -0.043117911 -0.073266938
-0.33610785 -0.014268974 -0.079611078
-0.32708317 -0.015819132 -0.071589932
-0.012874759 -0.10084677 -0.06986101
-0.0079691354 -0.10564257 -0.066269949
-0.027874868 -0.095907539 -0.061393395
-0.014140446 -0.094303496 -0.06869337
-0.018718967 -0.085099258 -0.069524117
-0.013758595 -0.07165359 -0.067592353
-0.013617297 -0.065073445 -0.063794166
-0.0045732781 -0.065523118 -0.065800294
-0.045681857 -0.050930075 -0.068656325
-0.026748568 -0.050078537 -0.069783717
-0.018259542 -0.057432346 -0.064700469
-0.0059510511 -0.051188782 -0.064436808
0.0031143711 -0.051454358 -0.062342796
0.012675399 -0.051170371 -0.069143549
-0.045647919 -0.047569238 -0.063356832
-0.030354824 -0.049927663 -0.068378672
-0.31216091 -0.021471404 -0.067039564
-0.35093549 -0.016274324 -0.062707841
-0.34236068 -0.018454948 -0.062548995
-0.03153199 -0.10225346 -0.057273626
-0.015697837 -0.093815491 -0.057397202
-0.0038208417 -0.094712742 -0.055098832
-0.016320501 -0.072988905 -0.053048871
-0.010025674 -0.068314373 -0.059486564
-0.018390104 -0.051555887 -0.059135359
0.024035566 -0.052911323 -0.055231597
-0.056643691 -0.04816455 -0.052200958
-0.017982326 -0.04483223 -0.05576827
0.0029763735 -0.043869987 -0.058438629
0.051604345 -0.044693328 -0.056738779
-0.30376491 -0.024065802 -0.053402208
-0.35288447 -0.017118841 -0.057981189
-0.33235705 -0.01731525 -0.0550723
-0.018691937 -0.068300366 -0.040094912
0.024187535 -0.053710971 -0.047258142
-0.014298828 -0.045358308 -0.047535527
-0.0094411569 -0.045111671 -0.048849497
0.016158842 -0.04425412 -0.047191776
0.023625145 -0.043991566 -0.046883646
0.039889272 -0.043842345 -0.04460565
0.041068546 -0.043951467 -0.042775325
0.056664016 -0.04529839 -0.047824331
-0.33684704 -0.02036486 -0.046249975
-0.024178034 -0.054196227 -0.03314843
0.048155777 -0.055475205 -0.034489084
0.057385545 -0.055198655 -0.036822252
0.065724239 -0.051307969 -0.037469313
-0.13181162 -0.043611906 -0.03037844
-0.089173965 -0.04052145 -0.030124526
-0.020615268 -0.048262022 -0.035535477
-0.019659881 -0.04818555 -0.036325596
0.0063403011 -0.045764551 -0.033045471
0.040979583 -0.044674292 -0.032614604
0.18542433 -0.044377647 -0.030201392
0.29659957 -0.041830841 -0.030053996
-0.15123627 -0.035393711 -0.03059327
-0.14540592 -0.0344606 -0.030526733
-0.13717273 -0.032083653 -0.030253973
-0.11637019 -0.033235893 -0.030410051
-0.082187951 -0.036991976 -0.030717321
0.0037727668 -0.032196142 -0.030292552
0.025377767 -0.035245687 -0.030590253
0.047869101 -0.033883467 -0.030491218
0.060437448 -0.036784515 -0.030702222
0.15695943 -0.036500044 -0.030681523
0.22724777 -0.033923075 -0.030494109
0.23027942 -0.032348055 -0.030325368
0.2923196 -0.032929119 -0.03020085
-0.32964551 -0.023264524 -0.03576104
-0.02788737 -0.075240061 -0.021665098
-0.014646545 -0.074546941 -0.023983402
0.040459402 -0.074362695 -0.024637934
0.070424214 -0.075299695 -0.021746192
0.090774417 -0.075216345 -0.021013333
-0.15012527 -0.060857762 -0.022972995
-0.10663743 -0.062336352 -0.0257062
-0.06812612 -0.067754507 -0.029277049
-0.051003292 -0.06111037 -0.029294729
-0.014510584 -0.066520959 -0.027739
-0.0098305196 -0.06277585 -0.027526835
0.066438161 -0.063471943 -0.02928872
0.10931777 -0.069944486 -0.024052411
0.13210917 -0.060883302 -0.02319349
0.2193927 -0.063416898 -0.020443574
0.26450226 -0.060100898 -0.023355577
0.28180382 -0.061028268 -0.022634326
0.30441812 -0.060249966 -0.022632351
-0.18876359 -0.056053597 -0.024906024
-0.1066492 -0.056234386 -0.027348191
-0.0053520552 -0.052790366 -0.029581971
0.0032827125 -0.057793211 -0.029303242
0.11532369 -0.052856706 -0.029206401
0.16598837 -0.05574755 -0.026203111
0.21256906 -0.053964928 -0.027189203
0.2294154 -0.055301439 -0.026449883
0.23197639 -0.050939649 -0.028402252
0.24576899 -0.051344652 -0.028248727
0.29252744 -0.052305028 -0.027728925
-0.22796926 -0.044438824 -0.026560098
-0.19955003 -0.041055325 -0.029459357
-0.18413505 -0.045706507 -0.029155299
-0.17810521 -0.044461425 -0.02961106
-0.16511044 -0.04946705 -0.028780581
-0.010527605 -0.041496865 -0.029858405
0.15729643 -0.049933817 -0.028783537
0.24460715 -0.045919426 -0.02986609
-0.23792228 -0.032670949 -0.026458252
-0.22285937 -0.034212485 -0.027825586
-0.21334718 -0.038553804 -0.028722204
-0.17816964 -0.031709917 -0.029695261
-0.33297759 -0.02172295 -0.020864947
-0.31484744 -0.027134655 -0.020376874
-0.29484636 -0.025302321 -0.02144268
-0.21297422 -0.025328772 -0.026695104
-0.1527504 -0.024361771 -0.028047757
-0.1484409 -0.022224601 -0.027170178
-0.12702012 -0.022908276 -0.027525954
-0.02847904 -0.023960646 -0.027938187
0.0063484949 -0.023972251 -0.027942665
0.026437547 -0.024652425 -0.0282005
0.083797745 -0.024748618 -0.028236965
0.091781378 -0.022532541 -0.027395632
0.20078763 -0.02064524 -0.026351664
0.2176735 -0.028636934 -0.029523561
0.23437694 -0.025729895 -0.028608939
0.29703611 -0.020884518 -0.025590114
-0.2706815 -0.019816054 -0.021289596
-0.20777704 -0.017368853 -0.023016762
-0.19791307 -0.017488774 -0.023498457
-0.13011003 -0.017707922 -0.024632938
-0.10898296 -0.018717555 -0.025285304
-0.089107469 -0.01530963 -0.022816733
0.053678185 -0.012303787 -0.020036021
0.061257154 -0.018196302 -0.024996955
0.15280107 -0.013716845 -0.0215417
0.1908946 -0.016972769 -0.02410008
0.21164006 -0.016567294 -0.02368075
0.22087814 -0.017367201 -0.02440444
0.23187444 -0.017609162 -0.024591146
0.31903332 -0.018915139 -0.020985406
-0.094805241 -0.071862116 -0.018518727
-0.084691152 -0.075025372 -0.010969521
-0.063966528 -0.076835066 -0.012687829
-0.054106016 -0.076647691 -0.015016367
0.0098772086 -0.076819748 -0.013397634
0.022913788 -0.076817006 -0.010725729
0.049366012 -0.076811463 -0.011157699
0.087911248 -0.076803371 -0.011922323
0.22476625 -0.070000924 -0.010573593
-0.18537351 -0.066029057 -0.01574165
-0.16537365 -0.064437479 -0.019100251
-0.14674157 -0.069755904 -0.011803487
-0.12888369 -0.069742128 -0.012473722
0.12903199 -0.067656532 -0.017348137
0.18995091 -0.065275572 -0.018481392
0.25408015 -0.065015614 -0.018755823
0.28444383 -0.068380453 -0.014017958
0.32965952 -0.061575312 -0.01986606
0.3397769 -0.066211507 -0.013178054
0.34131688 -0.063046068 -0.016481636
0.36033615 -0.059876487 -0.013974842
-0.30397412 -0.040851694 -0.019918643
-0.28417134 -0.047614958 -0.019180799
0.36770475 -0.0463842 -0.012735513
-0.33676615 -0.035238463 -0.014964883
-0.317348 -0.030079518 -0.019295182
0.35607666 -0.036450792 -0.010626351
-0.3446826 -0.020567687 -0.011276107
-0.33093339 -0.022478474 -0.015172554
-0.32812601 -0.025034288 -0.019539716
-0.31889963 -0.022067243 -0.019189872
-0.245802 -0.029503711 -0.019525802
-0.28326905 -0.011598113 -0.010302789
-0.2743443 -0.013177622 -0.014272122
-0.25848043 -0.010326132 -0.011466454
-0.21252348 -0.010270944 -0.015612029
-0.19686489 -0.011454368 -0.018054307
-0.045508869 -0.011105536 -0.018759254
0.03669855 -0.010584041 -0.018202441
0.18012214 -0.012062481 -0.019778952
0.32200673 -0.015842259 -0.016583186
-0.19223517 -0.0084290951 -0.013958767
-0.14462365 -0.0085999649 -0.015202835
-0.13074645 -0.0073195137 -0.013140664
-0.12486829 -0.0074959826 -0.013562147
-0.086839162 -0.005926942 -0.010217414
-0.061996728 -0.0064321877 -0.011314591
-0.020435799 -0.0085813189 -0.015305554
0.045651305 -0.006326105 -0.011084251
0.12089485 -0.0064439811 -0.0113404
0.20494632 -0.0074669509 -0.013537268
0.24418971 -0.0065168878 -0.011498507
0.25723198 -0.0077623995 -0.014091232
-0.073010452 -0.076718807 -0.00017629471
-0.058512419 -0.076833971 -0.0030213899
-0.045175139 -0.076831184 -0.0038162195
-0.029577492 -0.076788232 -0.0095336856
-0.012865733 -0.073595814 -0.0052663302
0.0096364673 -0.0768198 -0.0057751467
0.023433397 -0.076816902 -0.0089520812
0.0957857 -0.076362029 -0.0048465049
0.12896737 -0.071881846 -0.0077909995
0.1530571 -0.071791843 -0.0046238741
0.1625849 -0.071850263 -0.0039496343
0.17647764 -0.072065905 -0.0014608746
0.19873641 -0.072163373 -0.00033593416
0.23508663 -0.070615947 -0.0091477111
0.25392038 -0.071456991 -0.0059167217
0.26838216 -0.071637109 -0.0050595445
-0.23923382 -0.064959511 -0.0048238635
-0.024600657 -0.062912352 -0.0052663302
-0.0012442693 -0.061807647 -0.0052663302
0.289363 -0.062047098 -0.0017370314
0.29991293 -0.061888151 -0.0091411956
0.33088499 -0.067464717 -0.0014220226
0.34735042 -0.069727615 -0.0024988956
0.37528476 -0.061227284 -0.0023247602
-0.29016382 -0.054613385 -0.006877963
-0.27627641 -0.057966679 -0.0037375591
-0.010410134 -0.056092445 -0.0052663302
0.30621949 -0.0580796 -0.0085578943
0.311708 -0.058259696 -0.0097582061
-0.34337634 -0.040933207 -0.0077389157
-0.31300965 -0.049111255 -0.0086638937
-0.24580202 -0.032766189 -0.004413628
-0.35314846 -0.016825408 -0.0018048316
-0.34974059 -0.01757076 -0.0058897552
-0.30609313 -0.011606867 -0.0040750704
-0.27605024 -0.010335556 -0.0087473551
-0.31985718 -0.0051080482 -0.002050647
-0.28277749 -0.0041227345 -0.0037218751
-0.27283365 -0.0095571652 -0.0074115642
-0.26188245 -0.00063686259 -0.0031335116
-0.220945 -0.0048096338 -0.0024246608
-0.21174951 -0.0052469736 -0.0029307008
-0.20754163 -0.0055873729 -0.0059509641
-0.17325096 -0.0042440044 -0.00018238409
-0.15339622 -0.0040774392 -0.00073014031
-0.09940654 -0.0041436274 -0.0028154016
-0.039853495 -0.0048635262 -0.0067944909
-0.022487901 -0.0039549782 -0.0006379456
0.074138001 -0.0042115483 -0.0035993685
0.10423328 -0.0045590904 -0.0044326028
0.11980287 -0.0041634673 -0.0030444006
0.12404275 -0.0039932313 -0.0010794802
0.21045613 -0.0046972516 -0.0061556841
0.26264077 -0.0050965748 -0.007690209
0.27255473 -0.0052313763 -0.008208219
0.29818529 -0.0054724142 -0.0038948399
0.30352336 -0.0059503857 -0.00072571251
-0.30807954 0.0071314159 -0.0026752376
-0.32786584 0.015491901 -0.0018366878
-0.27877396 0.017532164 -0.0024985722
-0.33096725 0.020054977 -0.0016293994
-0.32891047 0.034003388 -0.001961197
-0.29492968 0.037686665 -0.0021277193
-0.28635609 0.03604386 -0.0020409096
-0.34405142 0.046533361 -0.001194095
-0.3185176 0.047549207 -0.0023400609
-0.31277999 0.066256396 -0.0015999256
-0.35744831 0.078977503 -0.0011310878
-0.34903124 0.084752731 -0.0014619082
-0.33055225 0.094714046 -0.0011053991
-0.35753617 0.10365292 -0.0012476825
-0.19349022 -0.070472702 0.0038420232
-0.18015844 -0.070111424 0.0082246568
-0.16169818 -0.071916625 0.0037222304
-0.15062976 -0.07224188 0.0031147618
-0.14613585 -0.072221935 0.0041550109
-0.13129692 -0.071351834 0.0089359246
-0.096089691 -0.072187878 0.0074199205
-0.067064449 -0.076817602 0.0083005531
-0.029186308 -0.075701907 0.0068474663
-0.003251275 -0.072154835 0.0052372101
0.037096232 -0.076814011 0.0052387831
0.047200821 -0.076811776 0.005090368
0.10865969 -0.075692564 0.0043924563
0.13700451 -0.071273878 0.0070220176
0.15346907 -0.071570329 0.0058831992
0.21654649 -0.071983121 0.0028330104
0.24890575 -0.070832908 0.0087160924
0.2706117 -0.0716061 0.0057457509
-0.20146641 -0.069981016 0.0050209425
0.289363 -0.066060558 0.0039318292
0.29217422 -0.067853883 0.009695828
0.31151813 -0.067116261 0.009276011
-0.2709831 -0.058886439 0.0050817868
-0.32287812 -0.046736971 0.0081278821
-0.36024073 -0.033946481 0.0073816571
-0.245802 -0.03166002 0.0024398603
-0.37057173 -0.022929568 0.0013138111
-0.33247632 -0.013297227 0.00040792581
-0.29359668 -0.010468938 0.0041297306
-0.28466535 -0.010714993 0.0079237968
0.3236866 -0.010838754 0.0043017282
0.33558208 -0.015422117 0.0050131008
-0.28478402 -0.0061033824 0.0040824045
-0.27924123 -0.0082972646 0.0043286304
-0.24941674 -0.0069038342 0.0010012701
-0.23005471 -0.002829398 0.0032515165
-0.2242974 -0.005657088 0.0012126927
-0.2003241 -0.0047411867 0.0021480345
-0.15077807 -0.0040017059 0.00038000522
-0.1421887 -0.0048294961 0.0067550731
-0.12729231 -0.0043606097 0.0051250635
-0.10573077 -0.0041646399 0.0034703582
-0.033949986 -0.0039628856 0.0011572681
0.0016025454 -0.0054845302 0.0095828567
0.013709977 -0.0038820012 0.00020437513
0.029847357 -0.0054760482 0.0095502567
0.033165485 -0.0049894983 0.0076803095
0.065080874 -0.004704752 0.0065859728
0.082319595 -0.0051454273 0.0082795881
0.11500429 -0.0041854279 0.0037086885
0.14019817 -0.0048635183 0.0071961279
0.22512959 -0.0050819069 0.0080356942
0.23104273 -0.0052078264 0.0085195731
0.25831643 -0.004131014 0.0030848423
0.28803998 -0.0046386872 0.006332506
-0.33736867 0.0075475909 0.00078469521
-0.31306034 0.0061612744 0.0029347404
-0.30752358 0.0081616174 0.0031413606
-0.28388128 0.0041514058 0.0037919274
-0.32127234 0.01856323 0.0026046
-0.26765817 0.017850026 0.0027219378
-0.25292861 0.017722003 0.00013225683
-0.27195957 0.027584029 0.0024933307
-0.26415336 0.02526838 0.0021998542
-0.33936051 0.039730132 0.0019116629
-0.30014038 0.033567563 0.0028231402
-0.27448192 0.039041761 0.00097036292
-0.33189529 0.040879287 0.0022913045
-0.30059662 0.057345662 0.0020637671
-0.29589754 0.054924726 0.0020704435
-0.28900012 0.05095084 0.0020639549
-0.34961718 0.06440679 0.0012972036
-0.3295325 0.064822823 0.0024349629
-0.30517226 0.061040912 0.0020288776
-0.36684588 0.075607277 0.00036869309
-0.32708898 0.079206578 0.0018742775
-0.37161028 0.085708663 0.00016325277
-0.34817064 0.085225083 0.0019032608
-0.32130343 0.083504215 0.0016772215
-0.32821703 0.091966145 0.0015472111
-0.35610104 0.10374177 0.0016969903
-0.093025677 -0.072617643 0.017177358
-0.055582263 -0.076316513 0.018654976
0.065822728 -0.076082714 0.019522682
0.28944731 -0.07784804 0.011438806
0.31465071 -0.074817598 0.015903179
-0.10786648 -0.069103792 0.01482291
0.1338916 -0.065834671 0.018238202
0.2685672 -0.069031015 0.013082096
0.33074063 -0.063356124 0.014976963
-0.27048093 -0.052864473 0.017491655
-0.25563613 -0.059040107 0.012996919
-0.013726176 -0.054580405 0.013748889
0.36442918 -0.053933788 0.01525707
-0.32084447 -0.044795725 0.012365419
-0.31706935 -0.043271888 0.015366409
-0.2929531 -0.049779333 0.015529511
-0.28465536 -0.047031246 0.019948129
-0.33118609 -0.031490266 0.017473076
-0.32533228 -0.033549484 0.018330267
-0.31688768 -0.031398546 0.019762851
-0.245802 -0.034746356 0.01799511
0.35273945 -0.038868278 0.017455874
0.36276183 -0.039435882 0.011436244
-0.32998323 -0.021826467 0.019819096
0.33698592 -0.021453179 0.015388483
-0.30575821 -0.015855843 0.0135586
-0.27119312 -0.012916672 0.014734227
-0.24676871 -0.01133492 0.014402619
-0.037158668 -0.011083268 0.019137409
-0.0140352 -0.011659771 0.019751627
0.028888578 -0.011718867 0.019814614
0.22686101 -0.011049328 0.019101301
0.32208014 -0.014810503 0.015407525
0.33181658 -0.018878924 0.015947573
-0.23071228 -0.0083210599 0.010792757
-0.081207603 -0.0071948655 0.013372678
-0.034923598 -0.008050126 0.014864007
-0.027923128 -0.0099180369 0.017689455
0.0063321013 -0.0072080819 0.013105316
0.071275607 -0.0089554889 0.016262246
0.11427834 -0.0084921569 0.015575163
0.12311096 -0.0077642314 0.014495863
0.1594895 -0.006025129 0.010832584
0.17638174 -0.0085907001 0.015721276
0.20580728 -0.0058527794 0.010458281
0.2418803 -0.0061997268 0.01121164
0.25839543 -0.0074674138 0.013964525
-0.074896134 -0.074519262 0.02408297
-0.063236274 -0.074532792 0.024649858
-0.048214994 -0.07088656 0.028597213
-0.036444899 -0.073009923 0.026912317
-0.024261229 -0.073425502 0.024335386
0.0062812134 -0.075430185 0.021671576
0.09250766 -0.072210282 0.026759816
-0.074124657 -0.062022869 0.029682167
-0.064545892 -0.068871342 0.029648272
-0.049867302 -0.065145373 0.029686414
-0.0015362574 -0.06470786 0.027258299
0.0097001996 -0.061244082 0.029696334
0.10000674 -0.061575063 0.029684607
0.11044126 -0.067339547 0.026463594
0.12442742 -0.063720882 0.024325579
0.19096139 -0.062949881 0.021338427
0.30912381 -0.062948734 0.02060714
-0.21337402 -0.057354383 0.022576731
-0.2063677 -0.055224948 0.024938166
-0.19491556 -0.053382225 0.026562655
-0.11539477 -0.057508819 0.026455071
-0.10954335 -0.053123266 0.028641395
-0.02649999 -0.057409331 0.029692229
-0.016747342 -0.055609509 0.027901635
-0.0074941786 -0.058733463 0.0277803
0.037416853 -0.058140386 0.029704222
0.043377306 -0.051348276 0.029721489
0.12829797 -0.055445239 0.027749253
0.13129841 -0.057835996 0.026284408
0.1548017 -0.057428524 0.025675045
0.16747434 -0.051825024 0.028468471
0.18098204 -0.059438806 0.024272313
0.21352404 -0.059690483 0.024076574
0.26107997 -0.055076845 0.026975922
0.29055887 -0.052059099 0.028321492
-0.28220618 -0.04205358 0.022776168
-0.18259451 -0.048757643 0.028846199
-0.11115995 -0.047457684 0.029887531
-0.10220999 -0.047523804 0.029772952
-0.074769989 -0.046840418 0.02972492
-0.053892408 -0.043504708 0.029741431
-0.016703913 -0.046382204 0.029734174
0.084730253 -0.044070277 0.02974
0.22990242 -0.047515623 0.029920898
0.318508 -0.031461556 0.027801681
-0.30435669 -0.027930582 0.024305129
-0.29298186 -0.023472682 0.022715103
-0.28661188 -0.024773911 0.022446036
-0.27324831 -0.025941141 0.024178468
-0.25905907 -0.020263482 0.022149049
-0.22409917 -0.029449288 0.02740553
-0.18577893 -0.021539193 0.026537493
-0.15335828 -0.022337779 0.027626418
-0.1246857 -0.02468738 0.028604902
-0.11541314 -0.022348203 0.027695192
-0.096308969 -0.022917468 0.027787298
-0.036986634 -0.021545222 0.027251273
0.0079760179 -0.0266147 0.02934623
0.0272376 -0.027639017 0.029709835
0.044185232 -0.023186976 0.028046848
0.062220313 -0.022774588 0.027890557
0.14133276 -0.022962077 0.027961724
0.1838412 -0.021274975 0.0271018
0.25934646 -0.024924409 0.028705452
0.27577719 -0.026474928 0.029293241
0.32399744 -0.025183342 0.024395963
0.3314113 -0.029717706 0.02388794
-0.18286702 -0.018711694 0.025062408
-0.16152427 -0.019719439 0.026098728
-0.15130812 -0.013093238 0.021163736
-0.126838 -0.01830595 0.025440168
-0.058538329 -0.012756092 0.020919701
0.062964827 -0.01453289 0.022394363
0.094127923 -0.016381735 0.02404581
0.17791085 -0.01605773 0.023795798
0.18585235 -0.015801441 0.023598032
0.20589513 -0.013036954 0.021219084
0.21414952 -0.016810393 0.024476057
0.22921078 -0.013409153 0.021615658
0.29419422 -0.016990663 0.023838319
-0.024071584 -0.050586943 0.033886865
-0.018524546 -0.059773799 0.030288499
0.001548136 -0.054425694 0.030509809
0.061353575 -0.053713832 0.039593469
-0.17251563 -0.043338973 0.030428551
-0.11470345 -0.044356421 0.030601451
-0.099375784 -0.04462669 0.0303711
0.11877026 -0.047021545 0.030107422
0.26468372 -0.04104761 0.03098117
0.27994171 -0.046534795 0.030134056
-0.17015928 -0.035601817 0.030713107
-0.15547916 -0.030489456 0.03029976
-0.10333087 -0.034336045 0.030926099
-0.099946216 -0.038143884 0.031174727
-0.054829225 -0.03864184 0.031038905
0.012343809 -0.032786496 0.030813271
0.022382155 -0.03161367 0.03056851
0.069793776 -0.035385422 0.031002307
0.072642118 -0.032957472 0.030795554
0.11938839 -0.039113604 0.031067222
0.1289212 -0.035053298 0.030692764
0.1373637 -0.033388238 0.030857038
0.24437666 -0.037423037 0.031150512
0.27706689 -0.031779431 0.030604318
0.28004849 -0.036299188 0.03106877
0.30074909 -0.037409324 0.030304654
-0.33838868 -0.02010034 0.033743039
-0.32773486 -0.02374218 0.03432373
-0.30770093 -0.026588259 0.031298146
-0.29720664 -0.024915632 0.032227054
-0.037247691 -0.051138595 0.04216148
0.011010464 -0.053763367 0.041452091
-0.056583196 -0.048995361 0.041441634
-0.046569023 -0.047712058 0.041319162
-0.030193705 -0.046383258 0.041271415
-0.023700461 -0.045627028 0.047987923
-0.013990121 -0.046974801 0.048840862
-0.002028106 -0.0453295 0.042596951
0.013972586 -0.044154309 0.049513347
-0.33458126 -0.021456147 0.046303838
-0.34958994 -0.01895066 0.045275204
-0.027082307 -0.10034648 0.05791381
-0.0066756913 -0.096899241 0.051946785
-0.01814254 -0.087291583 0.059028935
-0.018618392 -0.07916043 0.050358217
-0.0026083887 -0.051154733 0.051583294
0.0043014111 -0.05199286 0.057209421
-0.053278238 -0.048939869 0.053689655
-0.011713356 -0.044743571 0.05450096
0.055498 -0.046251725 0.053414334
-0.35006979 -0.018407308 0.050162595
-0.34318477 -0.018015083 0.055706687
-0.33962983 -0.017523825 0.051745739
-0.023089174 -0.10352123 0.065334685
-0.02419024 -0.092097245 0.061337877
-0.018513039 -0.095278829 0.062348362
-0.023732521 -0.082294345 0.068465799
-0.019911181 -0.074243076 0.067978643
-0.008690537 -0.073223703 0.066159487
-0.021586716 -0.06078928 0.064385206
-0.0042921873 -0.06233855 0.064594291
-0.033171881 -0.05041343 0.067402184
-0.016675226 -0.051423654 0.066308759
0.030382797 -0.052153625 0.063569732
0.050290294 -0.050547484 0.061154947
-0.01691352 -0.044139281 0.064345501
0.03391768 -0.042790286 0.061059818
-0.31764153 -0.020827472 0.068302475
-0.35108733 -0.016304843 0.062936977
-0.014096713 -0.10289937 0.070593715
-0.016076025 -0.097913727 0.070000418
-0.0051228851 -0.050318666 0.071953312
-0.05739437 -0.046854578 0.075557314
-0.047388133 -0.047951251 0.071676411
0.0066161156 -0.042303503 0.076447412
0.044072125 -0.044140086 0.072047912
-0.31091699 -0.017554844 0.070516303
0.03566115 -0.073818535 0.088854887
0.083639488 -0.075491056 0.084828004
0.09448918 -0.073810093 0.084646836
0.032478314 -0.062699549 0.088941202
0.046114739 -0.064472973 0.087837815
0.082743466 -0.067811519 0.089076653
0.095792122 -0.06554608 0.08699432
0.086095713 -0.059938136 0.085987769
-0.039435193 -0.04750064 0.083015479
-0.024569802 -0.045028999 0.087703407
-0.0027549183 -0.049050488 0.085129291
0.015314059 -0.041537605 0.083126403
0.021475377 -0.049496934 0.087521031
0.041156318 -0.045791619 0.08133702
-0.34180233 -0.013307806 0.085895799
0.064455092 -0.085273325 0.092357934
0.081484608 -0.086254939 0.093704768
0.097672015 -0.086872287 0.096460618
0.01954476 -0.070436753 0.09622255
0.024680438 -0.074844472 0.09941709
0.047899596 -0.075869143 0.093708329
0.076770209 -0.078193389 0.092766583
0.087820329 -0.075228155 0.095692828
0.098505229 -0.075491428 0.090262324
0.013780461 -0.06388671 0.098863021
0.026375551 -0.067890242 0.094198793
-0.070211157 -0.052045032 0.099065617
-0.061032061 -0.053443626 0.093899414
-0.030253705 -0.058740079 0.096145324
-0.016463362 -0.057518624 0.097930618
-0.0063578505 -0.052682638 0.09420985
0.036013257 -0.05725899 0.094319977
0.045114063 -0.05434034 0.095826328
0.059241906 -0.05498708 0.094474904
0.10375256 -0.056150734 0.097255446
-0.032424517 -0.042093486 0.096370049
-0.022588462 -0.041970044 0.094305769
-0.0078670168 -0.048054688 0.093551345
0.013039411 -0.048676804 0.093974702
0.026549947 -0.045070112 0.095952481
0.077386171 -0.049930986 0.098057494
-0.33789366 -0.013933463 0.095542431
0.037417542 -0.083230443 0.10139829
0.050460938 -0.080937438 0.10212316
0.064744174 -0.081677929 0.10529144
0.089045152 -0.083305702 0.10442522
0.015038538 -0.072249509 0.10357213
0.030487761 -0.079801403 0.10841462
0.060402345 -0.079817161 0.10960804
0.014606047 -0.060432866 0.10480201
0.087992698 -0.069841638 0.10020795
-0.0040340582 -0.054993447 0.10038993
0.014842985 -0.05086267 0.103228
0.027576555 -0.053040501 0.10491557
0.034163222 -0.056653291 0.10485424
0.056980804 -0.054630071 0.10602616
0.076479621 -0.051337488 0.10776132
0.083695009 -0.052788831 0.10594858
-0.05153029 -0.044269267 0.10235804
-0.044671342 -0.044912022 0.10981417
-0.03880975 -0.041798063 0.10474708
-0.017422721 -0.041046716 0.10380277
-0.0011222683 -0.048101209 0.10198002
0.0054044779 -0.042441063 0.10226721
0.040539876 -0.044225883 0.104557
0.066689521 -0.044174306 0.10705978
0.07846494 -0.049739145 0.10468237
0.081297904 -0.04703711 0.10205641
-0.3545492 -0.010570541 0.10426728
-0.34356397 -0.013134752 0.10778221
-0.33922738 -0.014117368 0.10353309
0.059630319 -0.08602836 0.11140589
0.084349059 -0.080901146 0.110459
0.092882127 -0.086705014 0.11050335
0.1029361 -0.085562222 0.1103238
0.02866468 -0.073517233 0.11469812
0.044480246 -0.07430914 0.11416862
0.078492522 -0.07284911 0.11618101
0.038549576 -0.061088465 0.11465576
0.053184301 -0.061580069 0.11510864
0.099145427 -0.062730886 0.11531392
0.048509814 -0.057574429 0.11525154
0.066296712 -0.058034867 0.11878695
0.087992705 -0.058327295 0.11076143
-0.35415274 -0.010854572 0.11706264
-0.34066913 -0.012954136 0.11141314
0.0915289 -0.071698278 0.12178998
0.0639088 -0.066819206 0.12201443
-0.024688119 -0.044598479 0.12350351
-0.013272697 -0.044906162 0.12549055
-0.018619655 -0.039611112 0.12179286
-0.047114003 -0.042404845 0.13615035
0.0082671139 -0.044655904 0.130807
0.0087744519 -0.038745131 0.13210306
-0.082592547 -0.043544725 0.14834732
-0.06384141 -0.040470548 0.14477861
-0.049065515 -0.041481789 0.14701505
-0.027706623 -0.04288489 0.14333062
-0.063210785 -0.039908551 0.14896919
-0.07742478 -0.044785462 0.15039545
-0.057408236 -0.040348746 0.15593013
-0.036819756 -0.044577476 0.15210265
-0.023312408 -0.041980222 0.15654305
-0.019542836 -0.042022761 0.15735234
-0.0022822553 -0.041917767 0.15433097
-0.059702806 -0.039178751 0.15189122
-0.040945239 -0.03748012 0.15321521
-0.036051422 -0.040478583 0.16870844
-0.01651391 -0.0415808 0.16256183
-0.0099866372 -0.040988922 0.16632681
-0.0068261595 -0.0375176 0.1670084
-0.064469591 -0.037994623 0.17485254
-0.054280985 -0.035469696 0.17894918
-0.065129004 -0.035324018 0.18928912
-0.055612355 -0.034647774 0.18889832
-0.043908693 -0.038574569 0.18848443
-0.024570903 -0.035818264 0.18084103
-0.014944799 -0.036973827 0.18484916
-0.061047073 -0.037239272 0.19471383
-0.046089564 -0.033547647 0.19814585
-0.027998913 -0.033783276 0.1904016
-0.086088784 -0.039391324 0.20249492
-0.074099079 -0.037485231 0.20691398
-0.056186147 -0.03487356 0.20584682
-0.027453844 -0.035789128 0.20713307
-0.032819867 -0.036527831 0.21001962
-0.080099173 -0.03263133 0.22689025
-0.079523832 -0.033763465 0.22826
-0.066524252 -0.034861915 0.22235623
-0.06359686 -0.030946922 0.23354498
-0.077555582 -0.032276019 0.24838334
-0.05133526 -0.032002158 0.24436453
-0.056508124 -0.029703192 0.24880299
-0.090670511 -0.031292431 0.25070935
-0.075342163 -0.029479589 0.25421643
-0.064480364 -0.029114159 0.25419167
-0.092204653 -0.028887652 0.2699995
-0.069692045 -0.030328263 0.27450699
-0.093629487 -0.027537894 0.28926212
-0.085458182 -0.026976055 0.28536424
-0.074255414 -0.027767934 0.28213441
-0.079987444 -0.02867662 0.29011932
-0.10143884 -0.026180865 0.30502352
-0.086389393 -0.027499516 0.30106062
