# .PCD v0.7 - Point Cloud Data file format
VERSION 0.7
FIELDS x y z
SIZE 4 4 4
TYPE F F F
COUNT 1 1 1
WIDTH 810
HEIGHT 1
VIEWPOINT 0 0 0 1 0 0 0
POINTS 810
DATA ascii
-0.099852502 -0.021519246 -0.32442194
-0.08392451 -0.021090049 -0.32219893
-0.085997798 -0.018283542 -0.32668379
-0.079635322 -0.022656459 -0.31415069
-0.068868108 -0.025892667 -0.31245673
-0.062057659 -0.02535465 -0.30323917
-0.085438505 -0.027897421 -0.29240853
-0.07500615 -0.023990192 -0.29994121
-0.063955501 -0.023323376 -0.29559582
-0.056409907 -0.025774505 -0.29471597
-0.057944078 -0.023864286 -0.28795803
-0.079688057 -0.02971 -0.27018377
-0.056652054 -0.030416777 -0.26210278
-0.071483836 -0.028730096 -0.26631263
-0.038768582 -0.031220803 -0.25243106
-0.060494035 -0.028624235 -0.25399345
-0.037588157 -0.026012097 -0.25905457
-0.040866509 -0.027435981 -0.24286866
-0.037655234 -0.026486911 -0.24830759
0.019254616 -0.055563394 -0.23104011
-0.051564164 -0.032866061 -0.23264
-0.03126977 -0.033017352 -0.23082012
-0.029633611 -0.032868244 -0.23261376
-0.036087088 -0.027958054 -0.2348119
-0.0049576727 -0.060811386 -0.2221753
0.036908604 -0.064756781 -0.22028811
-0.010573192 -0.053089425 -0.22563145
-0.00347052 -0.052049518 -0.22346531
0.0027661044 -0.051370695 -0.22878885
0.041283041 -0.05926476 -0.22687563
-0.015267635 -0.045583375 -0.22027889
0.01586847 -0.046233118 -0.22788358
0.044180736 -0.049795359 -0.22671959
-0.050356261 -0.033462588 -0.22546431
-0.029147718 -0.02797617 -0.22929133
-0.020983797 -0.061089464 -0.21064539
-0.0087038008 -0.060795546 -0.21495155
0.00065218355 -0.066827849 -0.21758203
0.042505048 -0.066129088 -0.21080519
-0.013992265 -0.050979748 -0.21853375
-0.002127954 -0.057186041 -0.21646477
-0.047532871 -0.040487833 -0.21571663
-0.050492968 -0.033967845 -0.21956044
-0.048401989 -0.035079665 -0.21478656
-0.031025801 -0.03044684 -0.21155044
-0.022402223 -0.03597644 -0.21892858
-0.010981215 -0.036367614 -0.21248174
-0.0080452301 -0.034688853 -0.21966009
0.015820179 -0.034778483 -0.21697716
0.02613822 -0.039111748 -0.21808469
0.0057005305 -0.065467715 -0.20950392
0.025536828 -0.067036666 -0.20899177
0.035178158 -0.066147611 -0.20867985
-0.019744465 -0.057984203 -0.20823899
-0.0055688466 -0.054117024 -0.20933828
0.020501729 -0.056731701 -0.20213629
0.03549277 -0.058297746 -0.20568362
0.040461116 -0.044775836 -0.20715241
-0.033439916 -0.031532206 -0.20639057
-0.026604248 -0.031277135 -0.20120321
-0.023452459 -0.029994993 -0.20976526
-0.044054247 -0.041910645 -0.19999512
-0.0407461 -0.034446776 -0.19616564
-0.034577407 -0.034155391 -0.19070339
-0.014894705 -0.033563148 -0.1956034
0.0040072808 -0.03651356 -0.19008458
-0.038272582 -0.036886465 -0.18947056
-0.025678804 -0.033985496 -0.18175712
-0.013349533 -0.036944974 -0.18886551
-0.021353349 -0.038451016 -0.17329162
-0.0048445808 -0.034837879 -0.17815781
0.014376336 -0.031820998 -0.17464338
-0.033865627 -0.038818195 -0.16127126
-0.015501761 -0.039283842 -0.16467938
0.014835627 -0.032000948 -0.16091031
-0.032260425 -0.043793686 -0.15586108
-0.02192021 -0.040484902 -0.15225929
-0.016218055 -0.04188858 -0.15944251
-0.0047692079 -0.040164538 -0.15750155
-0.012945907 -0.03995293 -0.15776038
0.007250913 -0.03724112 -0.15353413
-0.026370253 -0.041577876 -0.14106925
-0.0087573044 -0.041576713 -0.14096892
0.029122185 -0.040689077 -0.14737591
0.035363235 -0.038292401 -0.14821094
-0.010243475 -0.041987117 -0.13672498
-0.008189436 -0.042085867 -0.1357038
0.0012724278 -0.042518508 -0.13122991
0.018583996 -0.035281766 -0.13157475
0.028357254 -0.034299817 -0.13025898
-0.014373567 -0.043019384 -0.1261045
-0.0040643215 -0.044669915 -0.12307026
0.0054513346 -0.043723136 -0.12156814
0.0076435693 -0.037461318 -0.12412098
0.03016421 -0.03477956 -0.12480283
0.068201855 -0.062270924 -0.11106134
0.095674455 -0.065837152 -0.11459359
0.1010644 -0.064614974 -0.11503187
0.076978639 -0.05927014 -0.11123125
-0.022086941 -0.043638896 -0.11985249
-0.015929351 -0.045025449 -0.11567955
0.028072076 -0.044401355 -0.11175944
0.038283203 -0.044207256 -0.11376663
0.042760577 -0.03458203 -0.11545552
0.059840389 -0.071520358 -0.10821295
0.061119087 -0.070131712 -0.10834525
0.089537993 -0.07935226 -0.10181919
0.108402 -0.076448306 -0.10257679
0.069138244 -0.061771221 -0.10642862
0.05886393 -0.056890123 -0.10421347
0.066571772 -0.053426974 -0.10222533
0.080885872 -0.053795714 -0.10604014
-0.017884158 -0.044606786 -0.10706167
-0.0076903896 -0.044758942 -0.10815421
0.0076661678 -0.040276416 -0.10485098
0.01171978 -0.045565728 -0.10106149
0.020084785 -0.047353268 -0.10087484
0.042405784 -0.044295635 -0.10116736
0.05292175 -0.041066222 -0.10041192
0.012511211 -0.039689619 -0.10397815
0.024676837 -0.03743194 -0.10897937
0.067795098 -0.073316678 -0.095792808
0.096630067 -0.078125849 -0.093082063
0.10382953 -0.079669327 -0.09642493
0.074311867 -0.058204997 -0.090933904
0.089995474 -0.054199003 -0.092032768
0.099862851 -0.050825909 -0.098041087
0.10860567 -0.05356016 -0.091996245
0.11346018 -0.054498944 -0.091885105
0.12014688 -0.055264004 -0.098640449
-0.006388952 -0.045104109 -0.093383998
0.0019982057 -0.045648485 -0.09985432
0.033116225 -0.046161652 -0.097449601
0.040188387 -0.0462396 -0.096977174
0.053591032 -0.047276735 -0.097749449
0.070876956 -0.040968277 -0.090824321
0.094753191 -0.048081934 -0.098289788
0.10496809 -0.073565245 -0.088378221
0.072433904 -0.065331101 -0.088927716
0.094171152 -0.0670866 -0.086104915
0.1149475 -0.069081187 -0.087148458
-0.0065864981 -0.053576272 -0.082890555
0.0083287219 -0.047103882 -0.089557
0.026259676 -0.040925018 -0.08124835
0.052487772 -0.048245698 -0.086492531
0.065740384 -0.046205685 -0.088705458
0.027641438 -0.03958353 -0.089730144
0.034088518 -0.039642252 -0.083198003
0.049098767 -0.037177339 -0.089047991
-0.33572215 -0.0012982651 -0.084161013
0.015080848 -0.073826097 -0.072999045
0.025623217 -0.065703899 -0.071771562
0.02551901 -0.058442995 -0.070538402
0.063419893 -0.050543495 -0.074579321
-0.002530254 -0.049343836 -0.073985495
0.0050946218 -0.047398135 -0.076996148
0.071093678 -0.048936799 -0.07456442
0.058265444 -0.037409849 -0.077936947
0.065467879 -0.037037127 -0.073536068
-0.3372663 -0.0039090868 -0.076050565
-0.31526938 -0.0069631152 -0.072731316
-0.0019171888 -0.090843901 -0.064795963
0.0078740129 -0.092881083 -0.065699324
0.030497961 -0.0928175 -0.067121685
-0.00047181256 -0.084976107 -0.066591039
0.0087432992 -0.083316021 -0.064642586
0.027003277 -0.082464397 -0.064918496
0.027294697 -0.075758837 -0.064126365
0.023608759 -0.051072199 -0.067531027
0.033268012 -0.052221701 -0.066856131
0.052355349 -0.052586403 -0.065054946
-0.0078781322 -0.049021415 -0.066881806
0.043226868 -0.041367605 -0.060647406
0.084377915 -0.043037549 -0.069328278
-0.34038439 -0.007411479 -0.062483482
-0.32465786 -0.0085757077 -0.060242981
0.0033609394 -0.084846973 -0.054876219
0.018346613 -0.085722089 -0.054523323
0.029878549 -0.081068285 -0.052329302
0.030870033 -0.083021745 -0.053100143
0.01678914 -0.052272521 -0.057377554
0.022880914 -0.052389327 -0.059060015
0.084250659 -0.051752761 -0.054556392
0.046203148 -0.041960645 -0.052774213
0.070572898 -0.038622923 -0.055088952
-0.34089562 -0.0072802287 -0.057502419
-0.33428156 -0.0083796466 -0.057915002
-0.32355422 -0.0067540091 -0.054049417
0.0040177321 -0.050159756 -0.045912765
0.041997992 -0.056964424 -0.0434331
0.078712888 -0.056255098 -0.046936262
0.083235383 -0.055512328 -0.047880825
0.02528793 -0.046504661 -0.043955773
0.072604723 -0.039028998 -0.049611825
0.082610421 -0.038095415 -0.04753324
-0.335906 -0.0079413569 -0.048612975
-0.006529646 -0.066252112 -0.034267839
0.0093877167 -0.063207775 -0.035023637
-0.062144428 -0.056129731 -0.030741323
-0.056773432 -0.053510562 -0.031822361
-0.0046507879 -0.054829571 -0.037234191
0.00082748663 -0.056358092 -0.035839815
0.033121753 -0.053427149 -0.035939448
0.067119516 -0.058192194 -0.032305434
0.083876818 -0.058191057 -0.036521483
0.098524489 -0.057167146 -0.030332729
-0.12531164 -0.042733487 -0.031426318
-0.099174418 -0.046149295 -0.030005669
-0.044179749 -0.045423262 -0.032976206
-0.032593388 -0.045291565 -0.034652885
-0.027079031 -0.040144015 -0.03246526
0.0076466608 -0.040805683 -0.035548881
0.012941606 -0.047879383 -0.036081001
0.046068199 -0.042178728 -0.0338073
0.056959048 -0.044378102 -0.030711172
0.066798806 -0.043803595 -0.030949175
0.088722214 -0.041110829 -0.032064732
0.11482033 -0.044895276 -0.030496918
0.12119433 -0.047627509 -0.033060886
0.1962931 -0.041041575 -0.032093421
0.21345344 -0.044535302 -0.030646045
0.24320976 -0.045066047 -0.03043882
-0.10749479 -0.035968427 -0.03304486
-0.096874304 -0.037671193 -0.032821886
-0.026742782 -0.039381601 -0.032891471
-0.0089868791 -0.032471005 -0.033497103
0.018567579 -0.031059504 -0.033565015
0.03010603 -0.03446959 -0.033236023
0.066807792 -0.03056071 -0.033499993
0.10236055 -0.034583464 -0.033221062
0.13808195 -0.038234107 -0.032744084
0.14225084 -0.034623008 -0.03321597
0.22092657 -0.037759181 -0.032806225
0.25739133 -0.032044578 -0.033574119
0.27955845 -0.031911112 -0.031329256
-0.18246329 -0.0251351 -0.030753525
-0.15458934 -0.02343137 -0.031600121
-0.090213954 -0.028419062 -0.033220805
-0.036071833 -0.027019136 -0.033038314
-0.016745837 -0.022836037 -0.032460816
0.011268768 -0.029025961 -0.033299927
0.11902072 -0.024913322 -0.032467648
0.13405268 -0.025233898 -0.032805588
0.1428979 -0.021921104 -0.03208185
0.17840494 -0.021107357 -0.03174457
0.27352348 -0.027662076 -0.031617045
-0.31357959 -0.011908989 -0.033890631
-0.29146823 -0.010319567 -0.038530048
-0.28542 -0.010649808 -0.030554377
0.010258269 -0.01855557 -0.030687593
0.13644783 -0.018241707 -0.030557511
-0.010651294 -0.068582818 -0.027425323
0.0380105 -0.068712384 -0.023980623
0.069918692 -0.067647308 -0.023251846
0.099790677 -0.065458253 -0.020844135
0.12282653 -0.063336298 -0.020125447
-0.12417161 -0.054381803 -0.024171874
-0.10986718 -0.057719868 -0.020390375
-0.081642404 -0.053501315 -0.02460812
-0.064667985 -0.050763063 -0.027086772
-0.016134419 -0.051143657 -0.026791975
0.017913919 -0.05612053 -0.02227883
0.082472585 -0.052462325 -0.025776608
0.10527483 -0.057609048 -0.020345649
0.11449629 -0.057982415 -0.027464604
0.12531053 -0.055868462 -0.028126743
0.13241306 -0.057427183 -0.026511107
0.15842034 -0.051565826 -0.02646691
0.16944185 -0.054112941 -0.024505639
0.1734608 -0.057050366 -0.021071222
0.1993694 -0.057111032 -0.020992436
0.22744949 -0.056852948 -0.021330755
0.24362266 -0.050949588 -0.026954306
0.2597377 -0.055344157 -0.023302836
-0.19234419 -0.04717613 -0.021642644
-0.14484681 -0.048020314 -0.027884683
-0.062596343 -0.047166914 -0.029555826
-0.048568752 -0.047569092 -0.02938921
0.163836 -0.048690952 -0.02868055
0.18052134 -0.047396164 -0.029460853
0.22239611 -0.046565384 -0.029805116
0.29939955 -0.048397817 -0.022747539
0.30549031 -0.041858971 -0.024795808
-0.21215016 -0.038395055 -0.025550822
-0.19781214 -0.03538654 -0.028527675
-0.23273893 -0.02894086 -0.025170818
-0.20125717 -0.026911024 -0.029777106
-0.32599652 -0.012150373 -0.02308337
-0.21782225 -0.014773645 -0.025724921
-0.18539967 -0.015366112 -0.028138064
-0.17877053 -0.013815035 -0.02766088
-0.1580146 -0.017214719 -0.029470421
-0.13497707 -0.012927636 -0.027733311
-0.0043142461 -0.014548602 -0.028872108
0.0020979913 -0.010798288 -0.02598444
0.04892128 -0.013860587 -0.028342372
0.058699325 -0.016247764 -0.029731467
0.10473365 -0.01115489 -0.026259065
0.18675376 -0.012532829 -0.027319841
0.20821473 -0.015224376 -0.0293075
0.2159497 -0.013745841 -0.028159661
0.29765862 -0.014234548 -0.022812085
0.30158904 -0.015618523 -0.022883322
-0.28624344 -0.0083853435 -0.027681721
-0.19157082 -0.00595919 -0.020835832
-0.11298544 -0.0070749824 -0.022707144
-0.084123977 -0.0053573987 -0.020390511
-0.07344237 -0.0085372757 -0.024261836
-0.069926426 -0.0059178565 -0.021065004
-0.045381688 -0.0060722111 -0.021242552
0.011771219 -0.0068363138 -0.022234786
0.07094682 -0.0068418803 -0.022241874
0.28176349 -0.0081901206 -0.020666722
-0.00083343918 -0.073612168 -0.015597126
-0.11891494 -0.061541915 -0.013373542
-0.10199706 -0.061351575 -0.013773109
-0.053866845 -0.06176994 -0.013067842
-0.042438652 -0.06365452 -0.013100314
-0.023585981 -0.060556829 -0.015995897
-0.0080830157 -0.061517093 -0.013678133
0.007045785 -0.062012821 -0.012481607
0.019004531 -0.060290322 -0.016639164
0.050775595 -0.068642616 -0.012792607
0.06981954 -0.062776141 -0.010639201
0.095665611 -0.062377993 -0.011600205
0.12932242 -0.064071 -0.017127438
0.24338472 -0.06225697 -0.01190529
-0.20427272 -0.050077558 -0.014095524
-0.18963638 -0.050285306 -0.01804027
-0.064389564 -0.058103904 -0.019705238
-0.026272256 -0.058971178 -0.018576615
0.040716007 -0.059278965 -0.018176876
0.13922994 -0.05918514 -0.01829873
0.18675695 -0.058645781 -0.018999208
0.19488941 -0.058278792 -0.019475834
0.3132917 -0.051684178 -0.016226333
-0.22226006 -0.044728763 -0.015269783
-0.20621708 -0.049857721 -0.013796151
-0.18378302 -0.049935471 -0.019993197
-0.28488457 -0.023413211 -0.013364114
-0.26108599 -0.020650903 -0.018556826
-0.30581653 -0.015498349 -0.01222843
-0.29521358 -0.010058205 -0.013053391
-0.28338841 -0.013303991 -0.014459392
0.32768032 -0.019258486 -0.0140255
-0.3072066 -0.0084807277 -0.014286524
-0.27449608 -0.0062277648 -0.013973558
-0.25413221 -0.002346176 -0.012550805
-0.23673663 -0.0076312497 -0.019896308
-0.22164688 -0.0039730836 -0.017093876
-0.20488144 -0.000702383 -0.011677919
-0.13452667 -0.0019036203 -0.015332333
-0.1291143 -0.0040247208 -0.018868405
-0.0073656538 -0.0025924556 -0.016378811
0.056224257 -0.0010637261 -0.01268894
0.087786525 -0.00053254655 -0.011406841
0.20848663 -0.0020610788 -0.015096234
0.2299621 -0.00058655825 -0.011530519
0.23343025 -0.0030561741 -0.017323578
0.27062184 -0.0021687688 -0.013251849
0.28435659 -0.0027418747 -0.011143109
0.0033459405 -0.081915841 -0.0021359543
0.28781348 -0.087130256 -0.0023551299
0.29610592 -0.089664847 -0.0023551299
-0.10383098 -0.063131124 -0.0089601483
-0.032568045 -0.066985004 -0.0070582079
-0.02384861 -0.067814909 -0.0096181519
-0.010456696 -0.063773051 -0.0062208832
0.0060935258 -0.069336116 -0.0059487452
0.05910024 -0.063567311 -0.0077959113
0.091396667 -0.065646932 -0.0050175581
0.14517066 -0.063419335 -0.0089287609
0.16677175 -0.064127728 -0.0034012336
0.18112405 -0.064419538 -0.0012717337
0.23303807 -0.063950486 -0.0048625772
0.27453333 -0.06278345 -0.0050075813
-0.18935689 -0.055743258 -0.0016989303
-0.17784484 -0.057818316 -0.0006601233
-0.068334319 -0.058456987 -0.0090458617
-0.0014024649 -0.057433188 -0.00050250825
-0.24145146 -0.044279501 -0.0033470858
-0.23867276 -0.04478246 -0.0048878826
0.3465811 -0.046251092 -0.0045714797
-0.29703659 -0.022347372 -0.0097687757
-0.3171314 -0.018463673 -0.001728063
-0.28872454 -0.00088646892 -0.0089467913
0.30083287 -0.0044362443 -0.0094665289
-0.2521137 0.0084956959 -0.0039830883
-0.23508807 0.00082901109 -0.0058964817
-0.21913345 0.00051390473 -0.0081091225
-0.20227973 0.00020331843 -0.0093633216
-0.18927193 0.00012434527 -0.0098027727
-0.16719194 0.0014866597 -0.0017461719
-0.063748613 0.00040034551 -0.0091456762
-0.046405304 0.00082605466 -0.00588687
-0.038456418 0.0012510481 -0.0026335439
-0.021427989 0.00059957709 -0.0076205572
0.0031590108 0.00075219455 -0.0064522694
0.01370911 0.0006307821 -0.0073816823
0.046030968 0.0012564015 -0.002592562
0.06639792 0.0009460118 -0.0049685976
0.078851633 0.00064137875 -0.007300565
0.10016242 0.00087892689 -0.0054821335
0.12452006 0.00010274971 -0.0098734368
0.14764205 0.00097938208 -0.0047131479
0.22971077 0.00067716523 -0.0070266197
0.23705587 0.00074283197 -0.0065109669
0.25053656 0.0005046727 -0.0082480814
-0.32374603 0.025963884 -0.00072950264
-0.28409123 0.029896431 -0.0035517775
-0.26259419 0.027190601 -0.0029866488
-0.31602231 0.032945395 -0.0015748736
-0.30077237 0.032838073 -0.0029862886
-0.28899473 0.03396171 -0.003527808
-0.32335621 0.048287649 -0.0016700118
-0.28053927 0.047314554 -0.00228966
-0.32057509 0.053174201 -0.0021657525
-0.30206075 0.051423397 -0.003324524
-0.28584576 0.050531782 -0.0028872762
-0.33474475 0.061739299 -0.0011743088
-0.35028014 0.083679959 -0.00064961752
-0.32244805 0.082596444 -0.0025394908
-0.3182421 0.084603339 -0.0022446213
-0.3496778 0.093564287 -0.0010429866
0.0023582659 -0.093178563 0.0026967938
0.2880519 -0.091132693 0.0031216654
-0.0037340338 -0.08956527 0.0019914799
-0.15794495 -0.060774419 0.0017511272
-0.112215 -0.063564382 0.004685929
-0.10422478 -0.064173073 0.00039758036
-0.091585085 -0.064116351 0.0012826766
-0.085931152 -0.063859664 0.0034466665
-0.041282479 -0.065604739 0.0093261721
0.025696037 -0.067602359 0.0031283628
0.046822853 -0.06884928 0.0084633538
0.055760752 -0.064016804 0.0031132314
0.12363823 -0.064299576 0.0009425868
0.14658242 -0.063824713 0.0045878007
0.18737814 -0.064179584 0.0018636497
0.22380796 -0.063890189 0.0040851729
0.23827949 -0.063709699 0.0054675136
0.2779327 -0.061183665 0.0080828611
0.28008911 -0.062390245 0.0023347801
-0.21739027 -0.050068438 0.0042805038
-0.20040216 -0.053497523 0.0033853815
-0.17978007 -0.056576848 0.0065994919
0.33640844 -0.050700188 0.0048815939
-0.28505707 -0.030181684 0.0016948228
-0.26315323 -0.038583118 0.0005391317
0.35233948 -0.032588296 0.0071296096
-0.29340613 -0.026969291 1.1985714e-05
-0.28496581 -0.02697579 0.0093799438
0.34761822 -0.025306823 0.0025768885
-0.31496584 -0.016744308 0.0046003577
-0.33881742 -0.0048089726 0.0047280164
-0.28159398 -0.0012571967 0.0083593205
-0.23466848 -0.00084059552 0.0097678388
-0.29844084 0.0012365631 0.0019703072
-0.21787228 0.0003486076 0.0073667578
-0.16722837 0.00083255279 0.005505587
-0.15996081 0.00015397776 0.0085312072
-0.13086259 0.001164768 0.0023170693
-0.12985094 0.00046142039 0.0083940588
-0.10779937 0.00079631509 0.0054077436
-0.074630372 0.0005223396 0.0070221866
-0.062780008 0.0011372018 0.0022610764
0.0072015319 0.00055380637 0.0067392145
0.027776534 0.00078484009 0.0049658013
0.038359329 0.00052644574 0.0069492348
0.042855307 0.0012490507 0.0014025243
0.077673607 0.00079021591 0.0049245371
0.1600845 0.00093025324 0.0038496116
0.19385928 0.0011197574 0.0023949796
0.20343275 0.00063209375 0.006138281
-0.29303476 0.018952023 0.0018012329
-0.2574535 0.011217346 0.0027108779
-0.26395047 0.026756717 0.0020286629
-0.26346019 0.032147951 0.00072753918
-0.32059562 0.04222222 0.0005326572
-0.28063831 0.0402136 0.0020763448
-0.32267618 0.067825213 0.0013731634
-0.31288311 0.075677797 0.0013765626
-0.11743477 -0.060531382 0.015245062
-0.056335956 -0.062248528 0.016130699
0.0091505852 -0.060966093 0.013779279
0.012293953 -0.069145158 0.01140552
0.040883999 -0.060260572 0.015482099
0.099570557 -0.064280108 0.013756473
0.16910887 -0.061505761 0.012476777
0.19006959 -0.062088951 0.011069229
0.20885764 -0.060922958 0.013883397
0.23458244 -0.062040992 0.011177417
0.25380498 -0.061601445 0.012226624
-0.19407217 -0.052770793 0.010521126
-0.15245792 -0.055351809 0.018488767
-0.13322417 -0.057177734 0.019949444
0.033247922 -0.058414046 0.018071301
0.076341473 -0.059610337 0.016517624
0.10743662 -0.057434373 0.019343656
0.13506696 -0.057613458 0.019111067
0.14470299 -0.058224313 0.01831772
0.23762828 -0.059147544 0.017109394
0.25310382 -0.057886835 0.018737394
0.28367943 -0.059125371 0.012282901
0.32306218 -0.051484816 0.011478201
0.32563403 -0.045766305 0.015555187
0.34545779 -0.040154047 0.010712862
-0.22942719 -0.037844174 0.01982666
-0.28204143 -0.025145557 0.012226295
-0.27855778 -0.024254322 0.013403093
-0.26523355 -0.022012226 0.015900468
0.32251099 -0.026425112 0.018400118
-0.31831175 -0.010741642 0.011005828
-0.28794321 -0.018701736 0.012584124
-0.26221827 -0.01411102 0.016849555
-0.24944541 -0.011769394 0.019614996
-0.31832057 -0.009938363 0.01787411
-0.23592742 -0.0033506358 0.014134943
-0.14865172 -0.00054339808 0.010315001
-0.12748699 -0.00071568211 0.01119616
-0.093449987 -0.0024077937 0.014963579
-0.02363761 -0.0027175758 0.015004978
0.059140757 -0.0013963887 0.012263183
0.10725559 -0.0016722179 0.012928911
0.12805845 -0.00052817806 0.010167713
0.22180834 -0.0016308101 0.012828971
0.2347998 -0.0041890391 0.017557696
0.28806829 -0.0055845948 0.014677937
0.29545671 -0.0065465989 0.01427858
0.30228716 -0.0081128785 0.014293586
-0.042780295 -0.064937159 0.022834083
-0.030851716 -0.066565119 0.02566471
-0.0056078099 -0.068917893 0.022767324
0.0065195155 -0.068848476 0.023845272
0.022613518 -0.068710104 0.027102554
0.067488775 -0.066784702 0.023839809
0.070106246 -0.063977562 0.027389666
0.088658303 -0.065465026 0.021875536
0.11577797 -0.061504077 0.022610886
-0.10168432 -0.05562485 0.021836076
-0.033965133 -0.053573657 0.023692064
-0.017321672 -0.054938503 0.022585161
0.0052753557 -0.056608394 0.020416386
0.066148333 -0.055835523 0.021420155
0.092207238 -0.055815436 0.021446245
0.10718533 -0.05631439 0.02889289
0.13901728 -0.057244256 0.024983991
0.17735082 -0.051470585 0.025311394
0.21206224 -0.055868376 0.021377487
0.25123936 -0.050989158 0.025664482
-0.19062194 -0.0446156 0.022885239
-0.18748927 -0.043936364 0.023806684
-0.17435232 -0.047003165 0.023452157
-0.15896918 -0.042012066 0.028260216
-0.057687223 -0.047235426 0.029618403
-0.044141587 -0.044397116 0.029474393
-0.0026937947 -0.048249565 0.027791521
0.027405027 -0.044531785 0.029418599
0.099810205 -0.049017996 0.027199844
0.1064494 -0.046862025 0.028359497
0.11723787 -0.045251988 0.029120237
0.12634669 -0.046689112 0.028447146
0.13782699 -0.04352095 0.029837368
0.18492015 -0.04519489 0.029143889
0.30071115 -0.045211982 0.023232061
0.27722275 -0.037933316 0.029599862
0.29235834 -0.035067562 0.027574155
-0.18250063 -0.025124781 0.029769171
-0.16176614 -0.021930829 0.029988602
0.29704326 -0.025612354 0.026508104
0.30447194 -0.028232366 0.025372835
0.32007501 -0.029798413 0.02090974
-0.29035923 -0.013116424 0.023683542
-0.22932488 -0.017998924 0.024645999
-0.16206431 -0.015872132 0.027209654
-0.15811041 -0.010928717 0.024447199
-0.14452578 -0.014335457 0.02732569
-0.10862784 -0.01242143 0.026090901
-0.082867153 -0.018332304 0.029381411
-0.025440913 -0.015880765 0.02835054
0.045725245 -0.017111219 0.028860312
0.08858338 -0.018890548 0.029597472
0.12603584 -0.017345548 0.028957397
0.15962259 -0.010614069 0.024613755
0.20027485 -0.01032587 0.024391778
0.26671305 -0.016099835 0.027623024
-0.29062614 -0.0071500856 0.022602316
-0.18353683 -0.0095660416 0.023191093
-0.14075449 -0.0078692464 0.02247224
-0.1010778 -0.0093530566 0.023725871
0.075252771 -0.0079477681 0.022445792
0.10380273 -0.0084400866 0.022939887
0.22582774 -0.0074924389 0.021855991
0.24366364 -0.0067373882 0.020864263
0.25468239 -0.0068234829 0.020966208
0.26832253 -0.0072685755 0.020316467
-0.039028294 -0.063122883 0.032281294
0.012572492 -0.063110091 0.034127995
0.024688438 -0.063099399 0.033378497
0.038422395 -0.064017639 0.03217566
-0.026357127 -0.058126591 0.034395456
-0.0169154 -0.052756712 0.034700207
0.005798284 -0.054989897 0.037600808
0.018312091 -0.055894971 0.034786701
0.058198359 -0.058749646 0.032075964
-0.093705073 -0.040519897 0.031092547
-0.06225102 -0.041705623 0.030589417
0.027464706 -0.040014904 0.031282559
0.0421765 -0.04193709 0.034501944
0.054022819 -0.041666627 0.03370687
0.06042546 -0.044608664 0.03434293
0.07511197 -0.048667479 0.034160063
0.085850552 -0.044306025 0.033817872
0.093628317 -0.046709776 0.033876475
0.10570954 -0.045107652 0.039986975
0.11436584 -0.045519188 0.035766736
0.13574152 -0.040997621 0.030882727
0.20359407 -0.040694285 0.031008393
0.21484435 -0.041427061 0.030704819
-0.13683534 -0.038171317 0.031378247
-0.1231888 -0.038414203 0.031497456
-0.073666938 -0.03428027 0.032031946
-0.067896061 -0.032782339 0.032227688
-0.024548553 -0.0366184 0.031726435
-0.0092768539 -0.038444232 0.032356046
0.017667327 -0.033552721 0.031978175
0.031420369 -0.03735958 0.031629529
0.049320221 -0.03474116 0.03197173
0.059182592 -0.036822043 0.032327015
0.094331421 -0.035026569 0.031934593
0.10370712 -0.036017898 0.031804971
0.12552892 -0.035675786 0.031849716
0.16480654 -0.034860995 0.031956188
0.21169583 -0.03041018 0.032251492
0.24144071 -0.039083179 0.031392731
-0.14956862 -0.021349832 0.03011548
-0.087706126 -0.029418858 0.032124422
-0.014750601 -0.023058541 0.031293347
-0.0025402885 -0.026145482 0.031695738
0.022773448 -0.022825034 0.03122735
0.042466067 -0.029353283 0.032113731
0.052948922 -0.025016615 0.03154863
0.12495142 -0.026831452 0.031785071
0.16497096 -0.024093803 0.031428274
0.19000405 -0.021066181 0.030498795
0.24535957 -0.026525043 0.03173022
0.26719651 -0.025323955 0.030732043
-0.33617365 -0.0098279854 0.037859082
-0.29205388 -0.0071849409 0.036135316
0.021126617 -0.055189118 0.040907439
0.044989683 -0.042651627 0.048310947
0.060350701 -0.040683176 0.048648011
0.098850578 -0.04538925 0.046203379
0.069780588 -0.039952081 0.044900283
-0.31431884 -0.010363219 0.045552701
-0.29433763 -0.010970236 0.040135786
0.0052102478 -0.091479152 0.052329302
0.0043335357 -0.085735656 0.055160135
0.023680206 -0.085394099 0.056304865
0.020629331 -0.078804418 0.052870113
-0.010344181 -0.051919147 0.056658559
-0.0062682414 -0.051025987 0.052720685
0.026776448 -0.053251605 0.05532933
0.056476913 -0.05383157 0.058905415
0.087569125 -0.050041825 0.056345187
0.0013591594 -0.048837189 0.056549713
0.023699585 -0.045481544 0.053091779
0.056590863 -0.040957715 0.050282825
0.07506562 -0.038160924 0.054336034
0.080455847 -0.038275301 0.05869149
-0.32962668 -0.0088603748 0.056688011
-0.31074455 -0.006329271 0.057550754
0.00069469778 -0.092566416 0.068054304
0.004507021 -0.083957806 0.064910129
0.019301822 -0.088200904 0.068054304
0.025497114 -0.086339138 0.063819975
0.026188729 -0.052376166 0.069504626
0.035688363 -0.051892519 0.068481855
0.0093694832 -0.046782494 0.061148398
0.036441684 -0.04155647 0.065493152
0.055617988 -0.039678283 0.061894953
0.062401719 -0.037994321 0.068793535
0.0153164 -0.074204363 0.073334679
0.030757997 -0.05098968 0.072940715
0.047535565 -0.050765235 0.074049212
0.010226046 -0.049182814 0.078472897
0.028947171 -0.041032687 0.07700856
0.032802664 -0.040897444 0.074246205
0.073184438 -0.047523852 0.077625185
-0.31904846 -0.0055563664 0.079612926
0.10295018 -0.072195865 0.087483652
-0.0033224486 -0.047450081 0.08689639
0.0045986827 -0.047659677 0.085318334
0.016034786 -0.047484469 0.082539044
0.054508165 -0.047992766 0.087741695
0.053530406 -0.037587889 0.081385344
-0.34636879 -0.0045916084 0.088990249
0.1138841 -0.078733683 0.096988522
0.072150297 -0.069895342 0.097244933
0.10889651 -0.06137196 0.096817747
0.11358238 -0.067928419 0.099485509
0.025407167 -0.050325148 0.099955574
0.098030075 -0.050770819 0.098826103
0.11519095 -0.055366307 0.097425312
0.058956124 -0.046194293 0.096804224
0.064672962 -0.043299064 0.09716329
0.023169465 -0.038868278 0.099268273
0.052281059 -0.036233038 0.093701757
-0.34352553 0.00032412162 0.098677486
0.074835397 -0.07228294 0.1007113
0.11803837 -0.076254033 0.10003268
0.057577632 -0.063287884 0.10486034
0.072459735 -0.061470196 0.10678486
0.108402 -0.06884747 0.10383723
0.053602472 -0.057247967 0.10163496
0.067452252 -0.058544081 0.10761184
0.074479267 -0.055294417 0.10482922
0.087195039 -0.051261872 0.10258943
0.11833275 -0.056773424 0.10666065
-0.0049096067 -0.044745881 0.10824955
0.018581118 -0.044696353 0.10870892
0.020236392 -0.044659715 0.10908777
0.041159607 -0.04445269 0.1007824
0.056179017 -0.04500271 0.10497811
0.079871222 -0.047089849 0.10236506
0.047102932 -0.035002459 0.10863611
0.05450204 -0.035598919 0.10167393
-0.35443085 -0.00098941522 0.10079132
0.10197306 -0.076228395 0.11036026
0.11351559 -0.06689091 0.11164965
0.10943328 -0.054663397 0.11013337
-0.017846519 -0.044528477 0.11066149
-0.0035999452 -0.043295704 0.11773001
0.0012651018 -0.039338198 0.11771928
0.037859336 -0.034697793 0.11831674
-0.0032182429 -0.042984918 0.12640674
0.048187971 -0.036161698 0.12126398
-0.0021661362 -0.042551279 0.13089101
0.016032716 -0.035538614 0.1319142
-0.02365642 -0.040772956 0.1492942
-0.014809607 -0.041238364 0.1444678
-0.0023672208 -0.041368868 0.14311826
-0.038942657 -0.045806535 0.15918189
-0.016038964 -0.041509401 0.15304838
-0.001596258 -0.04040312 0.15310502
-0.027384236 -0.038282908 0.15694891
-0.0352435 -0.038887419 0.16243854
-0.01118984 -0.038980421 0.16781709
-0.0027860969 -0.036613971 0.1636025
0.0091994694 -0.039063275 0.1669603
-0.029212527 -0.035100888 0.1785025
-0.034215305 -0.037284754 0.18535185
-0.021721398 -0.033328179 0.18198586
-0.0095381588 -0.032154083 0.18106261
0.011325084 -0.032769829 0.18424958
-0.032182269 -0.041456103 0.19881709
-0.050189927 -0.036230329 0.19610162
-0.045452841 -0.036423542 0.19426374
-0.036274523 -0.036574136 0.19661705
0.0017460829 -0.030717779 0.19639406
-0.018360766 -0.057142045 0.207831
-0.00078538799 -0.056398414 0.20992157
0.0038552461 -0.059402388 0.2048341
0.028410353 -0.05178979 0.20221266
0.033684652 -0.05885575 0.20299824
-0.013085334 -0.047648259 0.20910956
-0.00065129792 -0.046067838 0.20798512
0.0015869411 -0.034524597 0.20174932
-0.0085284561 -0.065385371 0.2147274
0.0040789619 -0.067146569 0.21456158
0.021698605 -0.068705805 0.21343872
0.030522609 -0.069017507 0.2171514
-0.018250745 -0.055443883 0.21755111
-0.00078538805 -0.058323707 0.21955372
-0.037159421 -0.044505544 0.21824044
-0.025382716 -0.040731117 0.21471393
-0.0039775674 -0.045628909 0.215418
0.034440588 -0.042518627 0.21544805
-0.060223669 -0.03679169 0.21796277
-0.056839518 -0.035853405 0.21828958
-0.024459226 -0.036009572 0.21900281
-0.012060776 -0.031196874 0.21582194
-0.0054440307 -0.036906492 0.2123464
0.02572133 -0.060724657 0.2296824
0.033469312 -0.065089554 0.22353576
0.043964878 -0.065608695 0.22239281
-0.013433462 -0.056681301 0.22638306
0.040355254 -0.054983158 0.22806895
0.015483432 -0.047088198 0.22849727
0.031739913 -0.044344224 0.22716793
-0.056983523 -0.033305917 0.22186868
0.036676768 -0.056706976 0.23040958
-0.056705892 -0.031388201 0.23771097
-0.035277702 -0.027842123 0.23515341
-0.02126655 -0.028231267 0.23566906
-0.062727094 -0.031581875 0.24808767
-0.067364439 -0.030927453 0.25595981
-0.051578358 -0.026308227 0.2605722
-0.03837252 -0.025961045 0.26062739
-0.080705635 -0.028012509 0.28159758
-0.071471363 -0.027161496 0.28313065
-0.063400835 -0.028878152 0.28061116
-0.058370255 -0.028193798 0.2879509
-0.06809812 -0.028066996 0.29036865
-0.056149084 -0.024181051 0.29077882
-0.074889258 -0.026889179 0.30453676
-0.084243059 -0.026285853 0.31179425
-0.098006621 -0.025277901 0.32143345
-0.10403504 -0.016610309 0.3276768
-0.094599411 -0.011750526 0.32950884
