# .PCD v0.7 - Point Cloud Data file format
VERSION 0.7
FIELDS x y z
SIZE 4 4 4
TYPE F F F
COUNT 1 1 1
WIDTH 850
HEIGHT 1
VIEWPOINT 0 0 0 1 0 0 0
POINTS 850
DATA ascii
-0.068042912 -0.039603911 -0.32268032
-0.062469214 -0.040404025 -0.31491488
-0.081317432 -0.039619952 -0.31517372
-0.066341013 -0.036780771 -0.31420869
-0.059717193 -0.041059889 -0.30553567
-0.066492714 -0.037458159 -0.30668867
-0.076354191 -0.041640401 -0.29723394
-0.059641201 -0.042427439 -0.28597897
-0.066671722 -0.039675221 -0.28178346
-0.051901486 -0.038637269 -0.27990553
-0.037625436 -0.039656166 -0.27645162
-0.07675989 -0.043158535 -0.26747066
-0.064458139 -0.041019965 -0.26519686
-0.052227203 -0.043712366 -0.26760375
-0.072577834 -0.042919062 -0.25967312
-0.060576782 -0.041380651 -0.25702101
-0.050119609 -0.04492164 -0.25031048
-0.029625937 -0.044671074 -0.25389376
-0.02669017 -0.039895788 -0.25315318
-0.069904067 -0.043625988 -0.2495009
-0.051846828 -0.04530143 -0.24487932
-0.041808881 -0.041001238 -0.24387091
-0.032735758 -0.045131408 -0.2473107
-0.029535785 -0.045034125 -0.24870187
-0.014538027 -0.045120567 -0.24566869
-0.059823949 -0.04697438 -0.22095516
-0.04471986 -0.043132115 -0.22245842
-0.022344843 -0.041619383 -0.22261305
-0.0053865388 -0.043924931 -0.22407022
-0.066513799 -0.047585733 -0.21221249
-0.05107924 -0.044411827 -0.21714444
-0.04095199 -0.043553911 -0.21421564
-0.0014322251 -0.048052367 -0.20553936
0.0071082301 -0.045328435 -0.2025661
-0.055555157 -0.048573069 -0.19809304
-0.055160295 -0.04860355 -0.18495134
0.0089935027 -0.043400139 -0.1894049
0.016534526 -0.045538314 -0.18240917
-0.055067781 -0.050303143 -0.17335206
-0.011469774 -0.050139379 -0.17569402
-0.0013226308 -0.050105341 -0.17618072
-0.0049581053 -0.044712834 -0.17237055
-0.0050024893 -0.050663274 -0.168202
-0.050482914 -0.049729567 -0.16778715
-0.032379739 -0.047503516 -0.16523317
-0.010734376 -0.045572888 -0.16555543
-0.032809343 -0.051639549 -0.15424068
-0.024678214 -0.051578723 -0.15511058
-0.03534621 -0.04860666 -0.1587303
-0.012909211 -0.046757065 -0.15227616
-0.0061011128 -0.045905061 -0.15829541
-0.046858769 -0.051735081 -0.14553741
-0.025420833 -0.052124545 -0.14730506
-0.003038228 -0.052546009 -0.14127783
0.013719853 -0.052115791 -0.14743018
-0.024016406 -0.048947752 -0.14144732
-0.015819827 -0.047535364 -0.14602751
0.041785963 -0.049880717 -0.14592858
-0.041279685 -0.052118707 -0.13364936
-0.03350785 -0.052736666 -0.12287128
-0.010832009 -0.053572439 -0.12659931
-0.00084798876 -0.053892426 -0.12202336
0.00023469701 -0.05371172 -0.12460753
0.053657874 -0.0535684 -0.1266571
-0.004047011 -0.04856341 -0.12380822
0.0070284344 -0.04758399 -0.128537
-0.027759831 -0.05441149 -0.11460048
-0.011803779 -0.050591193 -0.11101901
0.0030102804 -0.05438602 -0.11496464
0.03793738 -0.054116029 -0.11882571
0.040225871 -0.046968207 -0.11382308
0.055373356 -0.049865585 -0.11540167
-0.36101562 0.091372311 -0.11320022
-0.35559928 0.091216348 -0.11478894
-0.028998587 -0.055428103 -0.10006227
0.0063527934 -0.055256058 -0.10252266
0.010834989 -0.055260375 -0.10246091
0.032285418 -0.055276863 -0.10222518
0.057597738 -0.054924544 -0.10726351
0.058376338 -0.049506374 -0.10700585
-0.33786803 0.091519743 -0.10392748
-0.02767987 -0.054626137 -0.093500808
-0.015127358 -0.052532591 -0.097209096
0.00084247533 -0.053442799 -0.092716493
0.054857172 -0.05590573 -0.093232006
0.046923961 -0.047812413 -0.098794997
0.058002815 -0.047710687 -0.092592329
-0.35356581 0.091689616 -0.09784589
-0.013072345 -0.053665139 -0.084172472
0.0035520191 -0.051598541 -0.082553796
0.028107174 -0.056556929 -0.083919495
0.075583108 -0.056693353 -0.081968516
0.035623565 -0.049301825 -0.087867297
0.05283647 -0.048598155 -0.085024565
-0.066747695 -0.032292675 -0.085002854
-0.042536877 -0.033561815 -0.083632514
-0.10162649 -0.023600804 -0.082652792
-0.067811534 -0.029231913 -0.085419908
-0.35852829 0.0922665 -0.083004281
0.0077507235 -0.088855095 -0.070465825
-0.017864276 -0.055711426 -0.071223587
-0.0026546307 -0.053520467 -0.072519258
0.027017612 -0.057430126 -0.071432315
0.046999808 -0.057134628 -0.075658113
0.0674031 -0.057240061 -0.074150287
-0.092513599 -0.04683258 -0.070805788
-0.072876222 -0.044650994 -0.075758383
0.063016124 -0.048751347 -0.076253831
-0.14645939 -0.023929752 -0.072039522
-0.048729785 -0.025566351 -0.078603461
-0.12480509 -0.014823057 -0.074733697
-0.11250439 -0.018103328 -0.071851574
-0.088881493 -0.010509934 -0.076277047
-0.040569473 -0.01411346 -0.071123891
-0.089713059 -0.0087057594 -0.07385464
-0.0054708011 -0.10037525 -0.061778996
-0.0024677496 -0.093663052 -0.066349745
0.0062866639 -0.093031853 -0.062037885
0.0044087199 -0.087302104 -0.064998209
-0.0035865968 -0.07312718 -0.06781444
-0.0012871569 -0.066003799 -0.069766045
-0.013155825 -0.057766259 -0.066625454
-0.0068511958 -0.056624096 -0.063502789
0.0096090063 -0.053194884 -0.060237296
0.049798481 -0.050722044 -0.060625717
-0.14141983 -0.042745702 -0.060317375
-0.11190096 -0.04313736 -0.064013474
-0.1022865 -0.047545437 -0.068327397
-0.051087286 -0.047005482 -0.068323575
-0.047305942 -0.043338418 -0.061970498
-0.16985358 -0.032583252 -0.063957214
-0.14501646 -0.038505383 -0.069796145
-0.16020313 -0.024770875 -0.068235315
-0.14698315 -0.013512976 -0.068101361
-0.11212478 -0.013257919 -0.066921577
-0.038452763 -0.010975091 -0.064495921
-0.14286926 -0.0088738576 -0.060365185
-0.062802598 -0.0055165403 -0.063845582
-0.00011841257 -0.10086941 -0.056842286
0.0035119916 -0.092294894 -0.058759075
-0.009442905 -0.083128788 -0.059135057
0.0024194259 -0.086297758 -0.056196053
-0.0062669069 -0.05604811 -0.05364766
0.049803659 -0.058598168 -0.054728657
0.062719822 -0.050730705 -0.051806215
0.077143133 -0.058919076 -0.050139528
-0.13373601 -0.045352884 -0.053093381
-0.11147979 -0.043093678 -0.058539636
-0.095073417 -0.048161648 -0.056859471
-0.070931114 -0.046096392 -0.052789681
-0.06646008 -0.047241557 -0.055906899
-0.056298018 -0.04593683 -0.055846874
-0.047009088 -0.04153901 -0.051437903
-0.18084407 -0.032560199 -0.050221961
-0.16932666 -0.036614284 -0.057971939
-0.11085498 -0.036721274 -0.050424546
-0.17910442 -0.021189086 -0.057308339
-0.15601343 -0.014518788 -0.056966633
-0.045068722 -0.015167937 -0.059102893
-0.13037729 -0.0077872849 -0.056867097
-0.11056218 -0.0061192866 -0.058107503
-0.10109253 -0.0056578051 -0.057388201
-0.099475048 -0.0074249879 -0.051957451
-0.067078367 -0.0094881253 -0.051012829
-0.35206577 0.092989989 -0.051291987
0.028492955 -0.053347629 -0.042295672
0.067689903 -0.051139839 -0.043360759
0.10648467 -0.059190046 -0.044040669
-0.088458553 -0.042516168 -0.046649586
-0.076949969 -0.042278163 -0.040135439
-0.063592248 -0.040440075 -0.047112826
-0.031537436 -0.045686148 -0.040836919
0.0067544165 -0.04731258 -0.040163144
0.088906273 -0.046164889 -0.040638592
0.12824038 -0.043242261 -0.041575775
0.21666309 -0.045946207 -0.040729184
0.27049863 -0.040821761 -0.04038867
-0.12612827 -0.03808729 -0.042955443
-0.11014429 -0.033172105 -0.041186977
-0.041928567 -0.031759489 -0.046650089
0.050822325 -0.038679354 -0.042176239
0.070904329 -0.03142469 -0.042696256
0.09488596 -0.031110164 -0.042654835
0.12247112 -0.03620993 -0.042501342
0.20400093 -0.033384904 -0.042873263
0.21434803 -0.032986257 -0.042657614
0.25418559 -0.032273948 -0.042389799
0.2625927 -0.03130703 -0.041790485
-0.12649746 -0.022487907 -0.040037513
-0.084069654 -0.02574062 -0.040436342
-0.05366192 -0.027090378 -0.041934855
0.048949622 -0.026260305 -0.042016409
0.08070115 -0.023690389 -0.041678146
0.154401 -0.028239287 -0.042277105
0.16975307 -0.025778942 -0.041953225
0.20429921 -0.02381625 -0.041483141
0.21333498 -0.029370414 -0.042426057
0.22599334 -0.023946607 -0.041712057
-0.13622279 -0.013982345 -0.044797692
-0.12800506 -0.016346278 -0.042745683
-0.1146379 -0.011100915 -0.046999525
0.055604935 -0.019989366 -0.040638532
0.13916615 -0.019908737 -0.040605165
-0.32570893 0.093779102 -0.04579778
-0.31842965 0.094550654 -0.042920724
0.04134021 -0.063508786 -0.030292949
0.06789954 -0.060755335 -0.032415226
0.18269619 -0.063502401 -0.030301273
0.27053198 -0.06229879 -0.030390957
-0.045925066 -0.054793946 -0.036360726
-0.026144227 -0.052431412 -0.036155965
-0.0080461819 -0.051801123 -0.038303696
0.0061856741 -0.058282707 -0.035429053
0.010197446 -0.051140357 -0.03857743
0.027693305 -0.054129839 -0.037339155
0.065386623 -0.055603359 -0.03792594
0.073547244 -0.055843905 -0.035127543
0.080085561 -0.056050424 -0.036025435
0.096722901 -0.054821022 -0.037472177
0.10220287 -0.055794004 -0.037902046
0.13854682 -0.0519486 -0.033648308
0.15061541 -0.057097614 -0.035221893
0.20775442 -0.05146151 -0.038444385
0.213111 -0.055923752 -0.036122631
0.23772919 -0.0519486 -0.037404805
0.24689181 -0.059837941 -0.033096291
0.2805832 -0.058023375 -0.032591797
-0.12211254 -0.049002737 -0.030853707
-0.057131711 -0.049940731 -0.038489114
0.07445959 -0.049682841 -0.039181225
0.10189361 -0.048774302 -0.039557602
0.17243928 -0.047972292 -0.03988985
0.19786882 -0.047909692 -0.039915778
0.22504734 -0.049664829 -0.039188683
-0.13074288 -0.034756966 -0.035546295
-0.0492654 -0.030594196 -0.039026558
0.30210161 -0.033172771 -0.031966321
-0.17295015 -0.021345345 -0.03006997
-0.12388653 -0.024173561 -0.037022337
-0.11200798 -0.021126498 -0.037724447
-0.10673714 -0.029487729 -0.039311424
0.28408355 -0.020771097 -0.033883225
-0.16844967 -0.017237382 -0.030139785
-0.094384067 -0.015722852 -0.037342165
-0.058481418 -0.010465434 -0.036080666
0.027740289 -0.015935007 -0.038959131
0.053992901 -0.013791771 -0.038071353
0.086372033 -0.01385418 -0.038097203
0.097255528 -0.015382879 -0.03873032
0.16026351 -0.017195884 -0.039481506
0.20599398 -0.014505743 -0.038367048
0.21347782 -0.014439037 -0.038339421
-0.019682797 -0.0037200167 -0.031127095
0.059062295 -0.0033360273 -0.030832445
0.090569794 -0.0073755779 -0.033932135
0.10512748 -0.0034203948 -0.03086523
0.12258485 -0.0049864142 -0.03209886
0.17693326 -0.0042536436 -0.031536501
0.23723161 -0.0080467379 -0.034446988
0.24046738 -0.0026307176 -0.030273948
-0.35106307 0.093362898 -0.037941415
-0.01542359 -0.070078179 -0.021731639
0.10387857 -0.065991491 -0.027057454
0.1311236 -0.064213119 -0.029375048
0.1722941 -0.069713235 -0.022207238
0.20307252 -0.064787589 -0.028626395
0.23611453 -0.06603422 -0.02700177
0.27206278 -0.065828279 -0.026592672
0.29045835 -0.065219283 -0.026009366
-0.07112854 -0.0519486 -0.029425677
-0.027105521 -0.0519486 -0.022947334
-0.019385163 -0.051948603 -0.027474187
0.0062591503 -0.0519486 -0.021138381
0.021781463 -0.0519486 -0.025060987
0.044648435 -0.0519486 -0.026593573
0.065662898 -0.0519486 -0.027102428
0.077890426 -0.0519486 -0.023086291
0.11218318 -0.0519486 -0.022074077
0.16673063 -0.0519486 -0.027811803
0.22744295 -0.0519486 -0.029345265
0.24550645 -0.0519486 -0.026748292
0.30336231 -0.0519486 -0.02518902
0.32028762 -0.0519486 -0.022616651
0.33532625 -0.041605603 -0.02152466
-0.18218583 -0.036663741 -0.025175141
-0.0492654 -0.022861868 -0.020908173
-0.21060061 -0.018738307 -0.021090578
-0.16352044 -0.010546562 -0.028223511
-0.17995325 -0.0061246781 -0.02310806
-0.14992395 -0.00074947218 -0.022457726
-0.12614758 -4.8898859e-05 -0.024902385
-0.064509176 -0.0024352814 -0.02977119
-0.039836712 -0.0024184505 -0.029997289
0.20348777 -0.0014065084 -0.028678413
0.2187179 -0.0015261883 -0.028834393
0.25836617 -0.0016741597 -0.027334958
-0.13113174 0.00034947434 -0.023764253
-0.12903951 0.0018570027 -0.022104638
-0.030098621 0.0028567109 -0.023122106
-0.0077527985 0.0014533956 -0.024951065
0.024073806 0.004612823 -0.020343695
0.032377429 0.0034326753 -0.022371445
0.059655003 0.0022029981 -0.023974098
0.065057874 0.0035019622 -0.022281144
0.078732491 0.00027419289 -0.026487935
0.099507377 0.00038646132 -0.026341612
0.16942686 0.0043627322 -0.020947421
0.19048361 0.0041913562 -0.021361126
0.24514955 0.004057785 -0.021556726
-0.32390386 0.093696594 -0.02599553
-0.31553307 0.093827724 -0.021300608
-0.077675901 -0.071750373 -0.010857139
-0.014799074 -0.071388818 -0.018843375
0.054176308 -0.07283406 -0.015354121
0.15640138 -0.074269108 -0.011889473
0.18622059 -0.07274013 -0.015580893
0.19441155 -0.070922911 -0.019968219
0.2071134 -0.072936609 -0.015106544
0.25820258 -0.071589924 -0.018257581
0.2905547 -0.074461937 -0.010328996
0.31897303 -0.070748232 -0.014223226
0.3144553 -0.068078712 -0.019509893
-0.17693602 -0.051342972 -0.011144903
-0.15040413 -0.0519486 -0.019112065
-0.1365062 -0.0519486 -0.017769344
-0.1190218 -0.0519486 -0.01421733
-0.067504436 -0.0519486 -0.013382411
-0.034179531 -0.0519486 -0.018105077
-0.0012206864 -0.0519486 -0.011979483
0.0062721493 -0.0519486 -0.010681969
0.058922872 -0.0519486 -0.015821779
0.14795485 -0.0519486 -0.019717133
0.15993768 -0.0519486 -0.010995496
0.19078676 -0.0519486 -0.012889871
0.21806967 -0.0519486 -0.016863765
0.26244178 -0.0519486 -0.0131695
0.27491218 -0.0519486 -0.017991822
0.28831202 -0.0519486 -0.013246662
0.29308963 -0.0519486 -0.011904469
0.33495587 -0.0519486 -0.015783701
-0.0492654 -0.047307368 -0.015763581
-0.24352637 -0.022321537 -0.012438329
0.32494909 -0.027594119 -0.016171647
-0.23707765 -0.0035673487 -0.010719137
-0.0492654 -0.0012561311 -0.014960975
0.28547329 -0.0028926181 -0.013093539
-0.1870001 0.002449811 -0.01158488
-0.14556557 0.0027277763 -0.018561488
-0.092150502 0.0066746585 -0.014987722
-0.080307253 0.0058430927 -0.017100126
-0.074655123 0.0069285701 -0.01452934
-0.060912721 0.0081448723 -0.011714354
-0.048545171 0.0083996402 -0.011202229
-0.0026788092 0.0059266211 -0.017172158
0.051858224 0.0056531541 -0.017832309
0.078580931 0.0085869478 -0.010139339
0.096324429 0.0065677669 -0.015624415
0.12575139 0.0064033531 -0.016021315
0.24504763 0.0072728069 -0.013900562
0.25749421 0.0068625556 -0.012240753
-0.34083652 0.093952551 -0.016831758
-0.29341629 0.094773501 -0.012379363
0.30997637 -0.10000642 -0.0070624636
0.30858991 -0.091945447 -0.0046772785
0.31449988 -0.092123918 -0.0054575563
-0.07574147 -0.072675094 -0.0057122516
-0.050085589 -0.074817009 -0.0089392113
-0.030395173 -0.075691596 -0.0029196383
-0.021363443 -0.075803228 -0.0020717678
-0.0036179554 -0.075850561 -0.0017122752
0.0083244685 -0.075066619 -0.0076666074
0.14117591 -0.075436883 -0.0048543485
0.18494864 -0.075572804 -0.0038219602
0.20624223 -0.07522811 -0.0064400556
0.23751998 -0.075554565 -0.0039605135
0.26607284 -0.075835958 -0.0018232318
0.30085558 -0.075632125 -0.0033712944
-0.14008269 -0.061698485 -0.00033196056
-0.11527674 -0.066856787 -0.001450617
0.33643609 -0.069703981 -0.0088439174
-0.18217792 -0.051940937 -0.0027168286
-0.10229708 -0.0519486 -0.0058476776
-0.095184058 -0.0519486 -0.0030207336
-0.087732002 -0.0519486 -0.0034353267
-0.064203978 -0.0519486 -0.0085020913
-0.021994853 -0.0519486 -0.0077793049
-0.0081984932 -0.0519486 -0.00775126
0.00069950381 -0.0519486 -0.0056914343
0.10693682 -0.0519486 -0.0088140666
0.18080145 -0.0519486 -0.0088308053
0.23755085 -0.0519486 -0.0023932643
0.27357069 -0.0519486 -0.0011057123
0.29618722 -0.0519486 -0.0079616131
0.33117294 -0.0519486 -0.0077266726
0.34458172 -0.051948596 -0.0033938333
0.3619498 -0.0519486 -0.0014913296
-0.24107616 -0.031795189 -0.0089613264
-0.23805228 -0.032039203 -0.0099652922
-0.22976655 -0.038452651 -0.0014992267
0.30348682 -0.011893215 -0.0030778707
0.31676352 -0.019396702 -0.0050650304
-0.27640635 -0.0019091945 -0.0017016794
-0.26816443 -0.0063898466 -0.0061336639
0.29504347 -0.0048565874 -0.0028681813
-0.22738096 0.0040214942 -0.0052607898
-0.21414931 0.0084623192 -0.0055707344
-0.20243466 0.0035432605 -0.0032359282
-0.19277835 0.004487006 -0.0027109436
-0.17394568 0.0096065551 -0.0020229144
-0.16253412 0.0085872766 -0.00021711552
-0.15309815 0.0076300451 -0.0010286892
-0.078970902 0.009353485 -0.0043167369
-0.067157313 0.0094762929 -0.0033841373
-0.045677084 0.0086029861 -0.0049714316
-0.032285731 0.0093991105 -0.0039706267
0.025682203 0.0098323235 -0.00068018568
0.036966145 0.0099096345 -9.297872e-05
0.064834781 0.0090056099 -0.0069594234
0.15758668 0.0090619083 -0.0065318202
0.21399781 0.0094311237 -0.0037274731
-0.26957545 0.011631073 -0.0038017118
-0.25994152 0.01750729 -0.0055068536
-0.19587973 0.017127518 -0.0027592056
-0.18789205 0.017695578 -0.00054421049
-0.30166876 0.02454274 -0.0010125076
-0.2279864 0.028839026 -0.0026830698
-0.27211624 0.039369628 -0.0054074591
-0.24688022 0.036454502 -0.0039483001
-0.31682938 0.048017725 -0.0010245879
-0.30270755 0.04554737 -0.0027540578
-0.2612991 0.048681259 -0.0041919416
-0.235801 0.049344767 -0.00010535124
-0.32402217 0.058445357 -0.0012863403
-0.27796862 0.06788706 -0.0039366512
-0.28150147 0.088718638 -0.0023951074
-0.34993225 0.093185186 -0.00046953006
-0.30723071 0.096174493 -0.0071772253
-0.29284874 0.094843321 -0.0028379483
0.30807668 -0.088477567 0.0035007398
-0.060167626 -0.074342057 0.0050813495
-0.021443194 -0.075925469 0.0013393052
-0.011419168 -0.075248517 0.0064807665
-0.0072758598 -0.075925842 0.0013364869
0.0088902693 -0.075532898 0.0043208697
0.036722299 -0.075794041 0.0023375028
0.04682675 -0.07518854 0.0069362684
0.077013947 -0.075549029 0.0041983733
0.096832588 -0.075222008 0.0066821007
0.15718025 -0.075707898 0.0029917285
0.25497693 -0.075446188 0.0049794698
0.26463953 -0.075399905 0.0053309686
0.28397045 -0.075477853 0.0047390093
-0.12777664 -0.0519486 0.0025548665
-0.058335893 -0.0519486 0.0033388939
0.078433223 -0.0519486 0.0090193637
0.17952536 -0.0519486 0.00096812216
0.22258982 -0.0519486 0.0049859332
0.26995456 -0.0519486 0.0099122226
0.28277066 -0.0519486 0.0051743956
0.31350645 -0.0519486 0.002269851
0.32216755 -0.0519486 0.00044449698
-0.2106581 -0.043803841 0.002676252
-0.0492654 -0.047020555 0.0082454849
0.36155203 -0.042494632 0.0091510806
-0.24798492 -0.030404584 0.0078070927
0.34314278 -0.031080639 0.0082512004
-0.26423082 -0.015265191 0.0074491766
0.31711951 -0.019399103 0.0043910365
-0.27900892 -0.0053776568 0.0036361876
-0.2674185 -0.0013846545 0.00089242496
-0.24479942 -0.0035789567 0.0095146559
0.29414034 -0.0043190839 0.0020371054
-0.27117166 0.0084513994 0.0016551864
-0.22915673 0.0020534662 0.00048129007
-0.19523093 0.0037697046 0.0024380407
-0.18324023 0.0055599222 0.00023970476
-0.092874393 0.0092085078 0.0056138663
-0.015324276 0.0088879326 0.0080488808
0.0016821789 0.0089604305 0.0074982638
0.016752256 0.0090248724 0.0070088143
0.078002907 0.0091386531 0.0061446498
0.09118937 0.0098528452 0.0007203134
0.17792721 0.009784339 0.0012406218
0.18023148 0.0089983717 0.0072100898
0.19240549 0.0097986674 0.0011317937
0.21562722 0.0091434242 0.0061084144
-0.27716464 0.01458537 0.0014655845
-0.26755661 0.014806096 0.0026642352
-0.23660412 0.014704859 0.0032600907
-0.2870459 0.022159491 0.00092699355
-0.27746493 0.020711208 0.0019738129
-0.24960731 0.021575214 0.0039133304
-0.30055884 0.033330914 0.00026283719
-0.25720716 0.038707942 0.0030536798
-0.30691475 0.045748878 0.00058792403
-0.25141007 0.040864538 0.0023390912
-0.27729785 0.051506385 0.0036640507
-0.25060302 0.062956855 0.00016158249
-0.31092542 0.077447042 0.0020995571
-0.30339202 0.072569735 0.0025158627
-0.28110272 0.087735549 0.00078002503
-0.27284843 0.088412695 2.4682959e-06
-0.32564631 0.095395856 0.0063249692
-0.30584154 0.094148278 0.0054106079
-0.29716316 0.095974095 0.002838891
-0.29709378 0.1004848 0.00091548427
-0.043447949 -0.074103281 0.012485392
0.01881817 -0.071174353 0.019557061
0.084185511 -0.073317602 0.014382353
0.11056352 -0.073339619 0.01432918
0.12734912 -0.073673531 0.01352299
0.14112079 -0.073578507 0.013711168
0.18479951 -0.073454015 0.013771934
0.21907806 -0.074750409 0.01026393
0.22690254 -0.074777365 0.010059201
0.29633117 -0.071071431 0.018063143
0.3095865 -0.072181553 0.015793372
-0.11784186 -0.061213218 0.019441284
-0.0492654 -0.060586002 0.017630208
0.30730724 -0.069663569 0.019681318
0.3217065 -0.066256315 0.019613564
0.33422324 -0.062688135 0.018742748
0.34654731 -0.066008627 0.011630076
-0.17188999 -0.052147999 0.01228728
-0.015393173 -0.0519486 0.014986641
0.0131825 -0.0519486 0.010918852
0.042520292 -0.0519486 0.013378291
0.10485044 -0.0519486 0.015422953
0.13669324 -0.0519486 0.016666656
0.16270509 -0.0519486 0.017518491
0.22939539 -0.0519486 0.018753195
0.23484957 -0.0519486 0.018524002
0.25602871 -0.0519486 0.018511686
0.27436393 -0.0519486 0.016986152
0.34248707 -0.0519486 0.01831829
0.35344666 -0.041914195 0.014300582
-0.22071508 -0.033236004 0.015216073
-0.20172659 -0.038156115 0.017859319
0.32826108 -0.031893894 0.019152658
-0.22454275 -0.029797167 0.015982131
0.31129611 -0.021025274 0.015518795
-0.22364637 -0.019045863 0.017920583
-0.23703907 -0.0092152692 0.01398509
-0.20157152 -0.0020112013 0.015834223
-0.19533356 -0.0037468327 0.01867215
-0.16322507 0.0030655887 0.015377478
-0.14557514 0.0059891478 0.012079723
-0.13603714 0.0068735834 0.01193092
-0.083635077 0.0073111556 0.013722064
-0.077497706 0.0081802327 0.011459947
0.02582098 0.00721383 0.014260449
0.046373978 0.0052579357 0.01898225
0.064573713 0.0079414081 0.012503972
0.074460939 0.0081463866 0.011638816
0.096183926 0.0056302743 0.018083373
0.13354896 0.0054163439 0.018599831
0.14218824 0.0051519508 0.019238112
0.17204179 0.0082264915 0.011815741
0.24906218 0.0083225193 0.010589045
-0.31479925 0.094644323 0.014736316
-0.29733256 0.094376639 0.017756445
0.23141609 -0.070815422 0.020423664
-0.10432848 -0.062575057 0.021903658
-0.074840076 -0.066978402 0.022216497
-0.060537294 -0.069582686 0.020577691
-0.05711237 -0.063194267 0.029748065
-0.037485391 -0.06848491 0.024004029
-0.029330315 -0.064564079 0.029113762
0.00080516451 -0.06743364 0.025374077
0.051843412 -0.064211629 0.02957309
0.087166227 -0.064638652 0.029016571
0.11211938 -0.066431247 0.026680414
0.13225183 -0.064869657 0.028715519
0.18554592 -0.064946979 0.028614767
0.19365771 -0.064539403 0.029145926
0.28921685 -0.062577426 0.02836567
0.29313797 -0.063474059 0.027256317
0.30415004 -0.068174079 0.021850023
-0.14550978 -0.05286362 0.021403728
-0.10170106 -0.056828849 0.029447334
-0.09581472 -0.0519486 0.020230072
-0.0492654 -0.050377153 0.025366131
-0.036199987 -0.0519486 0.023877282
-0.023055322 -0.0519486 0.024804106
-0.0074614976 -0.0519486 0.025644256
0.097888924 -0.0519486 0.026354579
0.10556234 -0.0519486 0.020670908
0.11789446 -0.0519486 0.02648811
0.1447978 -0.0519486 0.029608751
0.17646608 -0.0519486 0.023746338
0.31358844 -0.055413075 0.02900089
-0.16764009 -0.043138444 0.024963513
0.33746251 -0.044452168 0.021702275
0.31672823 -0.038162913 0.027957901
0.32532603 -0.037973031 0.02431974
-0.21006067 -0.024198949 0.021266259
-0.20224392 -0.016173966 0.023043677
0.28738999 -0.016001023 0.029661223
-0.1511773 -0.001742125 0.023764685
-0.10659885 -0.0011519892 0.027375631
-0.080784246 -0.0012572797 0.028166851
0.029778278 -0.00026160624 0.02738231
0.13905938 -0.0018943604 0.029510325
0.22587046 -2.3299246e-05 0.027071722
0.28410763 -0.0073454599 0.02264417
-0.13479418 0.0011091647 0.022436364
-0.073530152 0.0032667508 0.022302685
0.0197498 0.0034019838 0.022607457
0.087501213 0.0047897375 0.020112546
0.10551567 0.0014289621 0.025178948
0.13210343 0.00044386199 0.026462857
0.17347132 0.0023607479 0.023964528
0.18927568 0.003106155 0.022993017
0.21841937 0.0037713544 0.022126045
0.22043845 0.0045422008 0.020710135
-0.3414942 0.094103709 0.024753271
-0.32997197 0.093455166 0.022667987
-0.30309016 0.093317203 0.026103055
0.25662589 -0.063511156 0.030260015
-0.076511882 -0.058808327 0.031355865
-0.045719203 -0.057338279 0.034420967
-0.010011515 -0.059130587 0.037915491
0.0017604466 -0.055791184 0.036419936
0.022191174 -0.0519486 0.031461071
0.04628408 -0.055186812 0.038147233
0.053322639 -0.059696056 0.039064232
0.069842964 -0.053891446 0.037512459
0.072620824 -0.051594596 0.036477674
0.12063763 -0.050727755 0.038944274
0.13801074 -0.055463925 0.03667102
0.15378582 -0.0519486 0.03626889
0.1877515 -0.058725137 0.034168832
0.19987744 -0.0519486 0.033026189
0.23414832 -0.0519486 0.03491424
0.24143139 -0.0519486 0.03352486
0.27505609 -0.0519486 0.034202509
-0.1245549 -0.047785915 0.031456683
-0.09161444 -0.04008707 0.039789528
0.04053513 -0.048683506 0.039791003
0.073335797 -0.04876167 0.03975863
0.14383997 -0.049531877 0.039439607
0.27796257 -0.048874706 0.037473693
0.31088939 -0.048011847 0.031403434
-0.16420907 -0.03219486 0.030929606
-0.14155769 -0.039718315 0.032214303
-0.1369777 -0.036114965 0.034549356
-0.12800917 -0.030929204 0.036666617
-0.10749359 -0.030572319 0.039945871
0.27722335 -0.036792949 0.039814159
0.30442375 -0.037770703 0.032583579
-0.11732798 -0.027876066 0.038314838
-0.10467862 -0.027013613 0.03932159
-0.096097328 -0.023450345 0.03953068
-0.086483553 -0.021129023 0.039920066
-0.15845117 -0.013789264 0.030404881
-0.13952646 -0.017868683 0.034342676
-0.11935532 -0.012693523 0.034550291
0.096606031 -0.011767629 0.037428435
0.17774613 -0.012255074 0.037630539
0.26348501 -0.017398892 0.038524933
-0.092772737 -0.0076585514 0.033295307
0.092351891 -0.0042751362 0.031749003
0.12183109 -0.0052534202 0.032499518
0.22422732 -0.0036831673 0.031294819
0.24620488 -0.0049287472 0.032250542
-0.30237889 0.093694746 0.030088734
0.03390494 -0.059195347 0.045571666
0.056781638 -0.055278905 0.045560822
0.065053359 -0.051513728 0.040359091
0.070141904 -0.050896235 0.044272348
0.095082372 -0.059554256 0.040907197
0.10267156 -0.058184419 0.046957858
-0.083566636 -0.041006345 0.040124238
-0.027940109 -0.045306262 0.041189861
0.049014393 -0.04289614 0.041817058
0.083969101 -0.041569501 0.041991744
0.20432554 -0.04062704 0.042115819
-0.13554096 -0.039880466 0.04933729
-0.10625315 -0.034628645 0.047696766
-0.094589807 -0.039679367 0.043548726
-0.044666249 -0.036170021 0.042155772
-0.019059455 -0.032158982 0.042988911
-0.0071629491 -0.030732911 0.042801179
0.006036595 -0.036836538 0.042614847
0.013012668 -0.038303714 0.042421691
0.024975743 -0.035625719 0.042774256
0.092769533 -0.037719347 0.042498626
0.10838183 -0.039561812 0.042256061
0.11848847 -0.033009682 0.043100934
0.13279325 -0.032449335 0.043027148
0.15376425 -0.031254154 0.042869765
0.18278196 -0.030807545 0.042810932
-0.17828804 -0.027053211 0.049818896
-0.0042525688 -0.029726967 0.042668685
0.022741497 -0.023844784 0.041894302
0.049297739 -0.026787851 0.042281769
0.086329713 -0.029940022 0.042696703
0.099774301 -0.026442451 0.042236257
0.10701151 -0.024030538 0.041918673
0.11565783 -0.020700071 0.041128445
0.16636817 -0.025528319 0.042032734
0.18792894 -0.022697218 0.041743111
0.21697907 -0.022127993 0.041668188
-0.13502032 -0.015002457 0.04499305
-0.09084478 -0.015881997 0.043180149
-0.061699934 -0.01349902 0.046626918
-0.038709637 -0.018093077 0.040048547
0.16140178 -0.019833721 0.040769726
-0.33704725 0.092999958 0.045633957
-0.31254411 0.092957713 0.041236322
-0.0029653008 -0.096286163 0.057799459
0.002380725 -0.054942746 0.052275464
0.013750905 -0.058675326 0.052329928
0.036531668 -0.051357619 0.059839737
-0.13876811 -0.043378025 0.056478672
-0.10504256 -0.046320274 0.051885687
-0.078972816 -0.048581228 0.05944027
-0.053179625 -0.045092054 0.05287981
-0.034872048 -0.042878855 0.055481881
-0.051096767 -0.034991868 0.055010252
-0.035269298 -0.035836469 0.053616051
-0.16416343 -0.019946404 0.050742492
-0.14370859 -0.014001125 0.054478593
-0.10610934 -0.0088584851 0.050592136
-0.089722157 -0.0066229021 0.055205826
-0.062438805 -0.0069338069 0.056365784
-0.05413688 -0.0085519329 0.054806855
-0.34144926 0.092227519 0.05323441
-0.31472862 0.092559621 0.054800101
-0.011949548 -0.092353538 0.064878836
0.0092433803 -0.094691284 0.062333722
-0.0043884912 -0.088659436 0.067963675
-0.0038373594 -0.074101731 0.069111742
0.0019519094 -0.075135633 0.068162866
-0.028038453 -0.057375781 0.067054972
-0.017207345 -0.057486441 0.067781046
-0.0013523968 -0.057660617 0.065517381
0.0012911102 -0.053740799 0.06398575
-0.14703372 -0.034129176 0.069340974
-0.095485598 -0.0062385416 0.06541384
-0.060669497 -0.0060575842 0.062362812
-0.058221608 -0.006309526 0.060898393
-0.33368194 0.091852784 0.062564507
-0.31801137 0.091943815 0.060297947
-0.0044365167 -0.093424775 0.077497438
-0.0010494192 -0.076649509 0.073679179
-0.022849964 -0.055403683 0.077829339
0.016828962 -0.051327694 0.072404779
0.032142825 -0.057218 0.071269795
0.049471606 -0.056759834 0.077224188
0.068158858 -0.056886911 0.075572729
0.072842561 -0.057091378 0.072915368
0.082217097 -0.056961849 0.074598774
-0.074749403 -0.042197622 0.077964671
-0.13420945 -0.034726616 0.075683467
-0.10120143 -0.037717789 0.079525627
-0.14469987 -0.027809648 0.075365856
-0.047405325 -0.025195863 0.077135496
-0.043842226 -0.0094864294 0.072638422
-0.34584242 0.091869511 0.079436615
-0.012453011 -0.05585267 0.089013994
0.066788375 -0.055793293 0.089785725
0.072949484 -0.056350037 0.082550056
0.068660557 -0.048627838 0.081358597
-0.046435516 -0.03149087 0.083558992
-0.080170788 -0.023732422 0.083216451
-0.05069888 -0.029809507 0.083933227
-0.045815744 -0.029472407 0.083801292
-0.046086296 -0.016453804 0.080795079
-0.35306701 0.090915903 0.085891426
-0.33774334 0.09104982 0.082557067
-0.32607755 0.09133558 0.080237724
-0.032552354 -0.05548086 0.093846157
-0.020528641 -0.055719018 0.09075097
-0.013000073 -0.051604547 0.099270865
0.043936078 -0.048188414 0.09153194
-0.34804422 0.091044188 0.093580499
-0.023168691 -0.054951549 0.10072524
-0.015764268 -0.05097213 0.10799878
0.024049688 -0.054373793 0.10823387
0.039238594 -0.054675706 0.1043102
-0.35441139 0.090224721 0.10590459
-0.345153 0.090658173 0.10019564
-0.038637519 -0.054029036 0.11271445
-0.024758393 -0.053971998 0.11345571
0.018409152 -0.053826928 0.11534105
-0.0037465561 -0.049139168 0.11106436
0.020377636 -0.047279164 0.11655675
-0.35965836 0.089835241 0.11279815
0.025753319 -0.046398073 0.12330995
0.053696945 -0.049579896 0.12058757
-0.027565025 -0.052385442 0.134075
-0.0031540333 -0.052395046 0.13395023
0.033366531 -0.052010983 0.13894165
0.043742113 -0.052526522 0.13224147
0.016773926 -0.046225566 0.1308554
0.029807938 -0.045227922 0.13419226
0.032547716 -0.045094587 0.1340193
0.012072591 -0.04530498 0.14431201
0.025273547 -0.050794177 0.15475559
-0.012397065 -0.045601297 0.15609899
-0.0076637436 -0.045359399 0.15593229
0.01383091 -0.044622097 0.15103987
-0.01105918 -0.050325178 0.16085085
-0.0071294466 -0.050255466 0.16175684
-0.046354085 -0.047714822 0.18205275
-0.0367283 -0.048566304 0.18370964
-0.02207531 -0.04852907 0.18419352
-0.011226453 -0.043109067 0.18390743
-0.0066908337 -0.04243581 0.1888022
0.003009636 -0.042079858 0.18685994
-0.055373941 -0.047399312 0.19887617
-0.039570048 -0.044279832 0.1939797
-0.026090333 -0.042864662 0.19592643
-0.019928345 -0.042648625 0.19457738
-0.0040289257 -0.041481145 0.19808121
-0.059162784 -0.045413494 0.20761827
-0.045054644 -0.043702811 0.20541339
-0.023929752 -0.04203064 0.20413525
-0.013915276 -0.041429549 0.20480487
-0.0060384143 -0.047247604 0.20084779
-0.043957438 -0.042946279 0.21069545
-0.016741551 -0.043245561 0.21649182
-0.064398885 -0.045189984 0.22758919
-0.023021806 -0.040481094 0.22131337
-0.069849871 -0.044032961 0.2350457
-0.054270305 -0.041619278 0.23429541
-0.028944772 -0.039953619 0.23102696
-0.017580746 -0.039157066 0.23571894
-0.042130385 -0.043958601 0.24359259
-0.034135178 -0.043837775 0.24516293
-0.039642449 -0.039062683 0.2478639
-0.045365524 -0.042881005 0.2575973
-0.021992514 -0.043285176 0.25234464
-0.032180939 -0.037664898 0.25923899
-0.063759163 -0.042155709 0.26702347
-0.031504296 -0.042279266 0.26541775
-0.067076996 -0.041639436 0.27373311
-0.05213359 -0.041217875 0.27921182
-0.047938667 -0.041533366 0.27511162
-0.034830742 -0.041208919 0.27932823
-0.069114201 -0.039458573 0.27044034
-0.049973063 -0.040641867 0.2866978
-0.08203166 -0.038511753 0.29647413
-0.062546104 -0.037630673 0.2948471
-0.076074362 -0.038163707 0.30219933
-0.055211723 -0.035593454 0.30530602
-0.086130969 -0.038328264 0.31676549
-0.079986639 -0.036123343 0.3156969
-0.061210774 -0.036486566 0.31758028
