# .PCD v0.7 - Point Cloud Data file format
VERSION 0.7
FIELDS x y z
SIZE 4 4 4
TYPE F F F
COUNT 1 1 1
WIDTH 921
HEIGHT 1
VIEWPOINT 0 0 0 1 0 0 0
POINTS 921
DATA ascii
-0.29344201 -0.063671134 -0.31020007
-0.22760032 -0.067427352 -0.31897199
-0.18643962 -0.069486499 -0.31580803
-0.16364457 -0.067041963 -0.31358507
-0.29546395 -0.054897919 -0.3139866
-0.26814988 -0.056932688 -0.31897199
-0.16132347 -0.055948872 -0.31712428
-0.24512908 -0.047068592 -0.31897199
-0.20937902 -0.047669999 -0.31297344
-0.17960298 -0.047620524 -0.313968
-0.28982651 -0.033542119 -0.31897199
-0.26206833 -0.036765791 -0.31647
-0.24343118 -0.039761916 -0.313968
-0.21446827 -0.034838479 -0.313968
-0.20990971 -0.036838476 -0.313968
-0.16461368 -0.03256404 -0.313968
-0.27108493 -0.024912138 -0.31759995
-0.24483779 -0.022899617 -0.31659356
-0.19645903 -0.028933514 -0.313968
-0.17588574 -0.025476739 -0.31505772
-0.2886554 -0.061624765 -0.30894312
-0.20817699 -0.069486499 -0.30853993
-0.15060049 -0.066661969 -0.30595481
-0.14681505 -0.069486499 -0.3037793
-0.29127309 -0.052165613 -0.30572176
-0.1547208 -0.05298502 -0.30863589
-0.14432918 -0.055867501 -0.30757153
-0.22514126 -0.047669999 -0.3091222
-0.15249221 -0.048388079 -0.30739123
-0.14200962 -0.049986601 -0.30624533
-0.24326444 -0.069486499 -0.29172602
-0.14376858 -0.069486499 -0.2933602
-0.13635594 -0.062326409 -0.2968235
-0.12222441 -0.063626036 -0.29048666
-0.13906208 -0.054634385 -0.29989049
-0.12913506 -0.0486864 -0.2972804
-0.28938299 -0.061967701 -0.28934804
-0.24967684 -0.069486499 -0.2868911
-0.11371174 -0.064025365 -0.28573233
-0.10576195 -0.064624488 -0.2813586
-0.2834658 -0.055363141 -0.288816
-0.2746534 -0.069486499 -0.27651778
-0.25788775 -0.069486499 -0.27281848
-0.092752114 -0.067417517 -0.2740297
-0.27218071 -0.047669999 -0.27482951
-0.11121646 -0.047669999 -0.27004585
-0.10610665 -0.047669999 -0.27771857
-0.27596369 -0.069486499 -0.26611635
-0.12106639 -0.069486499 -0.26878169
-0.083960436 -0.063733138 -0.26464048
-0.080193847 -0.053759459 -0.26621512
-0.25884974 -0.047669999 -0.26356018
-0.22358574 -0.047669999 -0.26726961
-0.13443148 -0.047669999 -0.26000085
-0.11442213 -0.047669999 -0.26019764
-0.10472426 -0.047669999 -0.26712066
-0.094339624 -0.047669999 -0.26655492
-0.24154708 -0.069486499 -0.25511619
-0.2155869 -0.069486499 -0.2593095
-0.12988824 -0.069486499 -0.25656715
-0.07632298 -0.066526636 -0.2599493
-0.057175443 -0.067330427 -0.25177097
-0.047616221 -0.064218231 -0.25227389
-0.22955295 -0.047669999 -0.25049421
-0.21449833 -0.047669999 -0.25453839
-0.080537513 -0.047669999 -0.25599131
-0.061729629 -0.047914185 -0.25462872
-0.068036348 -0.069486499 -0.24006797
-0.040740512 -0.067767486 -0.24140497
-0.10777809 -0.047669999 -0.24366882
-0.042364277 -0.04883758 -0.2424769
-0.26875424 -0.062891364 -0.23175882
-0.25952315 -0.069486499 -0.23463181
-0.20591095 -0.069486499 -0.23091441
-0.15794551 -0.069486499 -0.23861346
-0.041127577 -0.069486499 -0.23980671
-0.031501561 -0.063165076 -0.23241851
-0.018179566 -0.067553356 -0.23102501
-0.042401355 -0.053320512 -0.23911352
-0.046823051 -0.047669999 -0.23980027
-0.19003004 -0.069486499 -0.2274269
-0.056282636 -0.069486499 -0.2202089
-0.0086543113 -0.06498453 -0.22844405
0.0015786365 -0.06359683 -0.2241457
-0.2738227 -0.059789758 -0.22238496
-0.0068574152 -0.057015214 -0.22446071
-0.26276556 -0.047669999 -0.22844906
-0.19487269 -0.047669999 -0.22729221
-0.13839132 -0.047669999 -0.22459069
-0.082371265 -0.047669999 -0.22256202
-0.072663203 -0.047669999 -0.22759393
-0.26509428 -0.065394327 -0.21756424
-0.027276039 -0.069486499 -0.216994
-0.001941747 -0.063720062 -0.2142619
0.0033150986 -0.06276153 -0.21231391
-0.26512793 -0.051963754 -0.21769467
-0.1764044 -0.069486499 -0.20803271
-0.052488394 -0.069486499 -0.20388314
-0.04679282 -0.069486499 -0.200774
0.015403491 -0.068084307 -0.20630912
0.023889929 -0.066958949 -0.20326443
0.014727695 -0.055053085 -0.20402299
-0.081482641 -0.047669999 -0.2028414
-0.018047009 -0.047669999 -0.20690611
0.011607446 -0.047669999 -0.20687197
-0.18888135 -0.069486499 -0.19998319
-0.12092381 -0.069486499 -0.19107518
-0.1108422 -0.069486499 -0.1957207
-0.068823457 -0.069486499 -0.19051073
-0.047171108 -0.069486499 -0.19813405
-0.0029156953 -0.069486499 -0.19379887
0.04314965 -0.066356868 -0.19259436
0.021761738 -0.050337788 -0.19970244
0.034480523 -0.051439896 -0.19425648
-0.2595298 -0.049157895 -0.19598314
-0.21638471 -0.047669999 -0.1907714
-0.20662571 -0.047669999 -0.1954693
-0.062487792 -0.047669999 -0.19120756
-0.045521416 -0.047669999 -0.19045231
-0.036018588 -0.047669999 -0.19170649
-0.0018194318 -0.047669999 -0.19339216
0.024993494 -0.048781514 -0.1998587
0.035708975 -0.048888873 -0.19416477
-0.21467015 -0.069486499 -0.18728474
-0.16045691 -0.069486499 -0.18593866
-0.090764023 -0.069486499 -0.18657316
-0.0022501601 -0.069486499 -0.18484108
0.049657464 -0.061577674 -0.18256798
0.066926882 -0.062812358 -0.1857011
0.037826456 -0.054037642 -0.18983497
0.044921219 -0.05322849 -0.18656251
0.073031172 -0.053646456 -0.18157925
-0.18767759 -0.047669999 -0.18686531
0.024413135 -0.047669999 -0.18433547
0.035007618 -0.047669999 -0.18864171
0.056288436 -0.047684159 -0.1805992
-0.010029122 -0.069486499 -0.17857063
0.071457326 -0.068832934 -0.17231244
-0.25387913 -0.052995976 -0.17406766
0.084941782 -0.054879677 -0.17592435
-0.25474563 -0.049564376 -0.17742828
-0.13064122 -0.047669999 -0.17272948
-0.11360013 -0.047669999 -0.17592914
0.05576935 -0.047669999 -0.1749534
-0.019855529 -0.069486499 -0.16082151
0.089093901 -0.067488641 -0.16219358
-0.25089645 -0.058528319 -0.16249971
0.085992485 -0.05080818 -0.16797814
-0.2526359 -0.049713142 -0.16924587
-0.22775033 -0.047669999 -0.16624163
-0.1958752 -0.047669999 -0.1647796
-0.13072723 -0.047669999 -0.1691051
-0.092746116 -0.047669999 -0.16765442
-0.051459454 -0.047669999 -0.16717312
-0.037140109 -0.047669999 -0.16119573
-0.027645685 -0.047669999 -0.16378716
-0.11223473 -0.069486499 -0.15524176
-0.013499067 -0.069486499 -0.15191838
0.086753286 -0.069486499 -0.15759817
0.10592917 -0.060954429 -0.15848526
0.11607172 -0.06427224 -0.15310268
0.12205904 -0.062382728 -0.15298568
-0.25287721 -0.051643331 -0.15836166
-0.22605768 -0.047669999 -0.15672101
-0.21288356 -0.047669999 -0.1567667
-0.064643286 -0.047669999 -0.15367565
-0.012906365 -0.047669999 -0.1561988
0.09940996 -0.048021022 -0.15200837
-0.24747433 -0.068344846 -0.14577521
-0.18771322 -0.069486499 -0.14961608
0.022193106 -0.069486499 -0.14144687
0.11911182 -0.068752185 -0.14115001
0.13378227 -0.062375993 -0.14564228
-0.25121167 -0.054465488 -0.14336337
-0.24967772 -0.05165099 -0.14593005
0.1338363 -0.053366855 -0.14288515
-0.18109505 -0.047669999 -0.14619246
-0.17734095 -0.047669999 -0.14265788
-0.090635441 -0.047669999 -0.14637513
-0.047749631 -0.047669999 -0.14017497
0.01949604 -0.047669999 -0.14895134
0.040316459 -0.047669999 -0.14692646
-0.21992493 -0.069486499 -0.13108766
-0.1865982 -0.069486499 -0.13665833
0.13075353 -0.067563452 -0.13754946
0.14631414 -0.061996765 -0.13762689
0.13271219 -0.05366404 -0.13863768
0.1458814 -0.055771705 -0.13760075
0.15156096 -0.053735241 -0.13247253
0.11054607 -0.047669999 -0.13721225
0.12942079 -0.0485247 -0.13357474
-0.1580873 -0.069486499 -0.12412027
-0.13719454 -0.069486499 -0.12578894
0.01673587 -0.069486499 -0.12094136
0.073894054 -0.069486499 -0.12789774
0.1246754 -0.069486499 -0.12760007
0.13239013 -0.069486499 -0.1212497
0.16237409 -0.06130483 -0.12628576
-0.24109428 -0.05677861 -0.12448308
0.1596213 -0.052871518 -0.12504515
-0.23170707 -0.047669999 -0.12522919
-0.21881013 -0.047669999 -0.12643522
-0.030003645 -0.047669999 -0.12002973
0.044757564 -0.047669999 -0.12662239
0.063242421 -0.047669999 -0.12254371
0.14421944 -0.049142025 -0.12823069
-0.23398906 -0.069486499 -0.11760464
-0.19626012 -0.069486499 -0.11061695
-0.13440162 -0.069486499 -0.11780617
-0.12865447 -0.069486499 -0.11562335
-0.11662532 -0.069486499 -0.11588642
-0.071116373 -0.069486499 -0.11632404
0.15753831 -0.066920199 -0.11816881
0.16503435 -0.058660127 -0.11233343
0.17530903 -0.053708542 -0.11493308
-0.068595141 -0.047669999 -0.11420196
0.015710998 -0.047669999 -0.11867106
0.097841047 -0.047669999 -0.11181706
-0.21769652 -0.069486499 -0.10535664
-0.10097802 -0.069486499 -0.10984255
-0.051706128 -0.069486499 -0.10824108
0.094935074 -0.069486499 -0.10048325
0.15872383 -0.069486499 -0.10531558
0.18401508 -0.067186445 -0.10447208
0.18321046 -0.051927462 -0.10912973
-0.2026448 -0.069486499 -0.099469855
-0.12001111 -0.069486499 -0.093473569
-0.074381255 -0.069486499 -0.099774092
-0.036247674 -0.069486499 -0.095304981
0.0059388429 -0.069486499 -0.091998145
0.02156353 -0.069486499 -0.095004797
0.083407275 -0.069486499 -0.096765339
0.19764301 -0.068736896 -0.093315452
0.21311548 -0.064413734 -0.091712803
0.20901853 -0.055001482 -0.098857053
-0.15971126 -0.047669999 -0.092715114
0.048928089 -0.047669999 -0.094924927
0.054021269 -0.047669999 -0.094741955
0.13376857 -0.047669999 -0.096097633
0.1500752 -0.047669999 -0.099209368
-0.20829009 -0.069486499 -0.084665835
-0.043298975 -0.069486499 -0.085970223
-0.002731137 -0.069486499 -0.0814116
0.026284501 -0.069486499 -0.082125172
0.20514184 -0.067901753 -0.08716581
0.21254329 -0.067031965 -0.08723323
-0.23569697 -0.053294368 -0.086618178
0.21868117 -0.055479966 -0.089755259
-0.19842155 -0.047669999 -0.087383658
-0.1114667 -0.047669999 -0.083078802
-0.021285586 -0.047669999 -0.081355564
0.028667262 -0.047669999 -0.0854875
0.041842036 -0.047669999 -0.088559859
0.079104662 -0.047669999 -0.086768322
0.17430481 -0.047669999 -0.088846877
0.20836033 -0.047669999 -0.083368629
-0.12498347 -0.069486499 -0.075358368
0.15552454 -0.069486499 -0.077962071
0.16016322 -0.069486499 -0.075990885
-0.22907239 -0.052153639 -0.077857733
-0.16715311 -0.047669999 -0.074710794
-0.046859279 -0.047669999 -0.079188272
-0.0075970516 -0.047669999 -0.07137242
0.04731765 -0.047669999 -0.073172092
0.075098082 -0.047669999 -0.073185399
-0.22484168 -0.065201089 -0.061449386
-0.15660764 -0.069486499 -0.061114527
-0.05351172 -0.069486499 -0.062957108
-0.021265203 -0.069486499 -0.068051219
0.019507755 -0.069486499 -0.066173643
0.039635025 -0.069486499 -0.065909535
0.068375707 -0.069486499 -0.068974517
0.084311426 -0.069486499 -0.069037989
0.13812949 -0.069486499 -0.067732185
0.1587926 -0.069486499 -0.069749773
0.18982086 -0.069486499 -0.061035696
0.21314356 -0.069063812 -0.060923081
-0.19587861 -0.047669996 -0.065106899
0.19888893 -0.047669999 -0.063189976
-0.1944342 -0.069486499 -0.058936685
-0.088218026 -0.069486499 -0.051608618
0.048194692 -0.069486499 -0.053942952
0.080733664 -0.069486499 -0.058983386
0.21051806 -0.069486499 -0.053683795
0.22554518 -0.051012553 -0.053785104
-0.13771391 -0.047669999 -0.059739616
-0.11487971 -0.047669999 -0.057454906
-0.085240215 -0.047669999 -0.052507587
-0.047092915 -0.047669999 -0.050524518
0.17340502 -0.047669999 -0.050102748
0.19962239 -0.047669999 -0.05107493
-0.22051165 -0.07657034 -0.04257508
-0.21039543 -0.074439779 -0.044592943
-0.18347587 -0.07209944 -0.04680948
-0.15140989 -0.07207191 -0.046835553
-0.054192014 -0.07172811 -0.047161162
0.03003151 -0.076559164 -0.04258566
0.088570386 -0.072941989 -0.046011508
0.10804259 -0.074657969 -0.044386297
0.11274211 -0.073375918 -0.045600519
0.17767131 -0.074438803 -0.044593863
0.18502371 -0.072855636 -0.046093285
-0.1423226 -0.069995299 -0.04880232
0.18889527 -0.069486499 -0.049647942
0.24047136 -0.066783607 -0.049284205
-0.29205123 -0.05587348 -0.0480881
-0.23080061 -0.05972556 -0.049284201
-0.10624075 -0.054160681 -0.049284201
-0.3025178 -0.044340711 -0.042127356
-0.23139606 -0.048265487 -0.049284201
-0.19495109 -0.041584522 -0.043520525
-0.16525966 -0.049749106 -0.049284201
-0.10573965 -0.043188065 -0.045039274
-0.096113876 -0.045227893 -0.046971232
-0.085350513 -0.043577038 -0.045407675
0.01074452 -0.044686824 -0.046458773
0.15587731 -0.041998129 -0.043912265
0.19866733 -0.040151872 -0.042163696
0.2633428 -0.044550132 -0.04184705
-0.028144084 -0.038040299 -0.040163726
0.086095631 -0.039220795 -0.041281793
0.15776742 -0.039839603 -0.041867945
0.2414231 -0.039153662 -0.041218281
-0.29481238 -0.084734514 -0.030379733
-0.28521717 -0.087141275 -0.032563325
-0.27164534 -0.08666344 -0.033015873
-0.22974895 -0.086440273 -0.033227246
-0.20568436 -0.088543005 -0.031235736
-0.10085125 -0.085456312 -0.034159154
-0.090767555 -0.081446439 -0.037956916
-0.0058454573 -0.083717808 -0.035805695
0.013371915 -0.088796698 -0.030995466
0.047977787 -0.089024827 -0.030779405
0.170145 -0.088609941 -0.031172354
0.22016406 -0.084866382 -0.034717873
-0.32039851 -0.073059328 -0.031944189
-0.29851502 -0.07970421 -0.031744733
0.26776218 -0.079174712 -0.033404391
-0.289951 -0.050620779 -0.030406851
0.25643975 -0.055167198 -0.036606316
-0.31804281 -0.044343691 -0.033285774
-0.30494925 -0.048240703 -0.030050047
-0.22569524 -0.030099308 -0.032642651
-0.2018472 -0.033867907 -0.036211964
0.17153253 -0.036316127 -0.038530819
0.20444736 -0.03328824 -0.035663072
0.26267883 -0.032621142 -0.030882813
-0.30289835 -0.092457935 -0.021638066
-0.23392765 -0.095504597 -0.022589028
-0.21236408 -0.093113124 -0.024829263
-0.1767925 -0.095504597 -0.023982843
-0.16231851 -0.092061117 -0.02790373
-0.14285986 -0.092388831 -0.027593346
-0.010450751 -0.093423441 -0.026613459
0.016451731 -0.092379391 -0.027602289
0.11900753 -0.093016043 -0.026999325
0.12446649 -0.094035774 -0.026033526
0.17248797 -0.092276461 -0.027699778
0.19151045 -0.090714313 -0.029179288
0.25028098 -0.095504597 -0.022519853
0.28087634 -0.082866773 -0.023314662
-0.289951 -0.053806767 -0.026300417
0.28988877 -0.058578201 -0.020886904
0.31490478 -0.05422698 -0.024148863
-0.29003257 -0.02247872 -0.025419667
-0.28243107 -0.024302643 -0.027152516
-0.2596736 -0.025104936 -0.027912386
-0.20747049 -0.022799309 -0.025728676
-0.076874495 -0.023587503 -0.026475193
-0.15672484 -0.019335348 -0.022447892
0.21133524 -0.017950684 -0.021136699
-0.32142359 -0.091841638 -0.019892391
-0.3061097 -0.093853176 -0.010700168
-0.26577392 -0.095504597 -0.012749935
-0.21865579 -0.095504597 -0.010235791
-0.2033135 -0.095504597 -0.013663901
-0.14929603 -0.095504597 -0.017340306
0.0134123 -0.095504597 -0.016927795
0.1241675 -0.095504597 -0.018773939
0.23949322 -0.095504597 -0.011173191
0.26057041 -0.093591541 -0.016479481
-0.33194312 -0.085707344 -0.014955746
0.28126821 -0.087146245 -0.017945312
-0.35292745 -0.075028762 -0.016514899
-0.34051627 -0.077860847 -0.015514255
-0.33397841 -0.075914651 -0.014576288
-0.30568415 -0.072232768 -0.010516906
0.32803851 -0.07093934 -0.01090103
-0.3450616 -0.064800158 -0.01748045
-0.36550397 -0.054555796 -0.012447416
0.25442699 -0.056995299 -0.019437669
-0.31697792 -0.048881147 -0.01462416
-0.34697416 -0.036903061 -0.016809233
-0.36619884 -0.027081333 -0.014260866
-0.34406239 -0.026438994 -0.016023006
-0.33831915 -0.021450564 -0.015199043
-0.31583473 -0.027052576 -0.011930522
-0.3232103 -0.019132305 -0.015117636
-0.3065429 -0.014225297 -0.011996072
-0.28123289 -0.013071099 -0.014519053
-0.24659367 -0.0130711 -0.014210235
-0.22113261 -0.0130711 -0.016231952
-0.16904585 -0.015124616 -0.018459823
0.23636457 -0.013808331 -0.017213428
0.26460725 -0.019496756 -0.017483119
-0.25852552 -0.0065458808 -0.011210021
-0.23788695 -0.0089734364 -0.016514899
-0.21006942 -0.0056901667 -0.016514899
-0.15499911 -0.0095329722 -0.015757518
-0.1248536 -0.0097291972 -0.013349866
0.20011622 -0.0099411197 -0.013550748
-0.18538114 0.0029631397 -0.016514899
-0.2603386 0.025501341 -0.016514899
-0.275455 0.033571027 -0.016514899
-0.20075166 0.036252744 -0.0150222
-0.25176212 0.047223933 -0.016514899
-0.2147042 0.047994379 -0.015589866
-0.28549761 0.056081459 -0.016446719
-0.3013761 0.08470121 -0.010805869
-0.32399198 -0.092025608 -0.0039071226
-0.1963716 -0.095504597 -0.0065903193
0.065702237 -0.095504597 -0.0036968342
0.18293586 -0.095504597 -0.0084773852
0.27088466 -0.090379685 -0.0060511287
-0.373009 -0.085381925 -0.0057629896
-0.34154558 -0.087749861 -0.00020986609
-0.32590127 -0.082818523 -0.0021414086
-0.31757614 -0.080194384 -0.0016792959
0.27324104 -0.058578201 -0.0041720443
-0.3652027 -0.047837548 -0.0045751547
-0.37256339 -0.022001646 -0.0024614646
-0.30819017 -0.021357615 -0.0065667941
0.30763471 -0.023899773 -2.1901531e-05
-0.35715455 -0.017073801 -0.0047344239
-0.29370445 -0.013332204 -0.0066114496
-0.27494833 -0.010566742 -0.0077580065
-0.24242419 -0.0130711 -0.0050523467
-0.16672105 -0.013071099 -0.0090782139
0.25442699 -0.017096451 -0.0090499949
0.29642415 -0.018491281 -0.00053533638
-0.13330418 -0.0045713512 -0.0084648775
-0.060609628 -0.0035732104 -0.0075196293
-0.023160253 -0.0042979978 -0.0082060834
-0.0021363162 -0.0029943846 -0.0069714165
0.14440881 -0.00059137843 -0.0046955021
-0.15150297 0.0015823222 -0.0026367228
-0.13000217 0.0011724625 -0.0030249481
-0.091242418 0.0027495243 -0.0015312952
-0.074210875 0.00080990326 -0.0033683323
-0.0035479227 0.00078347744 -0.0033933602
0.15395617 0.00012468686 -0.0040173084
0.25914994 0.00029962801 -0.0014772938
-0.18324339 0.035283573 -0.0078408532
-0.30165043 0.049882248 -0.0067471405
-0.28230494 0.048959054 -0.0040211333
-0.19260839 0.043793123 -0.0063143773
-0.18362519 0.042833511 -0.0020559374
-0.31787139 0.059510812 -4.6510704e-05
-0.22146054 0.051938936 -0.005762801
-0.2976051 0.069432028 -0.0034416134
-0.289951 0.063065998 -0.0089430939
-0.21568915 0.062063999 -0.0030368785
-0.30697224 0.078993499 -0.0043884404
-0.24614786 0.075404271 -0.0039230743
-0.23484331 0.078993499 -0.0088611264
-0.29478532 0.088797472 -0.0003147191
-0.13856275 -0.095504597 0.001770962
0.20902234 -0.095504597 0.0031611368
-0.37137598 -0.083090268 0.0067576254
-0.36552012 -0.084696658 0.0017175097
0.29544917 -0.082730308 0.0092405537
0.27260572 -0.058578201 0.00906811
0.28427851 -0.058578201 0.0051197102
0.29794353 -0.055423647 0.002062906
0.32596171 -0.058578197 0.0090576736
0.33715874 -0.058578201 0.0094697196
-0.30334479 -0.030989438 0.0084425248
0.31307384 -0.030421661 0.0034642944
-0.36050004 -0.027830731 0.0094936341
0.29519099 -0.02451496 0
-0.34573889 -0.017626107 0.0062220371
-0.26500607 -0.013071101 0.0003202986
-0.064204641 -0.0056439685 0.0094808675
-0.055166401 -0.002924602 0.0069053252
0.025485907 -0.0039659049 0.0078915544
0.082819089 -0.0043159896 0.0082231229
0.11971633 -0.002941181 0.0069210264
0.25738046 -0.0054218187 0.0077856346
-0.28634378 0.0016737916 0.0047893832
0.15212218 0.0018057317 0.0024251717
0.16183713 0.0017610636 0.0024674775
0.25687742 0.0023941901 0.00063595374
-0.17099461 0.019728046 0.0056283921
-0.16614489 0.010856314 0.0079717496
-0.29438838 0.022685865 0.0050152759
-0.18024443 0.03839878 0.0059387153
-0.28232643 0.049009256 0.0054422398
-0.21670188 0.047415841 0.0033363416
-0.30671901 0.057916943 0.0056925477
-0.29730043 0.050429311 0.0091910129
-0.29225698 0.0675973 0.0077195568
-0.20092025 0.064046688 0.0032709034
-0.31846023 0.070620559 0.0020279819
-0.30452225 0.078993499 0.0029584472
-0.26811084 0.078993499 0.0031509297
-0.24906245 0.078174576 0.0086112348
-0.30967468 0.088160567 0.0060979682
-0.29080415 0.086425722 0.0090809613
-0.28975657 0.089006759 0.004374675
-0.26262325 0.084259622 0.0072023813
-0.30618331 0.091339566 0.004082873
-0.29144326 0.090071559 0.0021789896
-0.32924032 -0.091489226 0.014665552
-0.24041586 -0.095504597 0.01778586
-0.20725179 -0.095504597 0.015372142
-0.18332925 -0.095504597 0.013539968
-0.11963979 -0.095504597 0.012518751
0.058767546 -0.095504597 0.016862642
0.11678152 -0.095504597 0.016712345
0.13300008 -0.095504597 0.016806789
0.15337776 -0.095504597 0.014538052
0.18250215 -0.095504597 0.016961331
0.23974338 -0.095504597 0.013608798
0.29846203 -0.08131595 0.015942112
-0.36718395 -0.075850219 0.014077682
-0.35276467 -0.074188367 0.016508
-0.34528899 -0.079175569 0.017762309
0.25442699 -0.075701214 0.013788154
0.31507349 -0.073251717 0.015228739
-0.34504458 -0.057933338 0.016156979
-0.289951 -0.05561864 0.015901661
0.2775808 -0.058578201 0.01223072
0.28604537 -0.058578201 0.014623923
0.30570859 -0.058578201 0.012708236
-0.35614431 -0.043588746 0.016508
-0.33674946 -0.040831391 0.014966757
-0.31532103 -0.040860765 0.011892144
-0.36050001 -0.037429433 0.010686044
0.25442699 -0.033754908 0.017793993
-0.36386949 -0.026191643 0.016508
-0.35509592 -0.021177795 0.016508
-0.32903233 -0.023016414 0.014267846
0.25442699 -0.028649515 0.018734634
-0.2499567 -0.0130711 0.012775908
-0.12966058 -0.011843935 0.015352712
-0.11024886 -0.011861963 0.015369833
0.0004084995 -0.01632528 0.019597258
0.061052389 -0.011452164 0.014981876
0.074624047 -0.016306248 0.019579234
0.19567585 -0.011548313 0.015072941
-0.16267933 -0.0039326577 0.016190184
-0.14534703 -0.0085255839 0.012209883
-0.1034422 -0.0099382792 0.013547938
0.097442068 -0.0092991162 0.012942701
0.13961834 -0.0082592303 0.011957812
0.16926631 -0.0070631132 0.010824955
0.23691307 -0.0082053673 0.011906798
0.25575072 -0.0087736901 0.011690617
-0.20058781 0.0031611251 0.016514899
-0.23032357 0.015342054 0.016514899
-0.27381226 0.022986216 0.015243451
-0.22077945 0.028200414 0.016514899
-0.18647146 0.029088099 0.012629203
-0.17317936 0.020304907 0.011191265
-0.22125228 0.038562372 0.016514899
-0.20941518 0.044015594 0.015198383
-0.26284158 0.059869505 0.016514899
-0.246682 0.050150897 0.016514899
-0.24709225 0.065275766 0.016514899
-0.29866725 0.072232932 0.01246288
-0.2514461 0.07932613 0.013496679
-0.094581798 -0.095504597 0.020414406
-0.079559729 -0.095464066 0.024680184
-0.065318115 -0.095221937 0.024909522
0.076517925 -0.095504597 0.024516795
0.15924338 -0.092756338 0.027244747
0.24702169 -0.095504597 0.020994464
-0.33424407 -0.080981024 0.024053771
-0.32760239 -0.077062994 0.027837031
0.30691627 -0.066478178 0.025745092
0.30254421 -0.054857671 0.026584346
0.29975328 -0.048031773 0.02683969
-0.30075487 -0.031489618 0.027757853
-0.3196789 -0.029297505 0.023902189
-0.086735606 -0.02147452 0.024473947
-0.064912021 -0.024578582 0.027413864
0.24328439 -0.024016762 0.02688195
-0.20192327 -0.017486636 0.020696942
-0.011306152 -0.019725636 0.02281771
0.13258557 -0.017723091 0.020921141
0.1746888 -0.018016392 0.021198932
0.19512586 -0.01721302 0.020438051
-0.29057544 -0.083323427 0.035605449
-0.28734708 -0.083146602 0.036346372
-0.11166885 -0.083069474 0.036419421
-0.071174294 -0.086968593 0.032726463
0.038090851 -0.087453872 0.032266852
0.14826339 -0.086053908 0.033592787
0.15175807 -0.080597892 0.038760319
0.22109742 -0.087936819 0.031809434
0.062111929 -0.079452693 0.039844967
0.290948 -0.068230323 0.032113433
0.29371688 -0.057836607 0.032954831
-0.32056701 -0.041684628 0.031844564
-0.11478804 -0.030602161 0.033118911
-0.018294226 -0.036782417 0.038972355
0.10232593 -0.032460537 0.034879137
0.12898882 -0.035198137 0.037471954
0.14458551 -0.036921371 0.039104056
0.17138197 -0.037497334 0.039649554
0.23506382 -0.030231543 0.032768041
0.24918798 -0.036380466 0.038591757
-0.11607757 -0.028524417 0.031151041
-0.088279054 -0.028949087 0.031553257
0.062804222 -0.028084392 0.03073442
0.23816437 -0.029632531 0.032200709
-0.26409474 -0.07192044 0.046978954
-0.24295551 -0.074630253 0.044412423
-0.19609979 -0.077623509 0.041577432
-0.16225067 -0.075568333 0.043523945
0.0033949502 -0.074466281 0.044567727
0.040376842 -0.072278351 0.046639964
0.082421876 -0.076249741 0.042878568
0.12982547 -0.072406702 0.046518404
-0.289951 -0.060162578 0.043929804
-0.27896607 -0.066504389 0.049284201
-0.053595915 -0.060995847 0.049284201
-0.032956906 -0.069486499 0.049645685
0.024211599 -0.062807076 0.049284201
0.084356144 -0.068196818 0.049284201
0.11005022 -0.067625269 0.049284201
0.20461373 -0.060401943 0.049284201
-0.26384589 -0.05887457 0.049284197
-0.074422635 -0.056073129 0.049284201
0.0052582882 -0.05927461 0.049284201
0.079350322 -0.05236667 0.049284201
0.22704729 -0.055526458 0.049284201
0.25442699 -0.055206306 0.041249759
0.26580107 -0.05503355 0.04455699
-0.25505725 -0.043531589 0.045364626
-0.2333183 -0.042831637 0.044701692
-0.22166985 -0.047669999 0.049723744
-0.20948105 -0.043600243 0.045429654
-0.15969187 -0.043791585 0.045610879
-0.13411395 -0.046752647 0.048415355
-0.045925073 -0.045105733 0.046855532
-0.023348289 -0.043607473 0.045436502
0.21901914 -0.040612016 0.042599503
-0.289951 -0.039743267 0.041713677
-0.026193116 -0.039214388 0.041275725
-0.17143533 -0.069486499 0.058057632
-0.15564904 -0.069486499 0.05337397
-0.11010864 -0.069486499 0.053919233
-0.066490822 -0.069486499 0.053080317
-0.033747464 -0.069486499 0.054680832
-0.013849948 -0.069486499 0.058770701
0.020299666 -0.069486499 0.050094694
0.035791967 -0.069486499 0.057942957
0.18420169 -0.069486499 0.056215867
-0.20857114 -0.047669999 0.051382978
-0.19459569 -0.047669999 0.053661931
0.1672136 -0.047669999 0.054838665
-0.20385022 -0.069486499 0.065259114
-0.0067853034 -0.069486499 0.060908817
0.031036302 -0.069486499 0.06592375
0.077736698 -0.069486499 0.068348624
0.11836988 -0.069486499 0.065065019
0.21278501 -0.054278169 0.06276615
-0.14735848 -0.047669999 0.063759856
0.037866697 -0.047669999 0.069370598
0.059753012 -0.047669999 0.061386745
0.11844392 -0.047669999 0.066158831
0.16857593 -0.047669999 0.063355595
-0.13021941 -0.069486499 0.076909743
-0.035093408 -0.069486499 0.079759426
-0.0025040773 -0.069486499 0.077624276
0.10162947 -0.069486499 0.071785323
0.14170668 -0.069486499 0.073876068
0.16650774 -0.069486499 0.072210841
0.18262671 -0.069486499 0.076234289
0.19900922 -0.069486499 0.071492001
0.23309384 -0.060108118 0.073866136
-0.23468643 -0.054204512 0.079933159
-0.18146634 -0.047669999 0.079879709
0.030819409 -0.047669999 0.074230425
-0.13819869 -0.069486499 0.084297374
-0.12365909 -0.069486499 0.081973463
0.026241956 -0.069486499 0.089222193
0.15175772 -0.069486499 0.086885929
0.18489523 -0.069486499 0.086184874
0.20669192 -0.068625256 0.086112268
-0.23667252 -0.053909734 0.088544711
-0.14232214 -0.047669999 0.080598548
-0.079396293 -0.047669999 0.084311247
0.055398494 -0.047669999 0.085639514
0.14910685 -0.047669999 0.088873647
0.15912375 -0.047669999 0.086936638
-0.22408056 -0.069486499 0.096861728
-0.11357472 -0.069486499 0.099546798
-0.045135997 -0.069486499 0.093122192
0.011895411 -0.069486499 0.090684153
0.059200838 -0.069486499 0.09462972
0.083675489 -0.069486499 0.093265116
0.098673135 -0.069486499 0.098240465
0.14812596 -0.069486499 0.09876284
0.15289931 -0.069486499 0.095031016
0.20857945 -0.051757339 0.092695475
-0.19089793 -0.047669999 0.090796739
-0.047253426 -0.047669999 0.092863232
-0.0033360198 -0.047669999 0.092446312
0.056285907 -0.047669999 0.0914388
0.07639312 -0.047669999 0.099480599
0.11904947 -0.047669999 0.094265558
0.2000621 -0.049415454 0.092774883
-0.21645899 -0.069486499 0.10980057
-0.19361904 -0.069486499 0.10309067
-0.13188136 -0.069486499 0.10612844
-0.10513763 -0.069486499 0.10544406
-0.054663621 -0.069486499 0.1041133
0.074382484 -0.069486499 0.10144612
0.12955752 -0.069486499 0.10308783
0.15538672 -0.069486499 0.10840057
0.16337979 -0.069486499 0.1074831
0.1834677 -0.061766345 0.10037735
0.1751377 -0.05410625 0.1054939
0.19999537 -0.05344747 0.10126054
0.20627935 -0.059807077 0.10465528
-0.19308375 -0.047669999 0.10708396
-0.18378487 -0.047669999 0.10110308
-0.1695956 -0.047669999 0.10192217
-0.14680845 -0.047669999 0.10813902
0.0071584284 -0.047669999 0.10018697
0.023900487 -0.047669999 0.10204186
-0.19831987 -0.069486499 0.11410354
-0.15525749 -0.069486499 0.11550992
-0.022241991 -0.069486499 0.11931662
-0.14087071 -0.047669999 0.11351353
-0.12869704 -0.047669999 0.11827823
-0.1181442 -0.047669999 0.11339468
-0.021485887 -0.047669999 0.11042939
-0.015176997 -0.047669999 0.11014201
0.15345588 -0.047669999 0.11015621
-0.12401624 -0.069486499 0.12379138
-0.094135076 -0.069486499 0.12668988
-0.079545379 -0.069486499 0.12691039
-0.0056268759 -0.069486499 0.12570304
0.00064959377 -0.069486499 0.12745729
0.065694623 -0.069486499 0.12282708
0.099050432 -0.069486499 0.12297326
0.11686565 -0.069486499 0.12451808
0.14022782 -0.060066991 0.12693669
0.1719064 -0.062410697 0.12132804
-0.24283491 -0.05069818 0.12574223
0.1578615 -0.052478641 0.12216058
-0.21504426 -0.047669999 0.12984963
-0.1996365 -0.047669999 0.12373839
-0.17893438 -0.047669999 0.12545986
-0.12535617 -0.047669999 0.12681639
-0.10473242 -0.047669999 0.12030753
-0.071833961 -0.047669999 0.1261996
-0.065744005 -0.047669999 0.12837356
-0.027431078 -0.047669999 0.12390841
0.058695674 -0.047669999 0.1260377
0.14229856 -0.048764836 0.12660022
-0.23548214 -0.069486499 0.1346367
-0.10312951 -0.069486499 0.13383609
-0.053925008 -0.069486499 0.13728942
-0.010078333 -0.069486499 0.13163564
-0.00099638477 -0.069486499 0.13534918
0.079956196 -0.069486499 0.13992901
0.14510083 -0.052298151 0.13354564
-0.22850467 -0.047669999 0.13053881
-0.1494391 -0.047669999 0.13053638
-0.076773949 -0.047669999 0.13269389
0.030192226 -0.047669999 0.13066202
0.083361834 -0.047669999 0.13165885
-0.1853341 -0.069486499 0.14826946
-0.13819128 -0.069486499 0.14219663
-0.12783286 -0.069486499 0.14182508
-0.022088654 -0.069486499 0.14081797
0.02369345 -0.069486499 0.14010295
0.058242723 -0.069486499 0.14652115
0.08169473 -0.069486499 0.14530756
0.11887848 -0.068361476 0.14129643
-0.20473126 -0.047669999 0.14350928
-0.15849733 -0.047669999 0.14548737
-0.14159921 -0.047669999 0.14100203
0.031553656 -0.047669999 0.14726928
-0.24802862 -0.069402434 0.15137716
-0.23250671 -0.069486499 0.15269698
-0.20208144 -0.069486499 0.15093499
-0.082719162 -0.069486499 0.15776256
0.013747379 -0.069486499 0.1522615
0.097209297 -0.065403439 0.1533601
-0.25018108 -0.054668829 0.15972519
-0.094256759 -0.047669999 0.15860076
-0.028472139 -0.047669999 0.15753421
0.034232244 -0.047669999 0.15039939
-0.1831201 -0.069486499 0.16777694
-0.14278653 -0.069486499 0.16234608
-0.062698118 -0.069486499 0.16382724
-0.0049328841 -0.069486499 0.16575655
0.0094375163 -0.069486499 0.16018014
0.061740845 -0.069486499 0.16553216
0.10610658 -0.056265041 0.1640211
-0.16243345 -0.047669999 0.16216609
-0.092207707 -0.047669999 0.16068013
0.073164582 -0.047669999 0.16474324
-0.24977748 -0.069486499 0.1766206
-0.20860805 -0.069486499 0.17972226
-0.14201598 -0.069486499 0.17547911
0.039910704 -0.069486499 0.17885572
0.052771822 -0.065373868 0.17675859
0.064443074 -0.061863616 0.17975104
0.084631085 -0.051860694 0.17066795
-0.14928031 -0.047669999 0.17119958
-0.058955252 -0.047669999 0.17477989
0.061624713 -0.047669999 0.17100899
-0.17898878 -0.069486499 0.18917997
-0.16125968 -0.069486499 0.1886106
-0.1521188 -0.069486499 0.18661048
0.030165069 -0.069486499 0.18939467
0.052254561 -0.060149636 0.18097277
-0.2654303 -0.058445677 0.18656018
0.06905286 -0.057922963 0.18412866
0.071841761 -0.058694154 0.18365818
-0.24730162 -0.047669999 0.18370761
-0.19358163 -0.047669999 0.18541701
-0.15452662 -0.047669999 0.1850577
-0.14108086 -0.047669999 0.18468513
0.033755675 -0.047669999 0.18481058
-0.18436067 -0.069486499 0.19216727
-0.14513925 -0.069486499 0.19730517
-0.01481127 -0.069486499 0.19364594
0.036554888 -0.056021966 0.19295481
0.050930798 -0.057948329 0.19564217
-0.24507336 -0.047669999 0.19610129
-0.21487232 -0.047669999 0.19612966
-0.15967795 -0.047669999 0.19421855
-0.14906196 -0.047669999 0.19176419
-0.057697564 -0.047669999 0.19497544
-0.17481707 -0.069486499 0.20487562
-0.10249338 -0.069486499 0.20899189
-0.089293517 -0.069486499 0.20831616
0.032135271 -0.052563976 0.2049319
-0.033499621 -0.047669999 0.20624162
-0.017189346 -0.047669999 0.20722222
0.021760117 -0.047669999 0.20082527
-0.21042533 -0.069486499 0.212951
-0.18154164 -0.069486499 0.21625546
-0.091287971 -0.069486499 0.21690856
0.0052128434 -0.067998245 0.21542089
-0.0021904111 -0.058814619 0.21441464
0.015042161 -0.057028338 0.21067083
-0.073751599 -0.047669999 0.21395367
-0.096974798 -0.069486499 0.2258589
-0.26693588 -0.056116059 0.22470668
-0.25546524 -0.047669999 0.22673281
-0.2386425 -0.047669999 0.22361854
-0.170496 -0.047669999 0.22547841
-0.15967217 -0.047669999 0.22457147
-0.047976293 -0.047669999 0.22919025
-0.12258463 -0.069486499 0.23333386
-0.11996103 -0.069486499 0.23650675
-0.10142222 -0.069486499 0.2323627
-0.26931429 -0.052279204 0.23393105
-0.015703522 -0.054422222 0.23383011
-0.19393456 -0.047669999 0.23133686
-0.12394071 -0.047669999 0.23200254
-0.19660339 -0.069486499 0.2481133
-0.097882792 -0.069486499 0.24240345
-0.040175818 -0.064393185 0.24110363
-0.054066684 -0.050043751 0.24627873
-0.045971345 -0.059720226 0.24474034
-0.25125432 -0.047669999 0.24882445
-0.2419807 -0.047669999 0.24522373
-0.21756095 -0.047669999 0.24566983
-0.045860849 -0.04877916 0.24123845
-0.077679045 -0.069486499 0.2504662
-0.069726221 -0.067924932 0.25589734
-0.27568412 -0.058638956 0.25863576
-0.066270471 -0.057049848 0.25623217
-0.055858154 -0.053873055 0.25684261
-0.20617443 -0.047669999 0.25093126
-0.055038292 -0.04884889 0.25264695
-0.2765916 -0.065874241 0.26217008
-0.27780581 -0.050001517 0.26686424
-0.085831881 -0.05450527 0.26578996
-0.20198737 -0.047669999 0.26097569
-0.13015765 -0.047669999 0.26246256
-0.11392384 -0.047669999 0.26794052
-0.2545203 -0.069486499 0.27684766
-0.23323695 -0.069486499 0.2736761
-0.11429692 -0.069486499 0.27108723
-0.089069344 -0.065852143 0.27587584
-0.1032198 -0.052201748 0.27647018
-0.098765269 -0.052659832 0.27373409
-0.2577194 -0.047669999 0.27998051
-0.095521033 -0.04854833 0.2774848
-0.28927013 -0.064476267 0.2963872
-0.12932019 -0.067842677 0.29250193
-0.11956996 -0.068229869 0.29092377
-0.28549987 -0.049276717 0.2967048
-0.19968365 -0.069486499 0.30681154
-0.18885767 -0.069486499 0.30911332
-0.21314339 -0.047669999 0.30732644
-0.14888801 -0.047669999 0.30561444
-0.21837051 -0.06760823 0.31897199
-0.20754805 -0.061680645 0.31897199
-0.18570283 -0.069486499 0.31600738
-0.16375436 -0.062123701 0.31365252
-0.15605858 -0.064499207 0.31426722
-0.14861615 -0.060134053 0.31000197
-0.21918806 -0.051998958 0.31897199
-0.19406438 -0.053977437 0.31897199
-0.28950655 -0.046921656 0.31319308
-0.26034614 -0.041214064 0.313968
-0.23342276 -0.040077832 0.313968
-0.28458962 -0.034315318 0.31897199
-0.20943733 -0.024804613 0.31539381
-0.17282487 -0.023371795 0.31647
