# .PCD v0.7 - Point Cloud Data file format
VERSION 0.7
FIELDS x y z
SIZE 4 4 4
TYPE F F F
COUNT 1 1 1
WIDTH 865
HEIGHT 1
VIEWPOINT 0 0 0 1 0 0 0
POINTS 865
DATA ascii
-0.10696048 -0.041424159 -0.34487274
-0.10721084 -0.038078189 -0.34175339
-0.10624366 -0.038693819 -0.33328447
-0.12162395 -0.040572792 -0.3270413
-0.094739147 -0.04317563 -0.3234477
-0.11227913 -0.044877622 -0.31512189
-0.10364418 -0.04315418 -0.31201446
-0.099384457 -0.040424332 -0.31272301
-0.10693514 -0.042736221 -0.30063537
-0.08485917 -0.042216569 -0.292923
-0.097362936 -0.045836952 -0.28837931
-0.087589294 -0.050423119 -0.27853662
-0.095074639 -0.048293706 -0.26101488
-0.05957251 -0.044985749 -0.26899931
-0.094135851 -0.050250903 -0.25653934
-0.081178777 -0.046027347 -0.25999165
-0.072254188 -0.045602974 -0.25680062
-0.061069082 -0.045973744 -0.25030595
-0.084907308 -0.05008319 -0.24094617
-0.053061694 -0.05593767 -0.24674872
-0.04208345 -0.048881922 -0.2470586
-0.065878056 -0.061081223 -0.23084299
-0.070091814 -0.055845164 -0.23834446
-0.06946113 -0.055847369 -0.2391288
-0.050792463 -0.057191521 -0.23859861
-0.057399601 -0.047371786 -0.23465388
-0.051615607 -0.062828317 -0.22365342
-0.03624424 -0.058252633 -0.229958
-0.060614236 -0.048661411 -0.22750472
-0.077228047 -0.054234508 -0.21450847
-0.037322789 -0.049233284 -0.21739872
-0.046080254 -0.06119936 -0.20730081
-0.060523607 -0.059409335 -0.20978916
-0.043076288 -0.050864249 -0.20008673
-0.014091538 -0.057627138 -0.20765136
-0.043354526 -0.062148266 -0.19983488
-0.033818342 -0.063472003 -0.19678202
-0.041150432 -0.051484983 -0.19457394
-0.014773153 -0.051609136 -0.19870469
-0.052422918 -0.062429518 -0.18264307
-0.010647114 -0.065558389 -0.18076175
-0.010847213 -0.052826758 -0.18150815
-0.0051736739 -0.053076267 -0.18293732
-0.039647326 -0.064662918 -0.17553566
-0.026492111 -0.066296346 -0.1735498
-0.0023242086 -0.066353172 -0.17464519
0.0032037124 -0.063586295 -0.1768093
-0.035349872 -0.053934142 -0.17414197
0.0048566908 -0.0680997 -0.16273776
-0.049081601 -0.056906547 -0.16814496
-0.047441542 -0.063674934 -0.15258816
-0.026202671 -0.068127438 -0.15276174
-0.0087285917 -0.071073234 -0.141155
-0.048072856 -0.063251339 -0.14527045
-0.039312303 -0.059777632 -0.14422187
-0.026810735 -0.057309873 -0.14558078
-0.017277129 -0.056975633 -0.14079261
-0.0046613785 -0.055466805 -0.14160813
0.044647548 -0.10286807 -0.13586812
0.013859577 -0.096481264 -0.13445859
0.060904853 -0.097221017 -0.13914087
0.015752764 -0.087706566 -0.13558134
0.057520457 -0.087212682 -0.13388178
0.067157462 -0.088220775 -0.13963453
0.00058064051 -0.072805382 -0.13309112
0.019963456 -0.07282798 -0.13109949
0.051629528 -0.078744538 -0.13491389
0.065050885 -0.078179047 -0.13404688
0.074143305 -0.07722453 -0.13109183
-0.027375469 -0.06933257 -0.13733009
0.034170948 -0.065460309 -0.13465405
-0.32549343 -0.021424783 -0.13691092
-0.31235641 -0.023430424 -0.13113424
0.0087987408 -0.1035551 -0.12068109
0.058686115 -0.10330607 -0.12087024
0.069296136 -0.10799473 -0.12919146
0.012507749 -0.095209226 -0.12560479
0.062482949 -0.099240884 -0.12482802
-0.0042166254 -0.085368589 -0.12756333
-0.014944545 -0.071389735 -0.12951766
0.016327409 -0.074407354 -0.12125887
0.022098323 -0.074541807 -0.12425234
0.038889199 -0.074924029 -0.12633626
0.058489744 -0.07027398 -0.124035
0.062407691 -0.074711457 -0.12794115
-0.023115212 -0.060105007 -0.12440836
-0.0081762373 -0.05767959 -0.1294651
0.0035804287 -0.057416722 -0.12420028
0.055798929 -0.10704774 -0.11441569
-0.0050243838 -0.096305728 -0.11341557
0.0070201713 -0.094340377 -0.1109086
0.06702207 -0.090743296 -0.11753748
-5.0660688e-05 -0.087503456 -0.1123584
0.0077943243 -0.075125754 -0.11553869
0.031711407 -0.078067809 -0.11322642
-0.03783299 -0.06610579 -0.11765763
-0.027901366 -0.063636914 -0.11424114
-0.0061171618 -0.060264431 -0.1108824
0.042659007 -0.061663881 -0.11143653
0.0048961956 -0.058461342 -0.11470953
-0.30926779 -0.025526544 -0.11766955
0.036558624 -0.10070572 -0.10839741
0.050697543 -0.095797151 -0.10538676
0.067212485 -0.089948587 -0.10483059
-0.0010548905 -0.075261608 -0.10260794
0.024002634 -0.076972105 -0.10465151
0.036173906 -0.077040777 -0.10253076
-0.021322306 -0.063677594 -0.10575645
-0.011320063 -0.061187517 -0.10860367
0.045330409 -0.062539399 -0.10805796
-0.28727645 -0.021318752 -0.10251172
-0.026916014 -0.070112348 -0.096819706
-0.014756588 -0.075681463 -0.090020634
0.011175839 -0.077784672 -0.091768377
0.030555397 -0.078797311 -0.092690125
0.015454559 -0.05974824 -0.097002767
-0.27706733 -0.026393814 -0.097463973
-0.0048980406 -0.08084438 -0.084886722
0.045199398 -0.080522366 -0.080343142
-0.030729059 -0.073855199 -0.083523124
-0.025353555 -0.073918939 -0.085383222
-0.0073076249 -0.077486813 -0.081445575
0.017916219 -0.078926563 -0.088117145
0.066978067 -0.072309211 -0.082409471
-0.015606388 -0.063815102 -0.085695684
0.046008639 -0.061089665 -0.089068696
-0.27675062 -0.031645313 -0.082706794
0.017730335 -0.080320582 -0.074974857
0.029877992 -0.08211869 -0.070808358
0.041832186 -0.081982613 -0.071990132
0.054182254 -0.080329292 -0.079001188
-0.020355068 -0.074691951 -0.07769756
0.064756274 -0.078851268 -0.076914817
-0.022343494 -0.067609549 -0.073541522
0.072303787 -0.068359204 -0.070447646
-0.2844609 -0.023947209 -0.072817698
0.01663579 -0.1067856 -0.066163696
0.028742548 -0.10811922 -0.062295549
0.0025074752 -0.080058336 -0.068913452
0.028460409 -0.08247672 -0.066019081
-0.017803926 -0.077599943 -0.068059303
-0.0010583536 -0.06425117 -0.060957093
0.016487017 -0.06300623 -0.063330561
0.061697721 -0.062539361 -0.067609362
-0.31081307 -0.02869565 -0.068358228
0.014822396 -0.11282989 -0.0519365
0.027964715 -0.11531118 -0.055750452
-0.014312085 -0.081564181 -0.052548811
-0.0069394922 -0.081666127 -0.054845065
0.0029421262 -0.083037212 -0.050022326
0.049220126 -0.084164403 -0.057205226
0.054025337 -0.083980933 -0.056930717
0.06890095 -0.0835265 -0.055393219
-0.02480305 -0.074953191 -0.056497112
0.085075572 -0.074044868 -0.058083855
0.0027950071 -0.0642763 -0.056701493
-0.30146146 -0.027334765 -0.056258984
-0.26414859 -0.024978865 -0.058508612
0.017106017 -0.12213528 -0.045337699
-0.014831087 -0.081837878 -0.045330908
0.0031513302 -0.084428869 -0.042605281
0.017825656 -0.084549099 -0.046299122
0.079484746 -0.084697008 -0.045252111
-0.031311087 -0.075303793 -0.041313928
0.093828946 -0.07922855 -0.042359404
-0.14174071 -0.062513843 -0.040374711
-0.1298023 -0.063848495 -0.04031283
-0.11031709 -0.066559866 -0.040079333
-0.10632253 -0.060711049 -0.041660719
-0.065193117 -0.063103102 -0.041783001
-0.015577672 -0.066479564 -0.042216081
0.056802817 -0.061861657 -0.041783001
0.066374682 -0.063526638 -0.044255044
0.084632181 -0.067390762 -0.046663929
0.10177862 -0.06385386 -0.041783001
0.12870459 -0.069128036 -0.040507413
0.13689947 -0.065113246 -0.041783001
0.17713076 -0.066305794 -0.041340165
-0.15393765 -0.055577409 -0.040605634
-0.056168046 -0.053931478 -0.041783001
-0.034105804 -0.050306607 -0.041783001
-0.0048675034 -0.052477106 -0.041783005
0.0051043043 -0.056276456 -0.041783001
0.013848631 -0.051002763 -0.041783001
0.049704935 -0.053912066 -0.041783001
0.0570997 -0.059327107 -0.041783001
0.10303874 -0.054304898 -0.041782998
0.14760379 -0.056272674 -0.041783001
0.15010338 -0.050152715 -0.041783001
-0.13418214 -0.043552093 -0.041043401
-0.11747759 -0.044145048 -0.041413542
-0.05723983 -0.041156065 -0.040567949
-0.034114763 -0.041714638 -0.040836941
0.004640379 -0.048286587 -0.041783001
0.015708661 -0.043216281 -0.041560315
0.022035392 -0.042765513 -0.041343022
0.059035204 -0.040971585 -0.040479109
0.10333037 -0.045052834 -0.041783001
0.11189944 -0.04190873 -0.040930532
0.12852252 -0.040327061 -0.040168732
0.15986075 -0.041035164 -0.040509865
0.1990414 -0.046521921 -0.040929437
-0.28494769 -0.037240572 -0.040821739
-0.268906 -0.038088121 -0.044164367
-0.25422481 -0.038820099 -0.047565997
-0.250763 -0.025978107 -0.04614532
-0.01258035 -0.093334675 -0.031744722
-0.002848092 -0.090279832 -0.036544371
0.014409006 -0.093252048 -0.0337312
0.029689282 -0.090847895 -0.037249379
0.037846144 -0.090912946 -0.037445694
0.040908508 -0.09463542 -0.032080222
-0.076302759 -0.083887294 -0.032235112
-0.045089275 -0.08102271 -0.034451719
-0.025044834 -0.085816279 -0.033372186
-0.019383658 -0.085641697 -0.038017087
0.1004317 -0.08349257 -0.033589661
0.17878047 -0.080900937 -0.034596737
0.20054461 -0.084892966 -0.030531604
-0.112303 -0.072259389 -0.037339076
-0.095028982 -0.079111397 -0.03513797
-0.074502729 -0.074319929 -0.037433393
-0.067483969 -0.072007269 -0.038524542
-0.051880982 -0.075432301 -0.037059486
-0.03535619 -0.074900456 -0.038109716
-0.023836497 -0.07349433 -0.038102504
0.0062937066 -0.071582563 -0.039145738
0.070528112 -0.073287189 -0.038504422
0.09294007 -0.075900383 -0.037245948
0.11750284 -0.07028342 -0.039950997
0.12283093 -0.074393868 -0.037971463
0.19201967 -0.072916254 -0.038158622
0.20437144 -0.072336569 -0.038173366
0.25292507 -0.070053943 -0.035496343
0.26997426 -0.071070999 -0.032154463
-0.19213355 -0.061375216 -0.036385797
-0.14100978 -0.064353816 -0.039309002
-0.1104946 -0.06728255 -0.039737545
0.20357955 -0.068785921 -0.039900258
0.230919 -0.067959979 -0.039712939
0.27587494 -0.065350987 -0.03254519
-0.24271791 -0.045958504 -0.031114496
-0.22648171 -0.043840393 -0.033512741
-0.18229103 -0.0401823 -0.039485492
0.24991417 -0.044432871 -0.037012331
-0.29901078 -0.030830773 -0.032403097
-0.27013206 -0.038562473 -0.03967426
-0.21738353 -0.03401535 -0.032410264
-0.15819387 -0.034820084 -0.037046123
-0.14660141 -0.035687152 -0.037475284
-0.11655825 -0.038926259 -0.039256297
-0.088976875 -0.031947218 -0.036133207
0.0082507851 -0.032623202 -0.036458891
0.025341023 -0.030125076 -0.035255749
0.04386092 -0.039651994 -0.03984376
0.10577841 -0.030814378 -0.035587717
0.19187856 -0.031046875 -0.034967594
0.23248073 -0.039865568 -0.037994172
0.24925914 -0.03534577 -0.03276962
-0.24617684 -0.027196858 -0.032157142
-0.17698742 -0.027643126 -0.033146892
-0.14515537 -0.027182644 -0.033307284
-0.11167181 -0.02766555 -0.033970337
-0.076472498 -0.027111547 -0.03380451
-0.059578881 -0.024183009 -0.030608818
-0.0059448928 -0.028011955 -0.034238134
0.023836248 -0.025304202 -0.03201488
0.044386014 -0.027732857 -0.033799998
0.099813223 -0.026461802 -0.033466425
0.15413319 -0.02579215 -0.032626685
0.16733657 -0.026044084 -0.032942619
0.17142858 -0.024889041 -0.031324565
-0.093315035 -0.09062425 -0.024339003
-0.063738815 -0.09204904 -0.022913551
-0.017345563 -0.094258197 -0.024363186
0.003573969 -0.09236683 -0.02259423
0.054128002 -0.09294977 -0.021863272
0.075247742 -0.096629925 -0.023073627
0.15388227 -0.092903435 -0.021921376
0.17226735 -0.090358533 -0.024906363
0.21151179 -0.090092465 -0.023932837
0.22206157 -0.091854475 -0.021754602
-0.15198822 -0.085738733 -0.020685628
-0.0090493578 -0.087172195 -0.028941784
0.026829822 -0.087754779 -0.02837733
0.15153298 -0.088509604 -0.027430838
0.17652029 -0.086583473 -0.029455241
0.19966328 -0.086141162 -0.029004751
0.21194221 -0.089973286 -0.024059035
0.25320524 -0.089380696 -0.020786727
0.26106265 -0.084169343 -0.025165582
-0.20460755 -0.075524256 -0.020218959
-0.17623182 -0.07934738 -0.024088638
-0.15838733 -0.077686295 -0.029372979
-0.2241877 -0.060385659 -0.029716723
-0.20911604 -0.069868915 -0.02576327
-0.26624233 -0.054712094 -0.02093963
-0.24851644 -0.05949945 -0.024229497
0.28974351 -0.055387594 -0.028735086
-0.27773553 -0.041056078 -0.0219888
0.28132755 -0.04411763 -0.029659189
0.27932426 -0.03004461 -0.020409655
-0.27247146 -0.028518688 -0.02280473
-0.24733737 -0.029318593 -0.026331751
-0.22473946 -0.027674872 -0.028346699
-0.21898633 -0.026778715 -0.028540596
-0.15079518 -0.023377704 -0.029365532
-0.1033629 -0.021369703 -0.027069254
-0.093863837 -0.020540105 -0.026041007
0.010888919 -0.021473637 -0.027211618
0.10905796 -0.020953914 -0.02655974
0.18306091 -0.020822024 -0.025719685
0.24077947 -0.024513636 -0.025876528
-0.075841822 -0.018032363 -0.022896372
-0.032608859 -0.016194934 -0.020592291
-0.024327641 -0.017911572 -0.022744995
-0.01691445 -0.018530272 -0.02352084
0.0011109663 -0.018681984 -0.023711145
0.063142374 -0.019064236 -0.024190275
0.15546033 -0.01747234 -0.022194015
0.1696063 -0.017101331 -0.021638285
0.17739692 -0.017944321 -0.022356948
-0.13252608 -0.092601553 -0.010678015
-0.11926367 -0.093096785 -0.017230285
-0.10700872 -0.093758479 -0.019549353
-0.08634901 -0.096970417 -0.012398147
-0.047838613 -0.095773444 -0.017642559
-0.0077203959 -0.096185081 -0.015824253
0.014296369 -0.098279729 -0.013119748
0.028247818 -0.096324012 -0.015230222
0.037475489 -0.097743288 -0.013207281
0.0473646 -0.097397357 -0.010526981
0.079034656 -0.098264255 -0.016448896
0.09912511 -0.096891679 -0.012743159
0.15754756 -0.096293561 -0.015363743
0.20341145 -0.096773803 -0.011931035
0.23402703 -0.094914138 -0.015491015
0.277307 -0.091296747 -0.012645638
-0.18100774 -0.082942463 -0.018723693
-0.16066025 -0.087863922 -0.012933363
-0.15330933 -0.087997012 -0.01718501
-0.14614393 -0.089779861 -0.014085419
0.29597086 -0.083007962 -0.014998754
0.30003724 -0.084488362 -0.01131718
-0.2273908 -0.073439412 -0.01501439
-0.21622336 -0.074488238 -0.017412329
-0.20754057 -0.077251241 -0.017046822
0.31714031 -0.070048578 -0.014663927
-0.29431137 -0.052967433 -0.010040041
-0.27013475 -0.057288438 -0.016629677
-0.28679752 -0.044930212 -0.018917184
0.3032164 -0.046545323 -0.017775862
-0.31076103 -0.037594981 -0.010846505
-0.30477011 -0.038082246 -0.014800592
-0.29473874 -0.034483097 -0.017756183
-0.29315138 -0.022240208 -0.012656531
-0.27150244 -0.022063393 -0.016276488
-0.26322207 -0.021755628 -0.017359953
0.25425026 -0.02087022 -0.013996216
0.2666347 -0.02341184 -0.014486276
0.28078824 -0.028366912 -0.015920486
-0.17123193 -0.013449148 -0.014401126
-0.13468045 -0.013676841 -0.015147313
-0.10305315 -0.01259565 -0.010651965
-0.08322826 -0.012954969 -0.012062139
-0.076069184 -0.013417419 -0.013896062
0.043702364 -0.014029248 -0.015561245
0.057255168 -0.014854307 -0.018711451
0.093792632 -0.013133276 -0.012229635
0.11970452 -0.013725005 -0.014751079
0.12269648 -0.012977113 -0.011474268
0.13496543 -0.014314719 -0.017334852
0.18958625 -0.014373392 -0.014906629
0.21727312 -0.016805289 -0.019196402
0.2343096 -0.016227327 -0.015513336
0.24345779 -0.11385584 -0.003616571
-0.088728629 -0.098653391 -0.005024394
0.010329249 -0.099388801 -0.0018377526
0.031251155 -0.099162355 -0.0027933605
0.10001087 -0.09937413 -0.0018665595
0.16201125 -0.098635405 -0.0051032184
0.19568419 -0.098590106 -0.0027539372
0.22998422 -0.09674415 -0.0085040526
0.28034663 -0.091278337 -0.0088331839
-0.19516261 -0.082715064 -0.0081332102
-0.18295112 -0.087051414 -0.0017746662
0.28861749 -0.089714557 -0.0016003527
0.3078621 -0.082195863 -0.0091388375
-0.24683654 -0.070369065 -0.0077013015
-0.25628126 -0.068120047 -0.0039515398
-0.30464715 -0.052536 -0.0025690263
0.30367881 -0.040939964 -0.0035446568
0.29305375 -0.032827105 -0.0040411185
-0.32386303 -0.023008486 -0.0035708796
-0.31588596 -0.021415137 -0.0061319694
-0.31303683 -0.018611953 -0.00057719502
-0.27259985 -0.012506182 -0.0046447301
-0.2415798 -0.014535537 -0.0037422241
-0.23331857 -0.013655731 -0.0013884195
-0.18885922 -0.010683354 -0.00061031006
-0.11255796 -0.011420857 -0.0060555479
-0.085358784 -0.010789744 -0.0034755669
0.014525296 -0.012385074 -0.0098021198
0.056828827 -0.010976907 -0.0042177946
0.065662988 -0.012081363 -0.0085253902
0.075171605 -0.010921284 -0.0037669369
0.10400957 -0.010321533 -0.00090946828
0.13563275 -0.011382344 -0.0046584927
0.15926361 -0.011928707 -0.0068807881
0.16918549 -0.012436165 -0.0089017246
0.20722243 -0.013281329 -0.0079758456
-0.30749589 -0.0088043222 -0.0018011712
-0.29636323 -0.004745943 -0.0039524664
-0.28982469 -0.0014722256 -0.0046447301
-0.26671579 -0.0023616597 -0.0046447301
-0.23644269 -0.0013290128 -0.0027449131
-0.2079283 -0.0034287386 -0.00031144242
-0.25299841 0.0055920519 -0.0028896788
-0.27349669 0.017902587 -0.0041206349
-0.23215961 0.01366611 -1.8247276e-05
-0.31691343 0.025003899 -0.00082996424
-0.27556264 0.026718903 -0.003582349
-0.30329224 0.03116847 -0.004065481
-0.27477053 0.034038179 -0.0029058675
-0.27006283 0.04972725 -0.001135613
-0.26102552 0.046718352 -0.00015224125
-0.30916312 0.059902988 -0.0035397215
-0.27650073 0.05426164 -0.0014540775
-0.26431391 0.055255439 -7.6396223e-05
-0.32342815 0.069866493 -0.0014116686
-0.2820794 0.064265624 -0.0012385739
-0.32551065 0.071172982 -0.00093043956
-0.31077039 0.075887069 -0.0032305187
-0.28246781 0.078567319 -0.00012287182
-0.30830145 0.087213501 -0.0030114546
-0.3216579 0.099960819 -0.0027646483
-0.3116408 0.096947834 -0.0028216962
-0.29784578 0.092572078 -0.00062682328
-0.30277419 0.10371595 -0.00024988549
-0.32607731 0.11784765 -0.0023542631
-0.33408216 0.122824 -0.00090553646
0.24497154 -0.11009637 0.00316115
0.2346469 -0.10189593 0.0088899862
-0.13350853 -0.093694881 0.0052414299
-0.10821448 -0.096614145 0.0090855248
-0.080896892 -0.098961942 0.003672204
-0.065390944 -0.098968759 0.0036423269
-0.044924729 -0.097559243 0.0098181712
-0.016919851 -0.099172242 0.0027506487
-0.0022798004 -0.098654106 0.0050208522
0.0057232091 -0.099391378 0.0033384368
0.068803594 -0.097780414 0.0088491961
0.083103105 -0.099770233 0.00013067486
0.10869205 -0.099139348 0.0028949117
0.13728894 -0.098397948 0.0061433599
0.16002235 -0.098086573 0.0075076469
0.198432 -0.097589359 0.0085419193
0.21508466 -0.098176867 0.0019450646
0.22411516 -0.097316846 0.0058665965
0.23574312 -0.097428262 0.0084926467
0.24704999 -0.099972397 0.0009871677
0.28038293 -0.09200611 0.0040719509
-0.2041429 -0.081684276 0.0033530742
-0.19799428 -0.083881855 8.9314803e-05
0.28631759 -0.089243457 0.0094434181
0.30479923 -0.084023945 0.0039998814
-0.21152081 -0.079952329 0.0033041248
-0.26446351 -0.064484507 0.0080953352
0.32593316 -0.051934443 0.0060491897
0.3372924 -0.059343353 0.0022951281
0.30288461 -0.040142834 0.00082950242
0.31273147 -0.044892691 0.0057610502
0.29075891 -0.030880027 0.0032206923
0.28738523 -0.029029673 0.00024392137
-0.26348907 -0.012978261 0.0032761251
-0.25359386 -0.011706825 0.0046447399
-0.23548909 -0.014994167 0.0094760964
-0.22657859 -0.010862775 0.0046447399
-0.21068247 -0.012853618 0.0057893321
-0.18042076 -0.012325747 0.0093365181
-0.12196006 -0.010679135 0.0030273064
0.011990746 -0.010577308 0.0026327842
0.13376272 -0.012049995 0.007411988
0.15560102 -0.011093829 0.0032225293
0.1700815 -0.012283308 0.0081227701
0.21542381 -0.012670903 0.0043030283
-0.31472099 -0.0085960506 0.00023175534
-0.28694689 -0.00050740899 0.0046447399
-0.24022447 -0.0054838723 0.0045477729
-0.23346975 -0.0021743691 0.0027131843
-0.22885799 -0.0067814179 0.0037749945
-0.29483181 0.0031265791 0.0041574705
-0.28498548 0.0078065712 0.0045477469
-0.24398853 0.007195645 0.0018006847
-0.2383191 0.005453133 0.0013381003
-0.24189384 0.019287074 0.00059936353
-0.2645162 0.027627951 0.0023328443
-0.24712801 0.02179604 0.00095359609
-0.25957945 0.035207987 0.0011939828
-0.29340416 0.062781766 0.0029155379
-0.27894428 0.067440972 0.0006476405
-0.30635381 0.074877709 0.0032499884
-0.28832167 0.075663559 0.00098068407
-0.33086514 0.089852244 0.00040108556
-0.32542959 0.086671777 0.0017250552
-0.3180944 0.11051564 0.0025602814
-0.12640706 -0.093099087 0.012522303
-0.016686711 -0.095616415 0.018330678
-0.008032551 -0.097351961 0.010726376
0.015251914 -0.096061602 0.016380057
0.0643517 -0.096908219 0.012670714
0.081437781 -0.098187268 0.011856024
0.11541635 -0.097175106 0.011501272
0.15092658 -0.09575472 0.017724674
0.19537289 -0.096961744 0.011405047
0.24418168 -0.094642088 0.014458279
0.26909512 -0.091809258 0.015045434
-0.19079384 -0.081879713 0.01629355
-0.17902371 -0.084695645 0.014738761
-0.16147974 -0.086577818 0.018005606
-0.2887786 -0.043495376 0.018792767
0.30371422 -0.04611028 0.01676793
0.31174561 -0.047367342 0.01244276
-0.30387294 -0.033111162 0.015039133
0.2842283 -0.030688381 0.016858727
-0.30568391 -0.02999416 0.014420751
-0.25793868 -0.02005427 0.01616412
0.25228503 -0.020231228 0.01612833
0.26743329 -0.024669558 0.016433762
-0.26648957 -0.017220289 0.01099022
-0.23553644 -0.016487176 0.014881435
-0.20407942 -0.014000619 0.0123125
-0.18090369 -0.012591765 0.010494602
-0.17661288 -0.014888874 0.018600591
-0.16574936 -0.01420781 0.017457008
-0.041194968 -0.014583819 0.018521709
-0.016609749 -0.01412135 0.016687661
0.02456083 -0.014988645 0.019079728
0.053802259 -0.013916947 0.015877044
0.14125454 -0.013845336 0.015278307
0.17395633 -0.012994898 0.010769063
0.18974832 -0.013525001 0.011169887
0.22277014 -0.015208541 0.01452662
-0.093908593 -0.09181913 0.022956466
-0.083873264 -0.091930047 0.022902487
0.011708196 -0.097244918 0.022822265
0.034448773 -0.097323537 0.022294303
0.14106993 -0.094379827 0.020070197
0.20719773 -0.092008337 0.021855991
0.23441508 -0.092497952 0.020802146
-0.17352544 -0.081469394 0.021913264
-0.16149919 -0.081325598 0.024251163
-0.15177943 -0.085130975 0.021424329
-0.14777786 -0.08496163 0.02234152
-0.13913432 -0.082726285 0.026507121
-0.12828903 -0.088612027 0.021646686
-0.02399623 -0.087095805 0.029812427
0.046763081 -0.087435655 0.028777506
0.070981264 -0.088250697 0.027755529
0.13217467 -0.089250147 0.026502315
0.195824 -0.088020205 0.026815429
0.21633105 -0.084801547 0.029960714
0.23062254 -0.084746271 0.029597852
0.25595778 -0.084603556 0.025643084
0.26207364 -0.0841019 0.02505015
-0.17753819 -0.075646654 0.028494922
0.29184157 -0.067337774 0.028099084
-0.2636705 -0.052541997 0.023214608
-0.25836822 -0.057751566 0.021828203
0.29485077 -0.050935939 0.025744993
0.3111617 -0.059440032 0.020333692
-0.26307771 -0.040529296 0.028623266
-0.27340147 -0.038172584 0.023140932
-0.26735583 -0.036428347 0.024748588
-0.24471641 -0.031197906 0.027840815
-0.23498948 -0.031094491 0.02892961
-0.2928043 -0.029949261 0.027974335
-0.28849313 -0.029670522 0.022978351
-0.25808382 -0.026713621 0.023553614
-0.16416153 -0.02030427 0.025449237
-0.12089184 -0.022558253 0.028477959
0.004449849 -0.020661384 0.026193086
0.078043871 -0.020823937 0.026396627
0.20444807 -0.022261955 0.026595922
0.24318919 -0.022514882 0.022498801
-0.18238059 -0.018467989 0.023061609
-0.17613281 -0.01695329 0.021191489
-0.064970151 -0.019868277 0.025198512
-0.013381925 -0.019816065 0.02513318
0.0081031416 -0.019213911 0.024378115
0.035850309 -0.017016418 0.021622289
0.046887226 -0.018843919 0.023914082
0.21860179 -0.01760366 0.020139918
0.22388746 -0.019093448 0.021778323
0.048640322 -0.093030319 0.034960639
0.07000386 -0.093396001 0.03412972
-0.11147365 -0.081177227 0.033351921
-0.05552743 -0.082590856 0.033664405
-0.01318405 -0.089513913 0.036661174
0.014997633 -0.083321318 0.033404712
0.023054574 -0.081944622 0.034217425
0.11331262 -0.084989674 0.031844534
0.15934309 -0.084095791 0.03296537
0.19441012 -0.08108224 0.034022931
-0.17071587 -0.074910127 0.03064248
-0.1372765 -0.07071206 0.036136098
-0.10557052 -0.076663822 0.03585238
-0.089386746 -0.074578725 0.037229449
-0.078815371 -0.07226032 0.038343828
-0.064212546 -0.07101962 0.038992122
-0.041379925 -0.074265391 0.037650451
-0.033613369 -0.073528558 0.038030203
0.00049391761 -0.07701613 0.036521494
0.030048162 -0.076905444 0.036665734
0.069348589 -0.079332009 0.035593327
0.074962646 -0.075475022 0.037450798
0.080762528 -0.072116554 0.039068181
0.09744674 -0.079698823 0.036855228
-0.1932472 -0.061071634 0.036316689
-0.18177319 -0.066833772 0.035270199
-0.1703369 -0.064846642 0.037183218
-0.14743447 -0.068797126 0.03623068
0.0063436516 -0.069927514 0.039897744
-0.20371902 -0.059124604 0.035131335
-0.19568567 -0.056009661 0.038062006
0.23660658 -0.055187263 0.039606333
0.24208298 -0.054562505 0.038621671
0.25253755 -0.055163585 0.036741771
0.27529925 -0.05921185 0.032648705
0.28256842 -0.054114465 0.030908983
-0.23774812 -0.04216864 0.031848352
-0.22511415 -0.048489746 0.03371492
-0.19276245 -0.040839117 0.038493786
0.24588464 -0.041058999 0.036208104
-0.24375723 -0.039766345 0.037186753
-0.21065348 -0.035329513 0.033844046
-0.20273417 -0.030589452 0.032320336
-0.19411267 -0.034388755 0.035237692
-0.17705229 -0.036253955 0.037544116
-0.14491427 -0.032940608 0.036251284
-0.062030192 -0.037326921 0.038723994
0.020699661 -0.035697803 0.037939444
0.032648318 -0.033602491 0.036930375
0.047892485 -0.03474107 0.037478726
0.058526065 -0.03152578 0.035930376
0.074566871 -0.030915502 0.035636559
0.091882415 -0.039090596 0.039573424
0.18702644 -0.032420702 0.035775162
-0.291886 -0.028989354 0.032088809
-0.18561347 -0.026175432 0.032005567
-0.1782428 -0.026051372 0.032318443
-0.10668094 -0.026802862 0.033591766
-0.064098507 -0.024908094 0.031518191
0.068556428 -0.026269495 0.033225231
0.074818052 -0.027896121 0.034182455
0.10572409 -0.025483206 0.032239411
0.11193848 -0.028339516 0.034395944
0.19492513 -0.026898909 0.032823998
0.20762372 -0.026406819 0.031655628
-0.025794918 -0.079233795 0.040825147
-0.11178904 -0.063258931 0.041539587
-0.1029138 -0.063549787 0.041736253
-0.018727053 -0.067898244 0.042267259
-0.0057474207 -0.067319974 0.041011892
0.0061942879 -0.064553112 0.048873171
0.026659586 -0.069279 0.040310238
0.032796178 -0.069900244 0.040047787
0.083705045 -0.067790501 0.041151546
0.19942969 -0.064557135 0.04091892
-0.16188183 -0.053609766 0.040429607
-0.1314981 -0.058410585 0.041102864
-0.097123817 -0.054784868 0.041783001
-0.083419286 -0.054828074 0.041783001
-0.014501753 -0.055268899 0.041783001
0.029287316 -0.052577104 0.041783001
0.042475186 -0.051932834 0.041783005
0.057844065 -0.057016566 0.041783001
0.10134578 -0.056369692 0.041782998
0.12872228 -0.055161014 0.041783001
0.15565977 -0.053043388 0.041783005
0.16306837 -0.058995914 0.041783001
0.18436816 -0.054958038 0.041326795
0.19361487 -0.050235745 0.041076388
-0.18117368 -0.041326325 0.040002245
-0.068555199 -0.044075452 0.041783001
-0.012942327 -0.047050189 0.041783001
-0.0054862793 -0.046090361 0.041742206
0.046472941 -0.042509217 0.041219581
0.069024399 -0.041507464 0.040737212
0.098257229 -0.042716037 0.041319299
0.10915858 -0.047852516 0.041783001
0.12506261 -0.044661839 0.041783001
0.19833302 -0.046063118 0.040948618
-0.30674112 -0.031228941 0.042803671
-0.28899491 -0.03637189 0.04512196
-0.27500069 -0.026324049 0.046260849
-0.26676309 -0.026226375 0.045871444
-0.25347877 -0.026563577 0.040053714
0.029563954 -0.11561208 0.059845991
0.020398922 -0.10248026 0.054016799
0.0035290634 -0.082245544 0.055323578
0.015526867 -0.083222814 0.053867728
0.075445011 -0.083589487 0.053124484
-0.0033452101 -0.064767621 0.05498052
0.0051033152 -0.064256907 0.054703392
0.060043178 -0.062749445 0.058784731
-0.24868734 -0.031631593 0.055211645
-0.26492238 -0.02553454 0.052812677
0.021171911 -0.11112569 0.066163301
0.017656475 -0.10691106 0.066163301
0.005262509 -0.08127065 0.062256161
0.027711805 -0.082654282 0.063596532
0.047729515 -0.08299502 0.064716928
-0.017903212 -0.077307805 0.069579318
0.012606774 -0.063390262 0.061065942
0.06666486 -0.062975116 0.061524194
-0.3077856 -0.027333092 0.065947339
-0.29518056 -0.025155835 0.061979622
-0.27000496 -0.024218298 0.067492083
0.057111308 -0.080936521 0.074478373
-0.027536787 -0.071617395 0.079733044
-0.0028897482 -0.078271508 0.078189895
0.030950567 -0.060392153 0.079894014
0.048748355 -0.06163986 0.076247022
-0.29508275 -0.023819497 0.075980932
-0.008613443 -0.077249721 0.082440019
0.033124123 -0.079217672 0.089813724
0.047397487 -0.079339162 0.086953491
-0.010451946 -0.063539535 0.081736043
0.0029460397 -0.062759787 0.0808139
0.021680169 -0.060715728 0.082068466
-0.30306935 -0.030044507 0.086047001
-0.29544976 -0.030732919 0.085389614
-0.28166941 -0.031311184 0.088593625
-0.27500603 -0.029045757 0.088901699
-0.0072988821 -0.074928842 0.099229895
0.03319411 -0.078824282 0.092175454
0.056111466 -0.072168007 0.098458856
-0.01967521 -0.06471625 0.095111988
-0.29485616 -0.030108593 0.090663433
-0.31323501 -0.022875076 0.099924088
-0.30398747 -0.022053579 0.096033685
0.045473173 -0.10061255 0.1074318
0.075721718 -0.10303053 0.10977164
0.022117907 -0.093894042 0.10735084
0.046537913 -0.094588831 0.10514708
0.078362495 -0.092246324 0.10700949
0.056056067 -0.089689597 0.10487993
-0.018394129 -0.072626695 0.10539115
0.023765026 -0.077319659 0.10249992
-0.032586679 -0.067741804 0.10983226
-0.0032412554 -0.060980849 0.10403946
0.0004851413 -0.060086437 0.10721232
0.03096365 -0.059316397 0.10883683
-0.28659764 -0.025555341 0.10149529
0.02929429 -0.10421157 0.11267447
0.056911491 -0.10485105 0.11087283
-0.0023179958 -0.094843127 0.11298124
0.011464272 -0.097368956 0.11824284
0.01018386 -0.08636383 0.11703892
0.010085206 -0.075678214 0.11209486
0.023905203 -0.079502545 0.11255977
0.038490716 -0.073347092 0.11782618
0.041927025 -0.074434191 0.11929516
0.057868034 -0.075885609 0.11418537
-0.026782021 -0.063161917 0.11473827
-0.0025600058 -0.058886893 0.11736946
0.01682643 -0.058191538 0.11241829
0.034218151 -0.059428565 0.11089338
-0.30484998 -0.020169318 0.11594662
-0.29362905 -0.022139233 0.11761651
0.057074767 -0.10418612 0.12592775
0.061494268 -0.10930345 0.12262096
-0.015460144 -0.091627963 0.12217438
0.014769047 -0.097421572 0.12426871
0.065570638 -0.09036839 0.12798527
0.00051262497 -0.082960926 0.12920822
0.070045374 -0.089951038 0.12402431
-0.0023947556 -0.072976723 0.12729013
0.026489783 -0.075879142 0.12443219
0.03146616 -0.074073188 0.12172777
0.043479688 -0.073115207 0.120331
0.05514235 -0.074094325 0.12255645
0.076423883 -0.07562644 0.12559895
0.037987709 -0.062248968 0.12135876
-0.018474497 -0.059389681 0.12572682
0.014868537 -0.057569269 0.12207012
-0.32624179 -0.022032741 0.12756881
-0.30296889 -0.025468986 0.1203163
0.053193808 -0.10129682 0.13692451
0.060380649 -0.10689647 0.13087779
0.072357833 -0.10076961 0.13692924
-0.0056399275 -0.093025416 0.1319996
0.0036377651 -0.092405125 0.13385659
0.062631883 -0.093257956 0.13993001
0.0096808821 -0.084675796 0.13297507
0.015819125 -0.083501779 0.1343201
0.0065399888 -0.072216488 0.13677381
0.056591295 -0.077882126 0.13361502
0.065337338 -0.076904386 0.13213772
-0.010173753 -0.057401311 0.13276821
0.026653102 -0.058220733 0.13509913
-0.3228718 -0.019602271 0.13401034
0.013084771 -0.070454672 0.14688194
-0.038606592 -0.066693388 0.14900556
-0.024155799 -0.056367949 0.1498533
-0.30999523 -0.021580741 0.14117257
-0.022245992 -0.068164274 0.15741488
-0.012024354 -0.068974659 0.15954161
-0.0083595421 -0.069515087 0.15571514
-0.0092733596 -0.054121625 0.15815195
0.0075331349 -0.055603087 0.15106376
0.0030496437 -0.067628548 0.16593125
-0.030249979 -0.069176577 0.1737726
-0.02964679 -0.06821394 0.17374529
-0.043662183 -0.054274913 0.17799094
-0.0095094964 -0.053170428 0.17651244
-0.024473958 -0.065113813 0.18543851
-0.00047930609 -0.063243367 0.18185297
-0.05107322 -0.05359859 0.18789609
-0.0054270569 -0.054876328 0.18927608
-0.023714859 -0.063952491 0.19260244
-0.0078565404 -0.063553162 0.1902447
-0.024161875 -0.051504672 0.19003621
-0.070077643 -0.055568717 0.20008934
-0.065492801 -0.053065583 0.20437573
-0.035342354 -0.05009098 0.2031551
-0.02501207 -0.05072514 0.20422398
-0.041575611 -0.060262654 0.21810579
-0.076708846 -0.055148017 0.21808931
-0.067467876 -0.050865725 0.21797621
-0.057743005 -0.059236154 0.21501291
-0.054319806 -0.049763303 0.21560834
-0.042791087 -0.049018003 0.2160438
-0.059390076 -0.061056282 0.22338918
-0.076253861 -0.051715795 0.22355078
-0.045843668 -0.058560964 0.22935568
-0.054762837 -0.048256885 0.22618578
-0.042584896 -0.048269145 0.22943699
-0.039703287 -0.048498143 0.22871248
-0.065861605 -0.056327201 0.23820548
-0.029258585 -0.053848136 0.23228613
-0.050925497 -0.047310401 0.23734203
-0.040381372 -0.048332293 0.23108056
-0.064870439 -0.055809092 0.24546562
-0.051120523 -0.055207387 0.25104472
-0.065049216 -0.052780367 0.2681371
-0.055317983 -0.045643017 0.26190728
-0.080200516 -0.043822035 0.27527779
-0.10306458 -0.046276223 0.28335381
-0.099259637 -0.048434224 0.28957492
-0.080631338 -0.043032575 0.28243837
-0.10768778 -0.046325278 0.29421985
-0.092415899 -0.048671775 0.29257843
-0.094978943 -0.047551006 0.30223945
-0.083436772 -0.046028942 0.31027842
-0.12506026 -0.041521642 0.32622331
-0.09562467 -0.040029585 0.32006565
-0.1101687 -0.03971763 0.32421461
-0.10600122 -0.039596885 0.32290202
-0.11768094 -0.042325888 0.3360455
-0.11662083 -0.038671844 0.33603835
-0.10989688 -0.041190341 0.34663251
-0.1211219 -0.03805992 0.34335238
-0.11728477 -0.039300181 0.34697899
