# .PCD v0.7 - Point Cloud Data file format
VERSION 0.7
FIELDS x y z
SIZE 4 4 4
TYPE F F F
COUNT 1 1 1
WIDTH 857
HEIGHT 1
VIEWPOINT 0 0 0 1 0 0 0
POINTS 857
DATA ascii
-0.074244902 -0.029208357 -0.34043759
-0.080768511 -0.027705951 -0.32240602
-0.084616482 -0.028905675 -0.31876478
-0.079129294 -0.027299339 -0.31071189
-0.052487411 -0.025345104 -0.30205455
-0.053274613 -0.02999761 -0.29752174
-0.046496734 -0.023442864 -0.28316855
-0.050816793 -0.030469861 -0.27184308
-0.082505532 -0.029354235 -0.27253219
-0.034757931 -0.024855293 -0.27322838
-0.075010777 -0.029636944 -0.26947781
-0.069154233 -0.027488863 -0.26454675
-0.061455552 -0.03017311 -0.25435951
-0.04484693 -0.030724313 -0.25800723
-0.027674617 -0.030156299 -0.25720242
-0.036483556 -0.030909123 -0.24795824
-0.029024225 -0.030641193 -0.24771339
-0.071995623 -0.025402833 -0.24892172
-0.065435275 -0.024223352 -0.2405605
-0.012486573 -0.025773102 -0.24509096
-0.058406875 -0.030335821 -0.23469427
-0.062811375 -0.023752265 -0.23727334
-0.071681082 -0.029871298 -0.22612795
-0.020806909 -0.020472627 -0.22949564
-0.030230595 -0.018637646 -0.22645396
-0.0046120556 -0.030550776 -0.21371539
-0.077020824 -0.029694166 -0.21892524
0.012564436 -0.026397627 -0.2112941
-0.078472227 -0.029625688 -0.20336327
0.018121248 -0.026311826 -0.20261593
-0.06838803 -0.030030867 -0.19233163
-0.033761293 -0.031334091 -0.19815663
-0.021634471 -0.031799398 -0.1901755
-0.091655374 -0.028794123 -0.19255891
-0.072496124 -0.02679453 -0.19412225
0.022103805 -0.02753387 -0.19735478
-0.036650516 -0.018936796 -0.19431603
-0.060451709 -0.030348513 -0.18301567
-0.057236388 -0.030483404 -0.1824266
0.005438847 -0.031135634 -0.18498094
-0.068564773 -0.024454502 -0.1862489
0.041933343 -0.029004715 -0.18143491
-0.0080229715 -0.015651627 -0.18518241
0.0045510717 -0.018227929 -0.18013477
-0.051092874 -0.03072181 -0.1713724
-0.0098658763 -0.032273933 -0.17355976
0.0049350681 -0.031733796 -0.17155647
0.0092630982 -0.018641729 -0.17533816
0.013675589 -0.019175271 -0.17161556
-0.045116395 -0.030964246 -0.16601747
-0.024642102 -0.031752139 -0.16584259
-0.087191254 -0.028217455 -0.16139707
-0.0028743679 -0.013266115 -0.1615265
-0.062280804 -0.030213874 -0.15361972
-0.013782827 -0.03217553 -0.15610123
-0.0088123772 -0.032358896 -0.15566832
0.029655833 -0.030739814 -0.15850672
-0.071035616 -0.029841213 -0.15246694
-0.060408063 -0.023206852 -0.15145281
-0.0038165774 -0.013302751 -0.15911318
-0.03176694 -0.03148213 -0.14191672
0.011127245 -0.032571934 -0.14253435
-0.28286168 -0.028170539 -0.14480425
0.051294722 -0.024619125 -0.14459181
-0.026096817 -0.016715992 -0.14692105
-0.064082146 -0.030108403 -0.13859719
-0.032845333 -0.031420402 -0.13365051
-0.023896771 -0.03179542 -0.13180333
-0.011403346 -0.032305606 -0.13956343
0.02561882 -0.032027468 -0.13397913
-0.28107962 -0.027542125 -0.13334586
-0.25411451 -0.027496561 -0.132515
-0.24157873 -0.027815593 -0.13039473
-0.059176281 -0.023145249 -0.13172323
-0.043811776 -0.020156 -0.1391288
0.044233344 -0.021702822 -0.13968799
0.060767617 -0.029907163 -0.13217387
0.071025625 -0.02919282 -0.13391036
0.0097470675 -0.011903208 -0.13913602
0.020460706 -0.014297714 -0.13588518
-0.29128015 -0.032216579 -0.12096281
-0.23794331 -0.030819049 -0.12464857
-0.062573709 -0.030152643 -0.12854174
-0.028443851 -0.031597305 -0.1288628
0.0056667943 -0.032972533 -0.12371591
-0.26431912 -0.027050963 -0.12439001
-0.25694194 -0.027168937 -0.12654112
-0.22654577 -0.029447448 -0.12109216
-0.08517158 -0.028714117 -0.12680064
-0.069190197 -0.029866878 -0.12555385
-0.057266004 -0.022871301 -0.12149134
0.061826795 -0.024679555 -0.1293183
0.075032428 -0.027893398 -0.12669298
-0.032995537 -0.018194797 -0.12800153
-0.01727039 -0.015262764 -0.12104078
-0.290223 -0.031055542 -0.11415853
-0.26711631 -0.032559641 -0.11510695
-0.2334246 -0.03141414 -0.11690205
-0.057007175 -0.030367849 -0.11811067
-0.0019147005 -0.032688707 -0.11292078
-0.30827513 -0.02938137 -0.11032052
0.015103643 -0.00944247 -0.11209212
-0.30793792 -0.030183047 -0.1026579
-0.086315632 -0.032801218 -0.10346887
-0.071857296 -0.031948879 -0.10477511
-0.061273389 -0.032200977 -0.10204238
-0.045585517 -0.031405509 -0.10291499
-0.30377349 -0.028909992 -0.10663304
-0.26975739 -0.026177533 -0.10846394
-0.25004593 -0.025848623 -0.1024667
-0.12318907 -0.025744081 -0.10084799
-0.11168468 -0.022322323 -0.10061695
-0.071980193 -0.020820009 -0.10202827
0.08800289 -0.026729159 -0.10136046
-0.059995074 -0.019669546 -0.10073544
-0.038278565 -0.018643834 -0.10100424
-0.02661074 -0.017139867 -0.10970334
0.04842177 -0.016310725 -0.10509215
-0.23799056 -0.033864647 -0.092173226
-0.1031888 -0.034781728 -0.094806515
-0.081642009 -0.033986237 -0.097740814
-0.056631476 -0.033941619 -0.093979582
-0.044934869 -0.033320419 -0.094748572
-0.021046173 -0.031921424 -0.097108305
0.035715945 -0.033050012 -0.09480764
-0.30447096 -0.028117046 -0.098625846
-0.24295267 -0.025675092 -0.099302508
-0.12623614 -0.024598787 -0.099124581
0.077959046 -0.023223378 -0.097767659
-0.094612516 -0.018865431 -0.094291583
-0.042695567 -0.017093604 -0.096611932
-0.011499741 -0.014180634 -0.093447931
0.068134122 -0.019036587 -0.090264514
-0.30915147 -0.031479996 -0.085908353
-0.27367276 -0.035430204 -0.086512946
-0.18714252 -0.033062145 -0.085000813
-0.1425356 -0.033287678 -0.087003611
-0.100895 -0.038580693 -0.081433602
-0.033224992 -0.035438046 -0.083982319
0.011184935 -0.034090899 -0.08264292
0.065567829 -0.031481769 -0.087765798
-0.16554371 -0.024631292 -0.080269977
-0.15273528 -0.028570436 -0.08413668
0.099095881 -0.025837358 -0.080242015
-0.15156089 -0.017123068 -0.082656302
-0.12276171 -0.018221814 -0.089077026
-0.10486823 -0.01489406 -0.08317598
-0.081903525 -0.012816557 -0.08101172
-0.051152952 -0.012889973 -0.085155271
-0.036957145 -0.013268394 -0.087917782
-0.018348975 -0.0096321609 -0.081348062
0.012957884 -0.0090661291 -0.086037979
0.022375192 -0.0080299862 -0.08530397
-0.26491261 -0.034770302 -0.073314831
-0.25017893 -0.032749001 -0.070040658
-0.23551062 -0.032749001 -0.07883998
-0.22138672 -0.032749001 -0.072528347
-0.20654644 -0.034424126 -0.076475345
-0.19108884 -0.033926252 -0.07700371
-0.17920682 -0.034146823 -0.070974164
-0.16054702 -0.031021902 -0.0799729
-0.14778428 -0.035284109 -0.078154862
-0.096970975 -0.039807249 -0.075649001
-0.080877066 -0.038208909 -0.079838395
-0.074620403 -0.03803312 -0.079590738
-0.010119393 -0.037525684 -0.071542963
-0.22538021 -0.029338144 -0.0799729
-0.181352 -0.026030034 -0.0799729
-0.17613158 -0.02950995 -0.079972908
0.11886898 -0.029236553 -0.074861206
-0.14751974 -0.014937453 -0.073381521
-0.11283196 -0.013356814 -0.076291278
-0.074499391 -0.011377742 -0.076425336
-0.069831051 -0.011272391 -0.077204771
0.045775745 -0.010800025 -0.079989485
0.071065441 -0.015377251 -0.075474665
0.091057524 -0.019350329 -0.072545104
-0.0036411118 -0.0072166091 -0.073845133
0.030885685 -0.0060275611 -0.076680169
-0.14397265 -0.040626269 -0.060429055
-0.063466251 -0.04185883 -0.061719492
-0.033210207 -0.040180981 -0.064007528
-0.31153488 -0.030676771 -0.062576748
-0.30085325 -0.0315689 -0.065760143
-0.29422867 -0.036895838 -0.063965373
-0.27466249 -0.032749001 -0.061490845
-0.23447174 -0.035933837 -0.069010668
-0.2234115 -0.032749001 -0.065457135
-0.2175156 -0.032749001 -0.06101077
-0.15670452 -0.037729345 -0.066486344
-0.031010553 -0.039653793 -0.065880202
0.0063444534 -0.037386734 -0.069528461
0.048429992 -0.037826419 -0.064148143
0.11644344 -0.021968015 -0.064507924
-0.2196123 -0.016481001 -0.060911864
-0.16891608 -0.016481001 -0.069549479
-0.1566883 -0.016062669 -0.060196795
-0.094738409 -0.010621849 -0.066225573
-0.088909604 -0.0096710259 -0.062590547
-0.068071865 -0.0084880153 -0.06206058
-0.03171283 -0.0067520197 -0.062981866
-0.021034461 -0.0058276425 -0.060920849
-0.014591604 -0.0059795785 -0.063668959
-0.0049552582 -0.0064624017 -0.069216743
0.040121391 -0.0056264349 -0.069738075
0.062059257 -0.0097374395 -0.069946758
-0.1010873 -0.045300636 -0.05316636
-0.030369043 -0.041867863 -0.056455474
-0.017662082 -0.042266604 -0.053512186
0.031461261 -0.043305531 -0.050006781
-0.32644036 -0.03037641 -0.05616755
-0.31841311 -0.030536436 -0.053523239
-0.27200741 -0.038527206 -0.05295936
-0.26149058 -0.032749001 -0.055930439
-0.24506935 -0.037310954 -0.057598915
-0.20629822 -0.037498809 -0.050240461
0.069003493 -0.038073961 -0.059241328
0.087430589 -0.038695008 -0.052742478
-0.19951651 -0.020547882 -0.052183256
0.12865147 -0.020065011 -0.055019226
0.14045411 -0.021025009 -0.050825376
0.1555493 -0.029074658 -0.057168745
-0.20856 -0.019265056 -0.057455454
-0.072805136 -0.0077322493 -0.056418568
-0.04389555 -0.0058028214 -0.054062508
0.032721117 -0.0028458298 -0.056450509
0.081232235 -0.0060169054 -0.051568016
-0.27751452 0.04783896 -0.053977374
-0.26817882 0.042730372 -0.050815586
-0.25439647 0.043680355 -0.052938715
-0.246968 0.042587191 -0.052617621
-0.26321018 0.053064719 -0.056177221
-0.24309385 0.053274333 -0.056368403
-0.15432082 -0.044263348 -0.044046458
-0.045559295 -0.045977332 -0.041807376
-0.038486846 -0.04452638 -0.046542283
-0.30983138 -0.034918897 -0.047590151
-0.28534254 -0.039887983 -0.042568937
-0.27941343 -0.032749001 -0.046041988
-0.24263936 -0.03571067 -0.045661148
-0.23550645 -0.035457991 -0.047228076
-0.22185445 -0.032749001 -0.042672656
-0.20680296 -0.032749001 -0.04381229
-0.19891801 -0.038892329 -0.048279658
0.10882016 -0.038414933 -0.043168157
0.11732015 -0.037193958 -0.043802585
0.15221997 -0.032655358 -0.044509068
-0.17783725 -0.023280814 -0.045475498
0.17112659 -0.027164347 -0.046408672
-0.17811787 -0.019757932 -0.045562323
-0.13741687 -0.013697576 -0.04677904
-0.12052508 -0.011624528 -0.047685329
-0.074165031 -0.0059349807 -0.042493507
-0.067558415 -0.0056591295 -0.046299919
-0.0051517822 -0.0019150709 -0.043581735
0.040724829 -0.0019807883 -0.047163762
0.072210178 -0.0037360466 -0.042144485
0.11176819 -0.0098018218 -0.045206629
-0.23157774 0.014989428 -0.041845962
-0.28108054 0.025311116 -0.0421407
-0.2784653 0.025559885 -0.042281974
-0.24462548 0.02866888 -0.045097865
-0.22735989 0.021088932 -0.044093058
-0.20214266 0.026074611 -0.042475533
-0.19555399 0.023902427 -0.040943787
-0.28177837 0.035156161 -0.047053277
-0.26270086 0.031637959 -0.047469463
-0.24386504 0.036340807 -0.047116198
-0.22613508 0.030519465 -0.046947312
-0.21350124 0.031196946 -0.045555901
-0.12379722 -0.050453316 -0.032209896
-0.28359979 -0.040756613 -0.032763332
-0.15802556 -0.04746243 -0.03143581
-0.13053197 -0.04840222 -0.037258536
-0.089499421 -0.049931791 -0.03183493
-0.061648749 -0.047816075 -0.036346607
-0.057549149 -0.047182377 -0.038367782
-0.02413407 -0.049569517 -0.030140409
0.022684464 -0.046592548 -0.039667692
0.039200187 -0.047932081 -0.033652525
0.084469691 -0.043744102 -0.03402438
0.093604192 -0.043178514 -0.031719729
-0.25166208 -0.039929993 -0.031699359
-0.24522606 -0.032749001 -0.039996035
0.1369071 -0.036325801 -0.037482109
0.14443254 -0.035713427 -0.036169186
-0.29710323 -0.025673758 -0.039986499
-0.21719664 -0.020841626 -0.039986499
-0.2035448 -0.020534949 -0.039986499
-0.18106402 -0.024198741 -0.039986499
-0.16614832 -0.020591171 -0.039986499
-0.28077114 -0.018070409 -0.039986499
-0.22974473 -0.013935999 -0.036296874
-0.18942918 -0.013833703 -0.03614857
-0.17333959 -0.013012707 -0.034958355
0.14661029 -0.014107487 -0.037715089
-0.25924519 -0.0022199783 -0.03069647
-0.21962537 -0.0033449898 -0.034695853
-0.20500508 -0.0017109213 -0.033970967
-0.072609909 -0.005744128 -0.035036981
-0.058818959 -0.0040516304 -0.033601329
0.057850156 -0.00091735157 -0.032104112
0.13419367 -0.0087752072 -0.036077201
-0.28169298 0.0081704846 -0.032841995
-0.24825656 0.0095746648 -0.03553059
-0.23881763 0.0071778041 -0.037818924
-0.16856238 0.0087589622 -0.03267549
0.018580785 0.0013380358 -0.032258924
-0.27314723 0.016795272 -0.038736828
-0.26768032 0.013579194 -0.035487905
-0.21062633 0.018187867 -0.037109174
-0.18929271 0.014795929 -0.036321983
-0.19533208 0.020990528 -0.039986111
-0.074828312 -0.050556481 -0.026981793
-9.6680596e-05 -0.051822413 -0.022930386
0.015815541 -0.050595619 -0.02685653
0.04879678 -0.050159153 -0.024605876
-0.27757239 -0.04088515 -0.029527055
-0.25225097 -0.040437005 -0.026472853
-0.16663752 -0.047841869 -0.027215874
0.083865874 -0.044838734 -0.029947285
-0.32544926 -0.033662122 -0.023496101
0.15593979 -0.038986146 -0.021997243
0.15805808 -0.022033053 -0.022967771
0.26458016 -0.028727774 -0.021224447
-0.29383326 -0.01749417 -0.022311706
-0.26772508 -0.014926791 -0.023752207
-0.25522357 -0.013363595 -0.023973888
-0.24771255 -0.013487209 -0.023636064
-0.23507428 -0.012209045 -0.022452932
-0.21445976 -0.01109526 -0.027042344
-0.20574841 -0.010468612 -0.026893029
0.082308799 -0.016553983 -0.021990189
0.099075444 -0.019183407 -0.023789665
0.11016811 -0.014545823 -0.021028021
0.16151084 -0.010040955 -0.026301065
0.19902857 -0.017827028 -0.027918275
-0.28483552 -0.003711028 -0.026641667
-0.23672751 -0.0042887619 -0.025662743
-0.1832698 -0.0088515254 -0.02102701
-0.14396681 -0.0063380217 -0.025281813
-0.092127301 -0.0076092612 -0.027124777
-0.074871697 -0.0058209049 -0.024532124
-0.052548982 -0.0032821461 -0.029110195
-0.040906735 -0.0018533485 -0.023104936
0.067894503 -0.00053695799 -0.024757938
0.094773367 -0.0025800653 -0.021950893
0.13569838 -0.0074071866 -0.027103525
0.16758868 -0.0098251868 -0.020090645
-0.20234661 0.0024795244 -0.028737281
0.014716638 0.0018637191 -0.028166477
0.056818798 0.00023524812 -0.025578139
-0.18401238 -0.050761268 -0.011043076
-0.13621151 -0.053532336 -0.017123017
-0.046917461 -0.055462684 -0.01128028
-0.027923828 -0.054258391 -0.015134429
0.011826211 -0.053857632 -0.016416987
0.076063417 -0.05068218 -0.010773537
-0.25493309 -0.044216909 -0.010674044
-0.23443276 -0.046245642 -0.010293475
-0.20589015 -0.046459354 -0.019047771
0.13799682 -0.044875022 -0.010777556
0.26266304 -0.030840121 -0.017041473
-0.34079069 -0.028808789 -0.013459186
-0.32115102 -0.023643028 -0.014969785
0.080337435 -0.014456986 -0.01863542
0.12032419 -0.012136723 -0.019447662
0.20226988 -0.014258018 -0.015672995
0.2153856 -0.014390014 -0.014946504
0.25584835 -0.018737592 -0.012232675
-0.15271957 -0.0066539329 -0.019930607
-0.12191633 -0.0044382326 -0.013209939
-0.10492419 -0.0032159006 -0.01806378
0.09439005 -0.0053369086 -0.015161035
0.10892422 -0.0034024948 -0.0185907
0.12479176 -0.0072982009 -0.017189287
0.15481067 -0.0082066301 -0.018220598
-0.036463983 0.001708583 -0.01344461
0.0028512646 0.0026963202 -0.019996211
0.03069461 0.003985228 -0.01573034
0.057154398 0.0015557238 -0.016841216
0.066099077 0.0011720835 -0.01373606
-0.17026225 -0.054515302 -0.0022773659
-0.116736 -0.058532603 -0.0014555182
-0.095973969 -0.058171257 -0.0026119272
-0.044392832 -0.056182321 -0.0089772018
-0.032506533 -0.058458049 -0.001694112
0.016738677 -0.058186185 -0.0025641606
0.053302843 -0.05616245 -0.0018480039
0.095430382 -0.05001507 -0.0077109048
0.14754231 -0.045385875 -0.0070287283
0.20031372 -0.040470697 -0.0069444375
-0.322595 -0.036299102 -0.0022189568
-0.31247899 -0.038318984 -0.0049613789
0.25631005 -0.036597073 -0.003276113
0.26180029 -0.036622379 -0.0018360527
0.32028344 -0.029828602 -0.0053339791
-0.30409762 -0.019804541 -0.0051759421
-0.27538267 -0.01547757 -0.0098724598
-0.2314793 -0.012319474 -0.0034356853
0.24620819 -0.015989562 -0.0091779446
0.26055503 -0.018061584 -0.0086254859
-0.11393414 -0.0037397777 -0.0057380097
-0.081175409 -0.0015076982 -0.0054736966
-0.072629318 -0.00089292432 -0.008996414
-0.067877784 -0.00045606177 -0.0052093025
-0.059218682 7.1733375e-05 -0.0084059667
-0.027821867 0.0024592658 -0.0049910224
0.03273366 0.0054397322 -0.0057508666
0.077883475 0.0093250535 -0.0059072245
0.13990897 0.009070944 -0.0057442854
0.19665772 0.00033064932 -0.0051051537
0.12529255 0.013388355 -0.0038695559
0.1622315 0.010109739 -0.0029566898
-0.15271473 -0.056656618 0.00051217061
-0.079871066 -0.058122076 0.0027693103
-0.014463314 -0.057618245 0.0043817405
0.01365868 -0.057096407 0.0060517793
0.078378923 -0.052945279 0.004158969
-0.21878909 -0.048005454 0.0092502637
0.1254863 -0.047007516 0.0082177948
0.22395037 -0.040636469 0.0005931154
0.2185322 -0.03997077 0.0037230197
0.23990253 -0.035815664 0.0094618984
0.25868103 -0.035578381 0.0054001072
-0.33397233 -0.026528927 0.0018034502
-0.30865085 -0.020829407 0.0029630498
0.30969483 -0.029844113 0.0079396805
0.31796798 -0.024250522 0.0011007538
0.32045037 -0.029958148 0.0049466845
-0.2403793 -0.01295965 0.0062555401
0.26523152 -0.018277833 0.0072849574
-0.18893118 -0.0092588672 0.0041909213
-0.077645846 -0.0012538084 0.0052752565
-0.05958917 4.5059714e-05 0.0057063191
-0.026912594 0.0023955861 0.0072747837
-0.010561198 0.0039286721 0.0032387795
-0.0013566427 0.0046059587 0.0033135193
0.027636111 0.0061870455 0.0056348885
0.045513708 0.0028817519 0.0070650475
0.057361748 0.0095139164 0.0055817775
0.17602818 0.0059092827 0.0041905153
-0.16887131 -0.051091544 0.014915654
-0.1441741 -0.05287458 0.016807733
-0.098945007 -0.054247737 0.015168432
0.026324481 -0.055155072 0.012264685
0.030543376 -0.055229496 0.012026495
-0.28893232 -0.042654067 0.014171588
-0.26364473 -0.041592769 0.01766873
-0.24763063 -0.04466249 0.011523738
-0.17543343 -0.049269252 0.019208239
0.10475214 -0.045872319 0.016428849
0.13500974 -0.041847698 0.019597871
0.15102167 -0.04021978 0.019936467
0.18139106 -0.040402137 0.011857827
-0.34403408 -0.030654566 0.010955136
0.22358486 -0.033975817 0.018448029
0.24433279 -0.034551255 0.011726432
0.25853258 -0.031761158 0.015617526
0.26097986 -0.031526156 0.015632438
-0.31432134 -0.022105763 0.010559964
-0.29691494 -0.018187819 0.014503093
-0.28041008 -0.015839212 0.012196146
-0.26326585 -0.01460596 0.015408909
-0.2545549 -0.013979346 0.012297725
-0.22326663 -0.011728657 0.010945104
-0.21840149 -0.011378688 0.014813632
-0.20043865 -0.010086549 0.018807765
0.074314356 -0.012072474 0.019131351
0.19418198 -0.016410712 0.017437607
0.20057151 -0.017465534 0.01766762
0.24905263 -0.019824259 0.017188122
-0.19569044 -0.0097449915 0.018251006
-0.14469792 -0.0060769152 0.019903725
-0.099576332 -0.0028312844 0.010135969
-0.067680255 -0.0012804652 0.017949438
0.053020701 -0.0050115837 0.014539676
0.10492676 -0.0030344643 0.0185619
0.12369296 -0.0046707019 0.016588217
0.13825798 -0.001947972 0.012340968
0.16249405 -0.0088396156 0.014917497
0.19019653 -0.0040064431 0.010369448
-0.033417154 0.0010385675 0.014587333
0.001921786 0.0034027915 0.015492151
0.045003295 0.0028846813 0.01524017
-0.12504345 -0.052352324 0.025021799
-0.10240298 -0.052664995 0.022362791
-0.035489824 -0.05202046 0.022296451
-0.28824773 -0.041609555 0.025102446
-0.2747305 -0.04120063 0.025282225
-0.23096423 -0.043258931 0.022070199
0.0081260428 -0.049690362 0.029753493
0.038495883 -0.049669441 0.028233096
-0.31886148 -0.035281796 0.022036217
-0.30233097 -0.039099231 0.021004973
0.23247689 -0.032014925 0.021454623
-0.31356212 -0.022056855 0.025302168
0.23774256 -0.023471221 0.02325888
0.2450693 -0.02413753 0.022019755
-0.26854825 -0.013507094 0.023898548
0.11532483 -0.017319445 0.022798711
0.13394248 -0.019747023 0.023098493
0.18949243 -0.014934197 0.027729338
-0.28231102 -0.0039956942 0.026456308
-0.1635551 -0.0076655052 0.027501421
-0.088744774 -0.0077242833 0.029137261
0.091461755 -0.0020341987 0.020191083
0.10868292 -0.0037970296 0.02159052
-0.22332913 0.0025527787 0.029070158
-0.20591325 0.00063920207 0.027820019
-0.18989356 0.0043744505 0.029558305
0.0082178107 0.0023160062 0.023712113
0.03200224 0.0024304548 0.024574757
-0.27102995 -0.040245429 0.034327131
-0.22070549 -0.040109791 0.036687914
-0.1864007 -0.044783678 0.031502854
-0.15860933 -0.047231324 0.032063015
-0.015533119 -0.048380025 0.033946995
-0.31812131 -0.033917118 0.038371634
-0.25288597 -0.039662957 0.034926642
-0.24066836 -0.039622299 0.031579956
-0.23302788 -0.038633723 0.039761811
-0.18288045 -0.032314762 0.039985999
0.15664873 -0.033494141 0.038938794
0.18715593 -0.031526905 0.034086309
-0.33115515 -0.028042536 0.033202436
-0.32243979 -0.025541205 0.033733841
-0.30700502 -0.029248232 0.039985999
-0.25966936 -0.024162844 0.039985999
-0.23684996 -0.022886414 0.039985999
0.1795668 -0.022430191 0.036876939
-0.26317081 -0.014599197 0.034661345
-0.23714945 -0.015057364 0.037922077
-0.21421808 -0.014108811 0.036546908
-0.15934996 -0.015476256 0.038529415
0.16538139 -0.013062249 0.03209234
-0.21968013 -0.0091064349 0.031767055
-0.19828972 -0.0071148258 0.031391189
-0.10361454 -0.0095491791 0.030287826
-0.089381754 -0.0078024566 0.03753227
-0.040704329 -0.0025004172 0.036425017
-0.023723267 -0.0021356626 0.039364025
0.11819328 -0.0067230733 0.035585493
-0.23675039 0.0078047696 0.032018788
-0.22636707 0.0076090661 0.031770203
-0.21282423 0.0097276289 0.032693572
-0.0050933482 0.00029272947 0.031180326
0.032325789 0.00013610022 0.038430039
-0.28087991 0.010388393 0.033995997
-0.27013174 0.019551367 0.038660891
-0.26985741 0.015957925 0.036768451
-0.20656258 0.016739694 0.036290992
-0.1817212 0.011562391 0.033221338
-0.19398355 0.021081768 0.038396496
-0.087022819 -0.047176331 0.043046996
-0.070688799 -0.045268297 0.048502557
-0.023795772 -0.044211067 0.04728901
0.024232158 -0.043807659 0.048580036
0.047936842 -0.044831492 0.041827947
0.081458323 -0.040414982 0.048847716
-0.32479101 -0.032039694 0.042384606
-0.31639919 -0.030804977 0.048895132
-0.30325654 -0.031612944 0.048920266
-0.29075664 -0.032605853 0.041761328
-0.2449249 -0.032749001 0.045317851
0.17104004 -0.026917133 0.046011761
-0.14915587 -0.015138247 0.040791646
-0.1361336 -0.013540087 0.048832119
-0.11520746 -0.010971922 0.047630563
0.12580827 -0.011979491 0.042059336
-0.08616735 -0.0074079689 0.048585396
-0.053832784 -0.0039487407 0.04071299
-0.035023868 -0.0040590921 0.046861514
-0.020810811 -0.0031874641 0.046136022
0.046540201 -0.0016441701 0.042199094
-0.25746161 0.01900669 0.041667402
-0.25467944 0.026582524 0.044052899
-0.27594173 0.032374959 0.046315849
-0.2571761 0.037243411 0.047777381
-0.24972945 0.034263849 0.049254164
-0.23313002 0.03244688 0.044919014
-0.23349409 0.040224358 0.049011707
-0.14031139 -0.041684005 0.057888247
-0.1264227 -0.044239916 0.053429168
-0.10885672 -0.045817096 0.052218299
-0.077533051 -0.043459155 0.057201564
-0.055769958 -0.04354091 0.053420864
-0.038092505 -0.043277111 0.051740445
-0.020263847 -0.041266996 0.057389848
0.033113278 -0.041410372 0.055741254
0.07097289 -0.040252823 0.051874101
-0.30161166 -0.031558257 0.053909261
-0.28166196 -0.032749005 0.050675623
-0.23629767 -0.032749001 0.05182007
-0.20593235 -0.034333546 0.055150352
-0.17758463 -0.03840369 0.057128355
0.063136123 -0.038502492 0.05904302
-0.20728444 -0.027702235 0.055787086
0.14399548 -0.021926321 0.05065731
-0.19479817 -0.019333895 0.050722934
-0.16074009 -0.016481001 0.054913491
-0.13278624 -0.013129282 0.059028536
0.1104834 -0.017257551 0.059109405
-0.024461482 -0.0046625109 0.053359773
0.007988059 -0.0032863966 0.055156294
-0.23437023 0.038684778 0.050601389
-0.26916027 0.043145012 0.051047254
-0.10714692 -0.041500784 0.069594622
-0.0062608216 -0.03869665 0.066002488
0.0070161056 -0.039384529 0.062735483
0.035819843 -0.038905099 0.06321764
0.089990586 -0.033785261 0.068768948
0.13641553 -0.028970275 0.066975765
-0.21533909 -0.0187697 0.062380865
-0.2011437 -0.016481001 0.064837053
-0.18384254 -0.016481001 0.064047933
-0.14356974 -0.014452687 0.064927682
-0.13015418 -0.012897604 0.068617068
-0.12740576 -0.012468961 0.061082091
-0.11099783 -0.011339552 0.065483458
0.099683806 -0.016608655 0.063355118
-0.071265019 -0.0093780393 0.066127814
0.049528301 -0.0048478944 0.06027776
-0.29354098 -0.036254462 0.072458707
-0.27854717 -0.036898561 0.072356969
-0.25820521 -0.032363292 0.079972498
-0.23367128 -0.033264976 0.07942529
-0.22802475 -0.03556836 0.070914537
-0.19488476 -0.032749001 0.071864769
-0.18385446 -0.034263525 0.071166925
-0.17370068 -0.033867285 0.072252139
-0.050426811 -0.038215928 0.075000659
-0.035486914 -0.037840545 0.074222364
-0.010959134 -0.037375957 0.072305769
0.0039264159 -0.035425801 0.078167431
0.017216077 -0.03662689 0.071560808
0.03029307 -0.035573777 0.074931107
0.081962295 -0.033653349 0.070796728
-0.21323137 -0.027276538 0.079972498
-0.18258461 -0.029363206 0.07301458
-0.16913086 -0.02840163 0.079972498
0.11403779 -0.027937362 0.074832484
0.12631819 -0.028404819 0.071018703
-0.15106004 -0.015371938 0.072148077
-0.051957741 -0.010560756 0.078454502
0.063638732 -0.013723721 0.076246649
-0.022387743 -0.0089895502 0.078307435
0.026223864 -0.0066583185 0.079481661
-0.29374075 -0.034903899 0.086386673
-0.27819765 -0.035307188 0.089225322
-0.17093162 -0.030282931 0.086677112
-0.16717489 -0.032564331 0.084132597
-0.15210739 -0.034022387 0.081200421
-0.091159031 -0.036906496 0.086946324
-0.064114682 -0.036949374 0.082495436
0.005220138 -0.034453612 0.082057044
-0.31373131 -0.028806521 0.083546959
-0.27635321 -0.025070084 0.088270493
-0.22309467 -0.02510705 0.088944547
-0.1720984 -0.024712382 0.08174821
0.099326991 -0.029328486 0.088798612
-0.11690381 -0.016955428 0.086708426
-0.081702568 -0.014938787 0.08627104
-0.075061791 -0.013735056 0.084158152
0.059725996 -0.014728026 0.080022261
-0.31170124 -0.030462176 0.090644054
-0.29694974 -0.031424835 0.091577411
-0.28872639 -0.035054937 0.095174089
-0.27196658 -0.034487717 0.096039273
-0.24520916 -0.033425763 0.099088624
-0.22215641 -0.033347461 0.092790857
-0.2179554 -0.032892004 0.096349761
-0.10078321 -0.035460703 0.093193978
-0.036435157 -0.032864977 0.095324174
-0.024872364 -0.033553313 0.090599827
0.057261795 -0.031889342 0.090406395
0.075148068 -0.030512437 0.09654586
-0.30814517 -0.02877273 0.099610351
-0.27274066 -0.025310669 0.092657357
-0.22191896 -0.0251811 0.090294763
-0.18410552 -0.02558885 0.094829313
0.074942477 -0.021380067 0.092525981
-0.054245889 -0.018248698 0.097972006
-0.015492853 -0.015147101 0.095624819
-0.24201539 -0.032636773 0.10651724
-0.22024918 -0.032446917 0.10180759
-0.20850335 -0.031250402 0.10992706
-0.060085598 -0.032487758 0.10064707
-0.058291174 -0.030297058 0.10965636
-0.021188783 -0.031864624 0.10850655
0.01407416 -0.033323679 0.10715758
0.038866997 -0.032234173 0.10946934
0.071203031 -0.030214924 0.10943408
-0.22992554 -0.026253402 0.10984712
-0.10152835 -0.022710875 0.10288374
-0.083043009 -0.022947444 0.10584918
0.0021186247 -0.029000901 0.10352036
0.033169746 -0.029000901 0.10576326
0.047742382 -0.029000901 0.10322709
0.056939043 -0.029000901 0.10136599
0.062201448 -0.029000901 0.10278447
0.078020193 -0.026489973 0.101115
-0.0041986904 -0.012884134 0.10855919
0.045349069 -0.015598889 0.10589203
0.056724358 -0.019076202 0.10736383
-0.22827378 -0.031834796 0.11082061
-0.062021609 -0.030141992 0.11107854
-0.033393197 -0.031367954 0.11862236
0.0022824332 -0.032870278 0.1149682
0.03088362 -0.032389499 0.11760842
0.051223136 -0.031095315 0.11815636
-0.22003624 -0.026591586 0.11601353
-0.21439663 -0.027376771 0.1135739
-0.063877933 -0.029000901 0.11532481
-0.044707812 -0.029000901 0.11993901
0.0049814433 -0.029000901 0.11348388
0.034116387 -0.029000901 0.11425626
0.066479184 -0.029000901 0.11604886
-0.0046380903 -0.012902301 0.116032
0.04255145 -0.015929636 0.1117754
0.012775602 -0.0098305326 0.11244129
-0.2914831 -0.030184599 0.12998742
-0.036318041 -0.031250495 0.12185305
-0.25362822 -0.027061528 0.12458248
-0.0856933 -0.029175492 0.12907714
-0.072419852 -0.029000901 0.12116621
-0.063261516 -0.027420774 0.12227031
-0.055337772 -0.022435931 0.1292945
0.079386972 -0.028547235 0.12368934
0.0098936288 -0.010465818 0.12616883
0.021725439 -0.011834888 0.12104306
-0.27072948 -0.030682856 0.1362461
-0.065844811 -0.030034808 0.13910265
0.0042200023 -0.032893158 0.13388047
0.01301237 -0.032725833 0.13609752
0.022091158 -0.032184154 0.13548928
-0.29511276 -0.029806087 0.1301311
-0.28868675 -0.027596667 0.13434024
-0.056821682 -0.025775846 0.13802594
-0.019406516 -0.029000901 0.13732444
0.048854753 -0.022866996 0.13897675
0.057750817 -0.026649531 0.13300718
0.066930085 -0.029453807 0.13379049
-0.066726252 -0.030000035 0.14039657
-0.036082793 -0.031306669 0.14558744
-0.024553217 -0.031795222 0.14596462
-0.29140347 -0.028434405 0.14343029
-0.27319023 -0.02810376 0.1435865
-0.073539093 -0.029724414 0.14688207
-0.063030392 -0.023791669 0.14167011
-0.0022428371 -0.01265138 0.14194176
-0.063331291 -0.030170394 0.15411615
-0.045888174 -0.030902207 0.15092796
-0.025479965 -0.031752586 0.15380803
0.029689562 -0.030845493 0.15595309
-0.28874925 -0.028556116 0.1518348
-0.080930479 -0.029000901 0.1506791
-0.072414182 -0.029796533 0.15947518
-0.067570649 -0.02792781 0.15176754
-0.05302361 -0.029000901 0.15700409
-0.01562966 -0.029000901 0.15238835
-0.00073274598 -0.029000901 0.156068
0.04815957 -0.029316217 0.15820681
0.054711226 -0.029389517 0.1534023
-0.021399505 -0.016018655 0.15975682
-0.030411033 -0.031550236 0.16212802
-0.012960262 -0.032191426 0.1616095
-0.008387208 -0.032350086 0.16508892
-0.083395898 -0.028705593 0.16360861
-0.058515456 -0.022748841 0.16261429
-0.022811633 -0.029000901 0.16403714
0.0022682436 -0.029000901 0.16408442
-0.028963268 -0.017282464 0.16115007
0.019652396 -0.019973982 0.16697329
-0.061074048 -0.030298192 0.17069775
-0.046478249 -0.030925184 0.17600441
0.0016532214 -0.031710524 0.17696598
-0.085425034 -0.029284265 0.17910112
-0.076772377 -0.026111018 0.17548043
-0.056681469 -0.029000901 0.17713012
0.0040317886 -0.029000901 0.17163554
0.034078427 -0.029850848 0.17301853
-0.06282983 -0.030253286 0.18578571
-0.024380058 -0.031715192 0.18381864
-0.084288538 -0.029342627 0.18437798
-0.071396217 -0.029886857 0.18373892
-0.049348608 -0.020943673 0.18679976
0.02149431 -0.023951199 0.18519092
-0.033130452 -0.018263292 0.18634164
-0.0031947456 -0.017279491 0.18660691
-0.042790812 -0.031007649 0.19636838
-0.038775947 -0.03115638 0.19577929
0.0098626781 -0.030466396 0.19428556
-0.073275633 -0.029834343 0.19760512
-0.014097445 -0.029000901 0.19303459
-0.0074935909 -0.029000901 0.19094235
0.0074895732 -0.021261794 0.19176097
0.026852846 -0.029000901 0.19682774
-0.023066139 -0.0317192 0.20087284
-0.0014845468 -0.030693244 0.20571014
0.0069077127 -0.030211853 0.20469019
-0.092215605 -0.029000901 0.20929825
0.0052474216 -0.029000901 0.20508616
-0.0053320592 -0.030403612 0.21826735
-0.06394428 -0.03014737 0.22906339
-0.055114388 -0.030474599 0.22772141
-0.021757143 -0.031322613 0.22081235
-0.081047572 -0.029531701 0.22464804
-0.075783789 -0.029726181 0.22407649
-0.068957187 -0.024569444 0.22040486
-0.058994018 -0.029000901 0.22310938
-0.02863718 -0.029000901 0.22915226
0.0067877173 -0.029454214 0.22281605
0.013880785 -0.028786158 0.22192341
-0.047224078 -0.03073298 0.23966214
-0.035021774 -0.031180039 0.2332269
-0.075965099 -0.025928384 0.23783326
-0.0562516 -0.025831036 0.23384601
-0.033233054 -0.029000901 0.23154761
-0.0019377336 -0.02819214 0.23558784
0.0057389606 -0.02865069 0.23275602
-0.062014837 -0.030176099 0.24528658
-0.026731372 -0.030638389 0.2443853
-0.076446757 -0.026108589 0.24648207
-0.060475022 -0.023494173 0.24819733
-0.057587598 -0.022977326 0.24471337
-0.040140811 -0.020062108 0.24149244
-0.03461704 -0.020375669 0.24746186
-0.023211516 -0.029000901 0.24171947
-0.015308585 -0.029985152 0.24294986
-0.0057900846 -0.026748821 0.24031551
-0.064546227 -0.029000901 0.25211564
-0.013271131 -0.029460806 0.25235516
-0.054058492 -0.030404355 0.26979452
-0.091659404 -0.029000901 0.26635516
-0.073198535 -0.025812503 0.26705521
-0.05005306 -0.030359987 0.2778174
-0.089226604 -0.028520394 0.27256581
-0.074722186 -0.029620789 0.27980149
-0.061576419 -0.024001723 0.27616984
-0.054829016 -0.029000901 0.27764103
-0.046549097 -0.025669608 0.27539292
-0.036073383 -0.026126703 0.27274215
-0.054767974 -0.029000901 0.28376096
-0.047374368 -0.029000901 0.28308079
-0.058377326 -0.030076303 0.29324272
-0.080040865 -0.029385552 0.29533413
-0.061732668 -0.026713593 0.29403892
-0.082359314 -0.02928338 0.3019616
-0.066485733 -0.029000901 0.30820695
-0.060189366 -0.027811581 0.31617668
-0.051077347 -0.029000901 0.31573647
-0.084743753 -0.028413147 0.32682765
-0.075688228 -0.029469669 0.32280838
-0.057344023 -0.029000901 0.3265464
-0.072274595 -0.027812045 0.33734792
-0.071928918 -0.029000901 0.34204537
