# .PCD v0.7 - Point Cloud Data file format
VERSION 0.7
FIELDS x y z
SIZE 4 4 4
TYPE F F F
COUNT 1 1 1
WIDTH 853
HEIGHT 1
VIEWPOINT 0 0 0 1 0 0 0
POINTS 853
DATA ascii
-0.073450401 -0.061153345 -0.35104641
-0.067188114 -0.060944647 -0.35272506
-0.08230745 -0.060583632 -0.34868258
-0.099961452 -0.059255797 -0.34222525
-0.037745975 -0.05475897 -0.34048188
-0.088801876 -0.061329782 -0.33122063
-0.076510645 -0.061437082 -0.33570766
-0.10737894 -0.061239738 -0.32845512
-0.074867927 -0.061253916 -0.32576671
-0.066281788 -0.061298683 -0.32729125
-0.094041064 -0.059018549 -0.32933074
-0.027958639 -0.053473692 -0.32441515
-0.099482194 -0.061039705 -0.31695884
-0.071097694 -0.061144702 -0.31955829
-0.098083615 -0.060864341 -0.30748135
-0.087524831 -0.060794704 -0.30263165
-0.025013328 -0.061200656 -0.30504188
-0.085076027 -0.058683716 -0.30875671
-0.075246572 -0.057856105 -0.30578241
-0.038086459 -0.060690459 -0.29209423
-0.024336938 -0.060990158 -0.29561079
-0.0430189 -0.055186532 -0.29412919
-0.034230337 -0.054327779 -0.2964541
-0.018319102 -0.055880994 -0.29077637
-0.085288942 -0.060547046 -0.28921771
-0.07417728 -0.060425691 -0.28155562
-0.049587227 -0.055957068 -0.28689533
-0.024530735 -0.055730067 -0.28235042
-0.0092730727 -0.052200973 -0.28979808
-0.016178727 -0.060757481 -0.27962741
-0.036597408 -0.054976054 -0.27817136
-0.013999978 -0.055903539 -0.27260101
0.0094739664 -0.056818973 -0.27960894
-0.075504616 -0.06004807 -0.26162225
-0.044030741 -0.055948053 -0.26569855
-0.0070564328 -0.060226031 -0.25025514
0.0029665125 -0.060534317 -0.25580636
-0.071242817 -0.059540886 -0.25567007
-0.065277487 -0.059456889 -0.25444967
-0.044703588 -0.056657299 -0.25771788
-0.03995074 -0.058783613 -0.25862485
-0.027147623 -0.056832958 -0.25938556
0.022794001 -0.059827298 -0.25755781
-0.070672408 -0.059464276 -0.24565014
0.018451601 -0.060379289 -0.23761922
-0.059409656 -0.059598867 -0.23599154
-0.016169466 -0.057089135 -0.23174724
-0.0050025266 -0.05990722 -0.23519892
0.0014521694 -0.052439503 -0.23828506
0.04315662 -0.054181598 -0.23411316
0.021888182 -0.060223591 -0.22844094
-0.020435596 -0.059397034 -0.22121026
-0.0044219666 -0.055362556 -0.22639453
0.02350523 -0.050844088 -0.22045569
0.030088972 -0.05017351 -0.22334386
-0.021440256 -0.055244554 -0.21990341
-0.011359795 -0.059411757 -0.21896279
-0.00034811068 -0.059531279 -0.21577029
0.0095309634 -0.052160434 -0.21877375
0.036288481 -0.049781859 -0.21593146
0.059298478 -0.060055703 -0.20404795
-0.034424651 -0.058135971 -0.20427123
-0.024265382 -0.059119329 -0.20673169
-0.0064760968 -0.054147299 -0.2034006
0.0072500519 -0.058155891 -0.208768
0.021269027 -0.051418606 -0.20473656
0.043470789 -0.051568445 -0.20704401
-0.044234678 -0.058646198 -0.19326872
-0.023655649 -0.056457244 -0.19382644
-0.010395749 -0.059005052 -0.19930154
-0.0033188537 -0.059100159 -0.19972485
0.021885572 -0.057419278 -0.19596185
0.067390166 -0.058036536 -0.19878308
0.0056195855 -0.056517068 -0.18227577
0.022668593 -0.051761784 -0.18890509
0.034248304 -0.053862989 -0.18590753
-0.021474041 -0.058520157 -0.1744976
0.0033273073 -0.05574045 -0.17571451
0.04829878 -0.059487533 -0.17743897
0.065752611 -0.059747506 -0.17536168
0.087407067 -0.056046374 -0.17306975
-0.025352176 -0.058332432 -0.1649763
-0.019979427 -0.058282752 -0.16171239
0.063876316 -0.059359137 -0.16030204
0.034215663 -0.060266864 -0.1540112
-0.0047016079 -0.058160596 -0.15359639
0.015620847 -0.053988341 -0.154927
0.043595437 -0.050721526 -0.15301719
0.054330215 -0.05462689 -0.15205991
0.082718581 -0.059543252 -0.15397754
0.10016143 -0.057482328 -0.15404822
0.061488487 -0.049014367 -0.1531699
0.079056792 -0.046152513 -0.154927
-0.0081909122 -0.056626573 -0.14594238
0.018839482 -0.053668913 -0.1488699
0.037283242 -0.051706441 -0.1493907
0.045190863 -0.050865959 -0.14958838
0.10214782 -0.058627896 -0.14869092
0.086208448 -0.046919692 -0.14387503
0.0036120908 -0.057762489 -0.13151108
0.017274395 -0.05429611 -0.13656437
0.080305681 -0.059124537 -0.13803473
0.11259925 -0.058772597 -0.13317871
0.064714044 -0.049248151 -0.13790032
0.046369363 -0.05156083 -0.12778126
0.068819068 -0.058580812 -0.12359514
0.073372439 -0.058753274 -0.12749273
0.096437059 -0.04639525 -0.12646863
0.031791519 -0.053645246 -0.11316948
0.058604233 -0.050842613 -0.11258376
0.069050774 -0.058289699 -0.11108047
0.08967638 -0.05872668 -0.11413766
0.069680542 -0.049618423 -0.11411023
0.042524777 -0.057647131 -0.10373476
0.05377391 -0.051646583 -0.10472545
0.064895079 -0.054356728 -0.10718011
0.097737715 -0.058494583 -0.098253168
0.076862596 -0.049443707 -0.098614737
0.027437732 -0.055132888 -0.085774124
0.043276317 -0.053666398 -0.08039207
0.074275456 -0.050369296 -0.081224725
0.08360441 -0.058040529 -0.089605041
0.11373025 -0.054586813 -0.081481896
0.15216196 -0.050323989 -0.087003335
0.088926449 -0.048653148 -0.085823432
0.093471773 -0.048334442 -0.081559189
0.042470075 -0.05687651 -0.071107484
0.057860177 -0.057255045 -0.075613096
0.10866676 -0.047084928 -0.072204702
-0.17821096 -0.066514537 -0.063919678
0.032688726 -0.056613382 -0.067251831
0.071025319 -0.057332776 -0.069033675
0.11145441 -0.057971962 -0.06580887
0.11707049 -0.046325397 -0.068855569
0.11776504 -0.071717516 -0.050286442
0.031094881 -0.066322818 -0.052218135
0.059943296 -0.06498114 -0.053363062
0.086550213 -0.062808953 -0.054157514
-0.010165718 -0.057111375 -0.052373834
0.0085783731 -0.051177967 -0.054048508
0.02061924 -0.050533473 -0.054629982
0.030200211 -0.057196185 -0.056566641
0.046734165 -0.053762462 -0.05544848
0.059846457 -0.054165117 -0.055131771
0.07680314 -0.050972812 -0.058068398
0.084657103 -0.053274479 -0.055438545
0.10227111 -0.057719219 -0.0546114
0.15200064 -0.052195378 -0.053820379
-0.020570701 -0.048385572 -0.052559659
0.029604508 -0.043699533 -0.054420188
0.063709497 -0.048766043 -0.051190212
0.10710781 -0.047289267 -0.055383123
0.11015596 -0.047485236 -0.057371382
0.1522254 -0.045126632 -0.056508947
0.17073935 -0.044602886 -0.058266647
-0.020034052 -0.038184911 -0.051253662
0.10376175 -0.037303172 -0.054114439
0.11499174 -0.032618035 -0.052685462
0.15390125 -0.032840572 -0.051243424
-0.29728115 0.045992807 -0.056766208
0.061387245 -0.081366047 -0.045132443
0.091183923 -0.085779414 -0.041844308
0.10347338 -0.087626688 -0.040215768
-0.033121523 -0.078966215 -0.042009328
0.13265783 -0.074151859 -0.048733894
0.21654111 -0.077027753 -0.040983871
-0.11040226 -0.064489625 -0.041151322
0.23969102 -0.066707604 -0.043846197
-0.11433896 -0.050129361 -0.043604176
-0.084330693 -0.056131579 -0.046388447
0.28952074 -0.053656679 -0.04103341
0.27772474 -0.042214025 -0.042140059
-0.046487059 -0.037039816 -0.049280711
0.20617913 -0.038230207 -0.049341049
0.27999896 -0.039141629 -0.041451853
-0.086636193 -0.026805844 -0.041177589
-0.051419053 -0.021286219 -0.041556627
0.0062376857 -0.013268383 -0.040064249
0.026193123 -0.015220596 -0.042591143
0.095399067 -0.011907341 -0.041038338
0.19315702 -0.019956514 -0.042074647
-0.28580028 0.047111761 -0.045897413
-0.00014482869 -0.090768993 -0.033821009
0.084709197 -0.091384396 -0.036317974
0.094328128 -0.093702339 -0.033081997
0.10875811 -0.095135644 -0.030891165
-0.10934 -0.080434546 -0.031529982
-0.089378119 -0.080830783 -0.034303717
0.12702753 -0.089024939 -0.038204871
0.1635986 -0.086959966 -0.038252227
0.18728805 -0.085937425 -0.037015647
-0.14703645 -0.070748135 -0.032563042
0.15183499 -0.076477997 -0.03758546
0.17198044 -0.076477997 -0.039451953
0.22346631 -0.076477997 -0.035420973
-0.14666808 -0.067825779 -0.03447675
0.27403823 -0.065553464 -0.039995752
0.307522 -0.065401122 -0.033531912
0.3117066 -0.067163587 -0.032923512
-0.14759815 -0.031098636 -0.034440547
-0.12605919 -0.031353168 -0.03789508
0.23944405 -0.022931905 -0.039226908
0.2414754 -0.021252338 -0.037692696
0.26292923 -0.029052917 -0.039811015
-0.096896082 -0.015373791 -0.030490633
-0.060967352 -0.019710621 -0.039193649
-0.023635298 -0.015399832 -0.039544441
-0.013972165 -0.010110414 -0.035440415
0.010472901 -0.010859042 -0.03842527
0.02422712 -0.011366756 -0.039532539
0.14079261 -0.010822289 -0.038768101
-0.022067571 -0.0076558939 -0.031333394
0.011065975 -0.0085650254 -0.035475716
0.026798293 -0.0087887608 -0.036824238
0.058000948 -0.0038513739 -0.031529248
0.089645408 -0.0031253186 -0.030821394
-0.25903106 0.050338261 -0.034714814
-0.090136848 -0.091090336 -0.02021079
-0.069160968 -0.090243176 -0.026068285
-0.0074472134 -0.097786896 -0.021824796
0.087839261 -0.097395003 -0.028047012
0.097024962 -0.097395003 -0.02802993
0.11323503 -0.097395003 -0.023966357
0.149224 -0.093199074 -0.027619956
0.25523514 -0.08916533 -0.022675352
0.26578373 -0.0837183 -0.027753234
0.2788693 -0.084773585 -0.023719165
-0.18040237 -0.074386671 -0.022608696
0.063709497 -0.078610145 -0.021930983
0.18383871 -0.076477997 -0.021035129
0.20494148 -0.07647799 -0.027776361
0.23169252 -0.076477997 -0.027045894
-0.19299258 -0.068246633 -0.023813669
-0.15193535 -0.062216107 -0.026760114
0.31772661 -0.068175912 -0.02181749
-0.21653911 -0.05224755 -0.024395268
-0.18128332 -0.059448533 -0.022729475
-0.15762222 -0.055497423 -0.029989591
0.13565359 -0.054629963 -0.026784167
0.14267667 -0.051603202 -0.024893824
0.17423856 -0.051603206 -0.023189466
0.19314733 -0.05865363 -0.023679186
0.30714652 -0.053316243 -0.028500168
0.12351778 -0.048231229 -0.025689067
0.13041662 -0.04649872 -0.026512107
0.15643342 -0.043731626 -0.024954794
0.19844383 -0.04988813 -0.0225533
0.2874037 -0.040812843 -0.027107425
0.322274 -0.044592001 -0.027207317
0.13577305 -0.034639232 -0.025473567
0.19653855 -0.03801221 -0.022995563
0.20476824 -0.034606516 -0.021085376
0.27643484 -0.039195228 -0.026150141
0.31252259 -0.039431326 -0.026370801
-0.19475278 -0.027558319 -0.021865653
-0.17920442 -0.029079862 -0.027157351
-0.16892013 -0.023984201 -0.025374707
-0.15879939 -0.024295466 -0.027550338
0.15313619 -0.020703776 -0.026817929
0.16752358 -0.021800408 -0.021601498
0.17959496 -0.028785905 -0.025816122
0.18660091 -0.020804765 -0.024683435
0.19966432 -0.026475873 -0.022270158
0.20606396 -0.021164184 -0.020784631
0.32157859 -0.025073785 -0.024473878
-0.11639175 -0.011692739 -0.021732263
0.20816869 -0.019797189 -0.020296114
0.25678083 -0.012883701 -0.026923014
-0.034556564 -0.00415882 -0.024961177
0.046147946 -0.00058176316 -0.026331026
0.11521685 -0.0042515476 -0.02401443
0.12468104 -0.00011412293 -0.024541007
0.13186383 -0.0072573167 -0.025508717
0.14134033 -0.00069616619 -0.026231205
0.15699986 -0.0071356189 -0.028195165
0.20687249 -0.0048787408 -0.026009988
0.24431178 -0.007121894 -0.020203847
0.09194839 0.002268495 -0.020169329
0.16091774 0.0089649316 -0.024932791
0.17469913 0.0041290298 -0.02661114
-0.24774295 0.04793752 -0.021612935
-0.25575143 0.050477006 -0.026896054
0.008106729 -0.10076299 -0.016418865
0.038336024 -0.10281603 -0.01457375
0.086394534 -0.10244435 -0.016665589
0.15702552 -0.10091842 -0.015312646
-0.12174812 -0.090220228 -0.012109989
-0.026196022 -0.098450519 -0.016876169
0.069809146 -0.097395003 -0.013564558
0.11233012 -0.097395003 -0.018721549
0.31348312 -0.084105097 -0.011907884
0.149224 -0.079523332 -0.010926444
0.23672979 -0.076477997 -0.015576428
0.2640596 -0.076477997 -0.018305358
0.307522 -0.079260334 -0.012272896
0.31578565 -0.074322596 -0.012107696
0.32957858 -0.0707146 -0.015392637
0.33099186 -0.07457763 -0.01634052
-0.19660665 -0.060439855 -0.012603601
-0.18528748 -0.065484256 -0.019244909
0.063709497 -0.067952901 -0.012113146
0.063709497 -0.058634028 -0.013937103
0.12149738 -0.050680101 -0.01634218
0.15837727 -0.051603202 -0.017667357
0.18927182 -0.051603206 -0.01547909
0.190695 -0.051603206 -0.018036041
0.21637034 -0.050680101 -0.014942729
0.22362822 -0.056551892 -0.014257807
0.26821199 -0.050682168 -0.016709698
0.15917355 -0.048536088 -0.017595399
0.20202178 -0.047049936 -0.012619215
0.26821199 -0.047339264 -0.0187092
0.063709497 -0.036323011 -0.015331835
0.13854031 -0.037498742 -0.015608345
0.16241798 -0.036207195 -0.017360561
0.2206631 -0.030899376 -0.016313689
0.26821199 -0.036138106 -0.011806403
-0.21222362 -0.029175021 -0.016291343
-0.20829481 -0.026977181 -0.015332624
0.13748848 -0.027240513 -0.013868308
0.22101969 -0.025365453 -0.016066443
-0.17564951 -0.016744385 -0.011489016
0.11856902 -0.017676597 -0.015581784
0.13544329 -0.011694469 -0.014500262
0.22411922 -0.018438961 -0.013823135
0.31342655 -0.016032265 -0.01556306
0.32203072 -0.016940335 -0.010767994
-0.12326066 -0.008104465 -0.010486758
-0.082167409 -0.0057844836 -0.017939402
0.093290508 -0.005256203 -0.017126977
0.13404596 -0.0061075548 -0.015798213
0.27836031 -0.0077407714 -0.010754449
0.00039287069 0.0031878604 -0.010983926
0.063709497 0.0014532821 -0.011895411
0.085974015 0.0043820217 -0.015278819
0.10273784 0.0055361674 -0.016957231
0.11058956 0.013753843 -0.013688268
-0.2741594 0.047348142 -0.01789058
-0.24113002 0.048514757 -0.014975891
-0.24554028 0.051395196 -0.019749906
0.091455966 -0.10496548 -0.0016826346
0.11437929 -0.10422032 -0.0049516489
-0.094233513 -0.094991446 -0.0041669724
-0.045504667 -0.099527881 -0.0057633892
0.083254941 -0.097395003 -0.0024223712
0.149224 -0.095735647 -0.0069074854
0.22582279 -0.0981711 -0.000457936
0.24001345 -0.096767269 -0.0006984573
0.27801937 -0.091866136 -0.0037536514
-0.15968749 -0.086110264 -0.003700827
-0.14679171 -0.08830604 -0.0020233141
0.063709497 -0.085910082 -0.0074702026
0.063709497 -0.07728567 -0.0070273639
0.1751349 -0.076477997 -0.0095915357
0.21858433 -0.076477997 -0.0011517694
0.24519557 -0.076477997 -0.0041285288
0.26210663 -0.076477997 -0.0046646586
0.27862376 -0.075984716 -0.0090254694
0.28228584 -0.075927317 -0.0024592627
0.29844165 -0.077489503 -0.0049033551
0.27319473 -0.066811621 -0.0033513799
0.28375861 -0.064184695 -0.0020390444
0.2911104 -0.06615407 -0.0044444129
0.104522 -0.051541887 -0.0016863691
0.11897493 -0.051603202 -0.0024196245
0.14263996 -0.051141649 -0.0054303212
0.15379432 -0.050680101 -0.0089790495
0.18612163 -0.051603206 -0.0076751877
0.21451759 -0.051603202 -0.0083880201
0.11894181 -0.042216733 -0.0079311226
0.1220177 -0.044959377 -0.0093483878
0.14029597 -0.043978006 -0.0077864062
0.15644506 -0.0421963 -0.00074199308
0.18028924 -0.040822241 -0.0025591829
0.22951056 -0.042912584 -0.0045245565
0.27606425 -0.043723494 -0.0053342991
0.28412566 -0.044156015 -0.0014878847
-0.18138669 -0.036151703 -0.0068613947
0.1406043 -0.039366115 -0.0047240821
0.15679744 -0.036160398 -0.0036587778
0.16926345 -0.035335366 -0.0065135695
0.17161144 -0.034816012 -0.0046484573
0.18456906 -0.039176684 -0.00079407264
0.22844708 -0.035269506 -0.0070838789
0.27305958 -0.039881501 -0.0055302912
0.13787751 -0.022665109 -0.0076304036
0.28449517 -0.025570406 -0.0023119655
-0.23122352 -0.010360222 -0.0002987934
-0.17517784 -0.017157465 -0.0037199224
0.10769792 -0.011913742 -0.0091210529
0.18394768 -0.013441615 -0.0028633266
-0.2341626 -0.0043818718 -0.00022402292
-0.22742674 -0.0016174661 -0.00025198946
-0.10153215 -0.0016524608 -0.0027087238
-0.068534315 -0.00073862477 -0.0017455935
0.057446405 -0.0031939948 -0.0050548022
0.079935573 -0.0023434679 -0.0075388905
0.08516673 -0.0085735582 -0.0088173728
0.22945887 -0.0088717118 -0.0048934179
0.24807784 -0.003780141 -0.0092435144
0.26425204 -0.0054830662 -0.006974977
0.28052104 -0.0076462361 -0.0079890424
-0.24888252 0.0051118098 -2.7620685e-05
-0.18592983 0.0073421914 -0.001509068
-0.13657059 0.00039180438 -0.0028688549
-0.12060101 0.0046799593 -0.0034017817
-0.050086338 0.00024740939 -0.0078054792
0.064574316 0.0034599844 -0.0035438023
0.086348474 0.0046672588 -0.0033361483
0.091050938 0.0044000042 -0.0083181737
-0.18848681 0.018659441 -0.00050978182
-0.15168026 0.018816492 -0.002683504
0.10776095 0.015947979 -0.0082353391
-0.20748276 0.027920693 -0.0011638874
-0.16907206 0.022141557 -0.0022168097
0.13847438 0.022019714 -0.001716285
0.1464659 0.022168625 -0.0052243741
0.15099838 0.022878651 -0.0016993168
-0.21211496 0.035244942 -0.0011307884
-0.17195365 0.031303421 -0.0022614908
-0.16112083 0.038911968 -0.0027784207
-0.15488189 0.035230964 -0.0029081588
-0.26158649 0.045903839 -0.00077657891
-0.20661305 0.046859056 -0.0014578813
-0.22821376 0.051307019 -0.00088279025
-0.24474509 0.072498649 -0.00070479116
-0.23774122 0.079901412 -0.0010955224
-0.2713469 0.089533456 -0.00018007476
-0.25697935 0.094557591 -0.00076571334
0.14648446 -0.10292168 0.006275489
-0.099032238 -0.093701772 0.0094154757
0.24638221 -0.095597461 0.0049064364
-0.13952021 -0.089050427 0.0048276964
0.31408942 -0.085743234 0.0030228863
0.32623434 -0.081791207 0.0041270154
-0.21768866 -0.072579451 0.0070775575
0.20150003 -0.076477997 0.0064812526
0.27552804 -0.076469749 0.0010641513
0.28383958 -0.078014731 0.0023592568
0.30978435 -0.077393495 0.0073159253
0.31002086 -0.077123016 0.0029455663
-0.20611517 -0.067174628 0.0023033486
0.26921695 -0.063029557 0.0025247808
0.27418783 -0.065367587 0.0036200453
0.29252237 -0.067769393 0.001758547
0.30595782 -0.065738328 0.0029751477
-0.17170557 -0.058244236 0.0084762555
0.18832739 -0.051603202 0.0056333495
0.19505706 -0.050680101 8.5510947e-05
0.20408939 -0.050680101 0.0098839141
0.22973089 -0.058298524 0.0029508038
0.11871105 -0.041413315 0.0069404449
0.13773632 -0.045263961 0.005317308
0.14197685 -0.044073895 0.0052485368
0.16239201 -0.04455021 0.0062786569
0.22139974 -0.047485903 0.00019998374
0.26821199 -0.045635834 0.0067135044
0.27388424 -0.042367592 0.003323297
0.28419283 -0.040136348 0.00083217432
0.2967245 -0.049757525 0.002047888
0.30455124 -0.04787498 0.0030137547
0.14322793 -0.037750009 0.009276621
0.15430844 -0.035647005 0.00011193217
0.17273277 -0.034500964 0.0072953752
0.22807342 -0.030121161 0.0082287779
0.29429719 -0.031940214 0.0033462176
-0.22236207 -0.027227081 0.0041254638
0.12258801 -0.021469165 0.0051944354
0.2748768 -0.023590663 0.0033172648
0.29284343 -0.026430113 0.0030641316
0.31798184 -0.022144923 0.0038862035
-0.21575926 -0.013651338 0.00023708875
-0.20899832 -0.013735626 0.0038021316
-0.19189194 -0.018931337 0.0027879621
-0.17962338 -0.017011885 0.0048155664
-0.16488206 -0.013779835 0.0020931356
0.11701499 -0.017240383 0.0059963916
0.12754685 -0.013708804 0.0071757948
0.23013411 -0.019786719 7.075828e-05
-0.23953016 -0.0057298206 4.7454378e-06
-0.1405839 -0.0096018771 0.0036632554
-0.11808785 -0.0073749209 0.0098473802
0.075207949 -0.0051084738 0.002576564
0.084300458 -0.0036992684 0.0052588615
-0.23395506 0.0083394013 0.00083100505
-0.19612388 0.0050467104 0.0016993999
-0.058612082 0.00035511609 0.00072517287
-0.017455079 0.0035567796 0.0001471133
0.092614606 0.0047896462 0.0096015334
0.1363003 0.0019103346 0.0046209418
-0.18303701 0.015263828 0.00028218323
0.13382317 0.010042795 0.0059614098
-0.25666958 0.028043469 0.001199432
-0.18426304 0.024063449 0.0030010347
-0.15970361 0.028201126 0.0039130636
-0.14310972 0.026835402 0.0041407906
-0.12113636 0.020520831 0.0020215288
0.14081565 0.022435581 6.1446008e-05
0.17418867 0.022077931 0.005274856
-0.26421756 0.032888189 0.00060905126
-0.23405287 0.039008614 0.0023330997
-0.22963065 0.034934256 0.0022533634
-0.17918855 0.030535521 0.0034737145
-0.2737346 0.046790089 0.0049295812
-0.24031165 0.047874343 0.0026027753
-0.23804539 0.048404675 0.002492229
-0.19339329 0.042563565 0.001518012
-0.18358091 0.059934396 0.0012911875
-0.30433673 0.069806084 0.0011661269
-0.26484647 0.066241585 0.0028332337
-0.25035137 0.068205088 0.0033444932
-0.23343962 0.060569964 0.0034417266
-0.20270331 0.067964941 0.0044992985
-0.18483548 0.060388859 0.0023729906
-0.30066669 0.072622292 0.00094484619
-0.21384396 0.070603877 0.0035972821
-0.24546479 0.082862832 0.0042259363
-0.2313024 0.0803435 0.0045036199
0.029146157 -0.10294572 0.01152649
0.04636671 -0.10331225 0.012106096
0.11430357 -0.10309635 0.013494589
-0.099210382 -0.09204033 0.015000783
-0.079911284 -0.094717063 0.01401757
-0.051191032 -0.097935446 0.013442029
-0.042725399 -0.096079238 0.019651879
-0.034897521 -0.099373043 0.012489277
0.080656506 -0.097395003 0.019725461
0.0938133 -0.097395003 0.018976444
0.19435458 -0.098857805 0.014133684
0.21506169 -0.097491227 0.012435086
0.23362613 -0.094083183 0.016695328
-0.15476742 -0.081546478 0.019939708
-0.13363796 -0.087232776 0.015324848
-0.11462285 -0.08998511 0.014980911
0.26878899 -0.086566329 0.01120892
0.29741186 -0.085951291 0.016303796
0.30217886 -0.087617867 0.010388568
0.23371571 -0.076477997 0.014774682
0.31475329 -0.071085498 0.017407391
-0.18403098 -0.053102762 0.01463544
0.16453516 -0.051141649 0.014217861
0.21168113 -0.05257868 0.019481357
0.22542311 -0.059582844 0.012248964
0.1389699 -0.043256149 0.0170423
0.14537959 -0.047122534 0.0170423
0.19762331 -0.044786815 0.010077402
0.20373811 -0.041442242 0.011209531
0.22138114 -0.042184334 0.01581604
-0.20243953 -0.039708827 0.014713015
-0.19534653 -0.036445793 0.010495424
0.063709497 -0.033924207 0.017325023
0.12178946 -0.033764157 0.0170423
0.14472702 -0.035741158 0.012398755
0.17352983 -0.034375347 0.010605265
0.13943176 -0.023908688 0.0157497
0.21378887 -0.025446381 0.018992174
0.22440949 -0.026967328 0.013473086
0.32704452 -0.020463575 0.015203133
-0.15676181 -0.015323611 0.015657155
0.13807236 -0.014480342 0.0145418
0.16442201 -0.016999476 0.017463997
0.307522 -0.019049805 0.012631685
-0.092742905 -0.0044083456 0.011330684
-0.085206375 -0.0046030413 0.014326256
0.095792808 -0.0058682365 0.014593922
0.134573 -0.00095850672 0.010537044
0.20640841 -0.0078190835 0.016973192
0.21830536 -0.0065129865 0.012611949
-0.0049034841 0.00034983517 0.019302977
0.043761715 0.0027452838 0.018214207
0.087648734 0.0056174677 0.014454399
0.10689259 0.013290546 0.012664637
0.166458 0.019991182 0.012968825
0.19809546 0.012419863 0.017434292
0.20153189 0.011021376 0.01795892
-0.24654233 0.051073574 0.013579431
-0.22647342 0.050009437 0.011424064
0.08102788 -0.10037237 0.021858759
-0.012494715 -0.096339971 0.024417678
0.002348905 -0.097916141 0.022677014
0.04267491 -0.098301612 0.02562649
0.091934547 -0.097113207 0.028690655
0.10286921 -0.097395003 0.0227933
0.139107 -0.099760942 0.020023737
0.2011722 -0.094546989 0.023324627
0.24678031 -0.091170847 0.020430921
-0.15419042 -0.081024833 0.020763408
0.16028078 -0.076477997 0.02206753
0.17789848 -0.076477997 0.029330505
0.20671271 -0.076477997 0.025911298
0.22761242 -0.076477997 0.023962021
-0.20889376 -0.062898479 0.023480047
-0.19136566 -0.069660038 0.023957452
-0.15512598 -0.064000383 0.029365856
0.31082502 -0.060900915 0.025905808
0.3205041 -0.062217571 0.024022259
-0.17987558 -0.051937878 0.027065989
0.16501945 -0.051603202 0.023972783
-0.22221206 -0.041814156 0.02146065
0.15093067 -0.044671111 0.020147678
0.16210511 -0.043232732 0.02703329
0.19945663 -0.046521779 0.022318754
0.31205243 -0.04029889 0.027421523
0.063709497 -0.036795024 0.029387403
0.12365617 -0.031064536 0.025171805
0.14124346 -0.031268977 0.026222833
0.15996641 -0.03924688 0.02327932
0.17820749 -0.0373898 0.026034575
0.30828691 -0.030300079 0.021566527
-0.17364986 -0.026923684 0.026725179
0.063709497 -0.023215853 0.024085799
0.132594 -0.025375243 0.02561231
0.14106023 -0.02725352 0.026213657
0.18270132 -0.023238201 0.023938637
-0.12506947 -0.015916498 0.0254739
0.11710188 -0.016881512 0.024831641
0.15921846 -0.015966095 0.024961889
0.16200604 -0.012751888 0.024975689
0.1703707 -0.019919073 0.026568364
0.20131886 -0.01117139 0.021886675
0.30810863 -0.017165113 0.021112207
-0.091809839 -0.0092485566 0.023460653
-0.011257514 -0.0032817463 0.026845757
0.063709497 -0.0071160332 0.02553924
0.14228475 -0.0063057742 0.027483668
0.16420899 -0.0062375041 0.026833978
0.17081854 -0.0035948553 0.028761003
0.19636062 -0.0011927774 0.02538725
0.2093648 -0.0048219361 0.020018872
0.21811515 -0.0070686811 0.025805347
0.01329308 0.00055885129 0.020743545
0.11151756 0.00012487441 0.020272005
0.12389806 0.0089441799 0.021573899
0.14234145 0.0038354048 0.026535988
0.15672347 0.013441068 0.021557059
-0.29722667 0.045190729 0.028054126
-0.24208245 0.050329074 0.025831647
0.0183856 -0.093207613 0.031888455
0.058655303 -0.091523156 0.035803191
0.0048520598 -0.085525133 0.039877046
0.1609814 -0.088321269 0.03684058
0.18947661 -0.089490652 0.032261338
0.21515983 -0.085186854 0.034595069
-0.11771913 -0.075909987 0.033695482
0.15261187 -0.076477997 0.038420964
0.17396832 -0.076477997 0.030156882
0.25469351 -0.07516963 0.034987841
0.26556739 -0.078726597 0.033163145
-0.1393151 -0.063337699 0.037544467
-0.14598215 -0.055102106 0.038613908
-0.19240201 -0.041969832 0.030454673
-0.17356354 -0.043943785 0.034443073
-0.16810727 -0.047091097 0.03569328
0.063709497 -0.041296713 0.033158094
0.31275344 -0.04861597 0.037145719
-0.17038003 -0.039426185 0.034146313
-0.15953869 -0.03176856 0.032756161
-0.13281965 -0.035843156 0.038818903
0.063709497 -0.028037511 0.036444515
0.26645181 -0.02412972 0.036258802
-0.056160852 -0.010080187 0.030305922
-0.043375712 -0.012060749 0.034683153
-0.036518782 -0.011303373 0.034465484
-0.01293043 -0.013127147 0.038722567
0.085478343 -0.01033124 0.039999396
0.20883454 -0.019078011 0.039968926
0.22631758 -0.016382296 0.035787523
0.031886242 -0.0045691454 0.031667352
0.045184515 -0.0038793299 0.031278849
0.068982281 -0.0097937835 0.039519347
-0.25787961 0.047095679 0.031033728
0.033516042 -0.081670493 0.044312768
0.057774607 -0.083828643 0.043180995
0.095449984 -0.087696522 0.040300019
-0.16713771 -0.07545843 0.044959135
-0.066725224 -0.074422628 0.041958317
-0.050895751 -0.072489187 0.044616289
-0.024218885 -0.075055733 0.045606598
-0.0075568911 -0.070173457 0.048860546
0.0040038414 -0.072572678 0.048430137
0.039561938 -0.073294312 0.049619265
0.075398564 -0.079537205 0.046776515
0.08244697 -0.075726107 0.049147077
0.17664482 -0.071574159 0.047482729
0.20157865 -0.073994547 0.044637084
-0.084068239 -0.064047597 0.044670697
-0.050443429 -0.064729854 0.047877152
0.19714448 -0.064494982 0.048899598
0.063709497 -0.0521915 0.044359893
-0.095373876 -0.047981091 0.045900028
0.063709497 -0.045438379 0.048182648
0.21857309 -0.047769479 0.049406808
-0.039874628 -0.031242419 0.047620408
0.18601727 -0.031329125 0.048554707
0.2150954 -0.034987267 0.047662865
-0.088176966 -0.025897402 0.04056415
0.02960721 -0.023622598 0.04854998
0.097252205 -0.021704713 0.048426867
0.20132357 -0.029321883 0.046591841
0.075339943 -0.016145404 0.044504095
-0.2732268 0.048740983 0.044654325
-0.17142798 -0.065071754 0.056211092
0.0015922212 -0.061112069 0.05245246
0.012725025 -0.063911863 0.052403703
0.064431511 -0.067889638 0.052224912
0.084300026 -0.066292398 0.053027302
-0.17350596 -0.059117973 0.059139617
0.015388822 -0.051764123 0.054252528
0.040592372 -0.054813683 0.050681099
0.052280456 -0.056680061 0.055418972
0.060645606 -0.058206335 0.054610971
0.090212837 -0.052597504 0.050681099
0.11455099 -0.055970795 0.053404652
0.15626678 -0.055498913 0.051668823
0.16190296 -0.051049396 0.053562887
0.072221778 -0.042291231 0.055014342
0.14985563 -0.043493491 0.052290857
0.15945159 -0.043262295 0.050681099
0.17502311 -0.049433477 0.05428607
0.18535128 -0.040192343 0.051034473
0.053792872 -0.037375625 0.054114148
0.18073623 -0.039437663 0.051253021
0.069539942 -0.026718425 0.050628956
0.094828449 -0.026933718 0.050628513
-0.28586605 0.047467757 0.055729147
0.02385952 -0.056600239 0.069761299
0.03749745 -0.055504411 0.067154117
0.054878704 -0.056983992 0.066357128
0.061176185 -0.056401964 0.0613054
0.076429501 -0.054534372 0.0613054
0.1570659 -0.058720261 0.06795799
0.16500504 -0.056584995 0.064970039
0.098771557 -0.048523854 0.061654862
0.10848254 -0.047394268 0.064487278
0.16358544 -0.046202395 0.069616891
0.055950396 -0.057231411 0.076044172
0.09984459 -0.047794893 0.078056037
0.10041163 -0.047994561 0.071146891
0.050458167 -0.057392597 0.086997814
0.079707652 -0.053429797 0.0814825
0.093875386 -0.058025226 0.081254803
0.10532057 -0.058295779 0.084140331
0.11584421 -0.052353088 0.0814825
0.13842514 -0.055293817 0.0814825
0.10355401 -0.047284033 0.081253156
0.15430969 -0.046626586 0.0814825
0.04715047 -0.052831043 0.091777757
0.064288475 -0.05100663 0.092279807
0.070633471 -0.058048453 0.099668041
0.12176938 -0.058884263 0.09675125
0.14396948 -0.051571377 0.098072201
0.09909419 -0.047236286 0.095032103
0.10843311 -0.046363976 0.092061542
0.0071679205 -0.056365483 0.10981477
0.010920807 -0.057328656 0.1076295
0.048255701 -0.053679533 0.10429461
0.06456057 -0.05801072 0.1026226
0.072362028 -0.049859315 0.10017854
0.0029512583 -0.057529066 0.11914924
0.03475526 -0.053451821 0.11001579
0.056736179 -0.051092219 0.11118223
0.064266503 -0.058401119 0.11939116
0.10866447 -0.058966622 0.11007151
0.11003953 -0.059063397 0.11314353
0.11430635 -0.045029394 0.11514413
-0.0079110041 -0.057408728 0.1243329
0.0021439707 -0.05772803 0.12982175
0.013299242 -0.055127621 0.12557547
0.022451969 -0.057676211 0.12002234
0.078560404 -0.058733504 0.12276392
0.08753109 -0.04724443 0.12724766
0.10525405 -0.045665085 0.12327824
-0.010574888 -0.057334617 0.13377814
-0.0087982006 -0.057867348 0.13841099
0.0069892635 -0.057914905 0.13931572
0.011077419 -0.05793364 0.13946676
0.090956077 -0.046581443 0.1398337
0.0049218512 -0.056797594 0.14523157
0.069345273 -0.059025671 0.14206305
0.067194112 -0.048704386 0.14542116
0.0908719 -0.046524256 0.14257865
0.032978006 -0.060221516 0.15390873
-0.012919824 -0.058026679 0.15605582
0.038162682 -0.051405806 0.15363206
0.048805766 -0.055964768 0.15249935
0.070586801 -0.059424147 0.1580267
0.087206796 -0.052735154 0.154928
0.10243137 -0.054390699 0.1542857
0.043606158 -0.049830273 0.15349901
0.050784688 -0.04990894 0.15937568
0.088125281 -0.04949981 0.154928
0.093323663 -0.046042792 0.15341364
0.100607 -0.046694793 0.15349901
0.058935203 -0.0594818 0.16920784
0.078909494 -0.05107937 0.16801442
0.05739782 -0.049125504 0.16196042
-0.014887526 -0.057378106 0.17257854
0.012055047 -0.058793016 0.17516242
0.030196249 -0.051558398 0.17321061
0.083932348 -0.051765181 0.17351535
-0.025609247 -0.057830222 0.18464079
-0.017398207 -0.058717158 0.18457042
0.0079333205 -0.053399064 0.18664634
0.030123141 -0.059284411 0.18244974
0.049147312 -0.059773345 0.18891375
-0.031130146 -0.057046704 0.1990979
0.060959116 -0.048038758 0.1941869
-0.027315546 -0.059147704 0.20855698
-5.8906153e-08 -0.057873141 0.20704401
0.010802537 -0.052553911 0.20110215
0.026781019 -0.057279028 0.20704401
0.032720543 -0.056647509 0.20303474
0.062538788 -0.052909054 0.20704401
-0.031940468 -0.056460015 0.21699491
0.026214652 -0.050681796 0.21684986
0.039783243 -0.051678911 0.21822327
-0.047909003 -0.059335791 0.22075084
-0.01919934 -0.059527896 0.22810055
-0.050951842 -0.059539594 0.23190375
-0.0044936733 -0.059890147 0.23409356
0.022868041 -0.05049105 0.23784739
-0.021939747 -0.059817698 0.2438731
0.016854685 -0.050798915 0.24807285
-0.05143268 -0.057186753 0.25232551
-0.043192983 -0.056402329 0.2500923
-0.020177633 -0.053961575 0.25755697
-0.0071270652 -0.052721728 0.25953692
0.0062071499 -0.051690347 0.25157911
0.015518337 -0.050708998 0.25700569
-0.052763231 -0.060248815 0.26988575
-0.022003293 -0.060301501 0.26466602
-0.0052280668 -0.060622908 0.26570895
-0.0098278839 -0.052954357 0.26014471
-0.022826858 -0.060637988 0.27954876
0.0040807696 -0.060724813 0.27712488
-0.012621537 -0.052967191 0.27041927
-0.050085463 -0.060486868 0.28232956
-0.023466563 -0.060867913 0.289776
-0.018215535 -0.056606174 0.28201026
-0.08303827 -0.060742915 0.29937977
-0.09021987 -0.059826747 0.29083017
-0.085249379 -0.059287161 0.29125637
-0.053023737 -0.056007989 0.2980752
-0.028539523 -0.053809647 0.29635757
-0.014323059 -0.052511681 0.29619178
-0.031761501 -0.061025374 0.30267328
-0.070776746 -0.061057482 0.31485772
-0.062401533 -0.061047427 0.31348571
-0.021696622 -0.061421104 0.31189001
-0.10903881 -0.061085008 0.32042396
-0.11583747 -0.061269764 0.33099893
-0.057643786 -0.061494663 0.33695567
-0.040418565 -0.05439344 0.34260494
