# .PCD v0.7 - Point Cloud Data file format
VERSION 0.7
FIELDS x y z
SIZE 4 4 4
TYPE F F F
COUNT 1 1 1
WIDTH 926
HEIGHT 1
VIEWPOINT 0 0 0 1 0 0 0
POINTS 926
DATA ascii
0.04784948 0.150498 -0.3537457
0.13777995 0.15123102 -0.35666639
0.087646283 -0.0210032 -0.34144467
0.12606677 -0.0035772943 -0.34169543
0.11364995 0.166086 -0.3488012
0.0038838256 -0.0210032 -0.33721671
0.010781762 0.0019198901 -0.33443886
0.18261999 0.150498 -0.33722711
0.14733464 0.166086 -0.33014143
0.19419727 0.16217749 -0.33962423
0.21017288 0.166086 -0.33106044
0.027768089 -0.0210032 -0.32183385
0.068553023 -0.0210032 -0.32479101
0.12455851 -0.0210032 -0.3236759
0.033805341 0.0019198901 -0.32145306
0.13090111 0.150498 -0.32174936
0.1943312 0.150498 -0.3298125
0.072132379 0.16608602 -0.32726923
0.1161223 0.166086 -0.32672447
0.20445375 0.166086 -0.32933706
0.22265324 0.166086 -0.32459503
0.0095170494 -0.0210032 -0.31355357
0.10460146 -0.0210032 -0.31460935
0.15238243 -0.0210032 -0.3150239
0.18332653 -0.00085766881 -0.31885046
-0.00023430027 0.0019198901 -0.3113282
0.02310805 0.150498 -0.31639323
0.047628935 0.150498 -0.31384623
0.083908901 0.150498 -0.31120634
0.12639573 0.150498 -0.31133744
0.078618489 0.166086 -0.31273419
0.083787583 0.16781116 -0.31643915
0.14955756 0.169754 -0.31813073
0.11013094 -0.0210032 -0.30401015
-0.009092873 -0.014995421 -0.30322403
-0.0091300961 -0.0048800865 -0.30638784
-0.0058020307 0.0019198901 -0.30056188
0.084788308 0.0019198901 -0.3048633
0.079508066 0.150498 -0.30765516
0.076683864 0.166086 -0.30379564
0.11642968 0.169754 -0.30132261
0.13421783 0.169754 -0.30719852
0.15125138 0.166086 -0.30198899
0.0025500068 -0.021003202 -0.29026774
0.16250362 -0.021003198 -0.29954806
-0.0089446902 -0.012686752 -0.29062909
0.19275814 -0.016656844 -0.29090381
-0.0089446502 -0.0059736073 -0.29062569
0.049463209 0.0019198901 -0.29807973
0.18507159 0.166086 -0.29270333
0.1379686 -0.0210032 -0.28737816
0.19193201 -0.0210032 -0.28381628
0.1928153 -0.012112295 -0.28604725
-0.0089144148 -0.0028043818 -0.2880559
0.19287895 -0.0090841064 -0.28063792
0.01331171 0.0019198901 -0.28323308
0.1119238 0.0019198901 -0.28746492
0.16900979 0.0019198901 -0.28305402
0.069562554 0.150498 -0.28151551
0.097120062 0.150498 -0.28022283
0.10391547 0.150498 -0.28576601
0.062365562 0.166086 -0.28108779
0.12788907 0.169754 -0.28162271
0.1870926 0.166086 -0.28310156
0.10024787 -0.0210032 -0.2731002
0.13952798 -0.0210032 -0.27213201
0.16797683 -0.0210032 -0.27008885
0.17757317 -0.021003202 -0.2703881
-0.0052518751 0.0019198901 -0.27583838
0.0074312845 0.0019198901 -0.27744067
0.1072379 0.0019198901 -0.27453417
0.19212994 0.0019198901 -0.2735233
0.049924325 0.150498 -0.2769106
0.028679764 0.166086 -0.27362594
0.046917584 0.169754 -0.271808
0.067132898 0.16608602 -0.27348074
0.092236333 0.169754 -0.27996036
0.10676602 0.16730867 -0.27524653
0.12095097 0.166086 -0.27173808
0.13024192 0.166086 -0.27426583
0.14581594 0.169754 -0.27718684
0.15443049 0.169754 -0.2700074
0.19948909 0.16815521 -0.2723777
0.13729088 -0.021003198 -0.26897013
-0.0086503606 -0.0094610471 -0.26561233
0.050413188 0.0019198901 -0.26479548
0.092830859 0.0019198901 -0.2633456
0.09392485 0.150498 -0.26735207
0.042872444 0.166086 -0.26907727
0.09921933 0.16608602 -0.26529732
0.12138123 0.166086 -0.26041251
0.16293409 0.169754 -0.26767027
0.20478523 0.166086 -0.26581544
0.17641369 -0.0210032 -0.25018543
0.17206632 0.0019198901 -0.25913489
0.085232593 0.150498 -0.25941581
0.13299562 0.150498 -0.25603038
0.20026508 0.150498 -0.25591311
0.052264608 0.169754 -0.25830632
0.088131987 0.169754 -0.25813329
0.1597524 0.166086 -0.25978717
0.19414979 0.169754 -0.25009763
0.20194429 0.16608602 -0.25160453
0.015766678 -0.021003202 -0.24178657
0.061835028 -0.0210032 -0.24743739
0.16535076 -0.0210032 -0.24103236
0.18195623 -0.0210032 -0.24117264
-0.0084059481 -0.018094193 -0.24483819
0.19335686 -0.018745033 -0.24002162
0.12503049 0.0019198901 -0.24360025
0.15069926 0.150498 -0.24392657
0.17120098 0.150498 -0.24858348
0.18465415 0.150498 -0.24357715
0.04009477 0.16791999 -0.2437133
0.057457346 0.169754 -0.24357292
0.063876972 0.169754 -0.241869
0.077609822 0.169754 -0.2491935
0.13027395 0.166086 -0.24128921
0.14603852 0.169754 -0.2493528
0.18188566 0.16608602 -0.24576807
0.03817023 -0.0210032 -0.2330137
0.17407613 -0.0210032 -0.23900825
0.071943298 0.028174156 -0.23447245
0.074728727 0.1444452 -0.23599832
0.0223701 0.15879223 -0.23142421
0.077734858 0.150498 -0.23946439
0.10315734 0.169754 -0.23634215
0.14253977 0.169754 -0.23892006
0.17959094 0.169754 -0.23531517
0.20689717 0.166086 -0.23655362
-0.0081468001 -0.0065644118 -0.22281155
0.14941584 -0.0014228933 -0.22403987
0.0031252736 0.0019198899 -0.22311948
0.028231295 0.0019198901 -0.22975928
0.037869491 0.0019198901 -0.22142361
0.10443921 0.0019198901 -0.22054413
0.13757798 0.0019198901 -0.22418351
0.1501013 0.0053129252 -0.22492576
0.18129481 0.0019198901 -0.22112384
0.14958334 0.12061176 -0.22439592
0.022492893 0.15193142 -0.22098722
0.18507628 0.150498 -0.22821569
0.094811365 0.16791999 -0.22282763
0.10751469 0.169754 -0.22847629
0.12857631 0.169754 -0.22657244
0.14745951 0.166086 -0.22530419
0.16778195 0.166086 -0.22264855
0.20396021 0.16608599 -0.22512761
0.088398583 -0.0210032 -0.21810026
0.19262905 -0.0210032 -0.21628515
0.068253189 0.0019198901 -0.21460496
0.15198648 0.150498 -0.2191577
0.19257323 0.150498 -0.21751638
0.063142031 0.166086 -0.21260439
0.14839716 0.169754 -0.21395706
0.18735957 0.169754 -0.21311972
0.02720857 -0.0210032 -0.20363735
0.09033075 -0.0210032 -0.20984286
0.011681333 0.0019198901 -0.20960543
0.032930598 0.0019198901 -0.20423681
0.16268693 0.0019198901 -0.20429412
0.07243482 0.150498 -0.20106643
0.16532105 0.150498 -0.20989744
0.049292725 0.166086 -0.20513141
0.06336423 0.169754 -0.20114806
0.11637937 0.169754 -0.20239979
-0.0078270631 -0.018525813 -0.19563526
0.047313079 0.0019198901 -0.19997236
0.086983815 0.0019198901 -0.19073237
0.10099258 0.0019198901 -0.19452044
0.17964569 0.0019198901 -0.19799721
0.046755698 0.150498 -0.19808976
0.082382709 0.150498 -0.19050388
0.022793908 0.16241819 -0.19540232
0.076224871 0.166086 -0.19536155
0.10742804 0.166086 -0.19686303
0.125439 0.166086 -0.19555238
0.15320379 0.169754 -0.19520648
0.19620056 0.16608602 -0.1917465
0.11955221 -0.0210032 -0.18631341
0.027912967 0.0019198901 -0.18227363
0.14848968 0.0019198901 -0.18385938
0.065273136 0.150498 -0.18907231
0.22459275 0.15108836 -0.18751079
0.043131918 0.16753024 -0.18992247
0.074373432 0.169754 -0.18219313
0.15559328 0.166086 -0.181999
0.1905272 0.16608602 -0.18434764
0.032530423 -0.021003202 -0.17263117
0.088964388 -0.0210032 -0.17360057
0.10272574 -0.0210032 -0.17659691
0.12414338 -0.021003198 -0.17082277
0.13077241 -0.021003198 -0.17966834
0.19406429 -0.017825985 -0.17989787
0.14949031 0.0019198901 -0.17326891
0.10171939 0.150498 -0.17843255
0.14409146 0.150498 -0.17728586
0.20557266 0.150498 -0.17405663
0.047354709 0.166086 -0.17973298
0.16087796 0.169754 -0.17861907
0.19102767 0.166086 -0.17344904
-0.0057351599 -0.0210032 -0.1646959
0.00067748036 -0.0210032 -0.16154709
0.060492903 -0.0210032 -0.1666652
0.17810491 -0.0210032 -0.16504534
0.008226173 0.0019198901 -0.16420385
0.069928624 0.0019198901 -0.16395849
0.087051764 0.0019198901 -0.16482067
0.13460982 0.150498 -0.16889919
0.15432195 0.150498 -0.16400836
0.023206076 0.16000669 -0.16036968
0.042281821 0.166086 -0.16816375
0.062603444 0.16608602 -0.16961411
0.083574057 0.16853134 -0.1657408
0.14298911 0.169754 -0.16492563
0.062632561 -0.0210032 -0.15652916
0.12674765 -0.0210032 -0.15616651
0.17696182 -0.0210032 -0.15646605
0.058130361 0.0019198901 -0.15562062
0.060287409 0.0019198901 -0.15385404
0.043429479 0.150498 -0.15885668
0.063556053 0.150498 -0.15947056
0.16679147 0.166086 -0.15052256
0.037681889 -0.021003198 -0.14465956
0.052528318 -0.0210032 -0.14978549
-0.00074791443 0.0019198901 -0.14340748
0.18104224 0.0019198901 -0.14797175
0.023335099 0.15778659 -0.14940342
0.05870267 0.150498 -0.14803584
0.10014606 0.150498 -0.14192106
0.035224497 0.16608602 -0.14809236
0.0051621115 0.0019198901 -0.13088244
0.11837316 0.0019198901 -0.13266285
0.1941421 0.0019198901 -0.1377501
0.02679852 0.150498 -0.13321589
0.12871256 0.150498 -0.1312694
0.050313793 0.0019198901 -0.12418988
0.078904182 0.0019198901 -0.12299128
0.14544573 0.0019198901 -0.1274392
0.16348092 0.0019198901 -0.1250096
0.033379443 0.150498 -0.12320489
0.14358196 0.150498 -0.1231079
0.08678399 0.166086 -0.1201508
0.11645298 0.166086 -0.12361863
0.17077287 0.166086 -0.12936844
0.21297777 0.166086 -0.12914336
0.036984969 -0.0210032 -0.11757554
0.071068563 -0.0210032 -0.11471833
0.10208819 -0.021003198 -0.11725859
0.16835213 -0.0210032 -0.11385121
-0.0003476264 0.0019198901 -0.11425565
0.15925597 0.150498 -0.11943383
0.067132555 0.166086 -0.11049947
0.18594089 0.166086 -0.11209895
0.11775468 -0.0210032 -0.10433688
0.12278018 -0.0210032 -0.10613374
0.19496341 -0.015357509 -0.10348497
0.00083426677 0.0019198901 -0.10520789
0.080633864 0.150498 -0.10140266
0.058904063 0.166086 -0.10452665
0.11639217 0.166086 -0.10578254
0.19510654 -0.0087852115 -0.091320738
-0.0032113148 0.0019198901 -0.097442284
0.14560115 0.0019198901 -0.098550171
0.16033541 0.0019198901 -0.098170161
0.17229031 0.0019198901 -0.092911005
-0.27105105 0.0420711 -0.092122376
0.16992386 0.150498 -0.095858291
0.096120417 -0.14398229 -0.082149625
0.10522935 -0.1091758 -0.084399
0.10014163 -0.090418153 -0.08443056
-0.00078079058 -0.0210032 -0.088379554
0.096690558 -0.0210032 -0.086239852
0.12682396 -0.0210032 -0.087602116
0.19520369 0.0012453265 -0.083062939
0.082169071 0.150498 -0.080975272
0.13630179 0.150498 -0.080317132
0.043710742 0.166086 -0.082474999
0.057222001 0.166086 -0.081585988
0.057536878 -0.1610741 -0.077015661
0.053734705 -0.12759009 -0.077695303
0.02695795 -0.11290385 -0.075027294
0.028140236 -0.095811173 -0.075743102
0.092878871 -0.0210032 -0.073768653
0.15782033 -0.0210032 -0.078136533
0.17272726 -0.0210032 -0.072830603
-0.0064380243 -0.010718729 -0.077572465
0.077982321 0.0019198901 -0.074033052
0.26514837 0.027130507 -0.075093657
0.22288689 0.034392737 -0.072562911
0.28853145 0.035760429 -0.078158922
0.23898743 0.043234356 -0.073306121
0.069623284 0.150498 -0.078056306
0.10520832 0.150498 -0.074266836
0.19862053 0.150498 -0.077185556
0.11212348 0.166086 -0.079582952
0.12441388 0.166086 -0.078982733
0.084698193 -0.16512114 -0.065388761
0.07963267 -0.157931 -0.060331613
0.072638549 -0.14077142 -0.060083658
0.017596485 -0.13468835 -0.067927912
0.078050673 -0.13659704 -0.06086383
0.075340852 -0.10139088 -0.061730735
0.066445902 -0.080446132 -0.06048131
0.040712621 -0.077625751 -0.062066827
0.077215798 -0.079226084 -0.062699273
0.070672527 -0.054034822 -0.061870903
0.083253644 -0.043138593 -0.063724428
0.12855892 -0.032229573 -0.069444105
0.019412968 -0.0210032 -0.062288549
0.081839249 -0.021274302 -0.064294368
0.11544672 -0.022147354 -0.068235017
0.17747746 -0.0210032 -0.066855058
0.19143343 -0.0210032 -0.068259165
0.12452962 0.0019198901 -0.066664807
0.2286472 0.011551989 -0.067820027
0.13988464 0.023872539 -0.064329967
0.19194555 0.021072235 -0.068256579
0.076811962 0.036277346 -0.06075912
0.080413349 0.032224953 -0.060522847
0.18969145 0.039259166 -0.069762275
0.14820325 0.047457427 -0.06526006
0.12778793 0.056694306 -0.060934633
0.28424388 0.056801345 -0.061760582
0.20831293 0.063569859 -0.065216213
0.26153129 0.067601331 -0.068258166
0.1296398 0.150498 -0.067570999
0.22598383 0.15604836 -0.069285855
0.035718605 0.166086 -0.066662729
0.11577287 0.166086 -0.067255884
0.18983795 0.166086 -0.061910849
0.21913634 0.166086 -0.066036947
0.031374566 -0.13983038 -0.055241022
0.046968624 -0.13512141 -0.057241946
0.04329728 -0.12355389 -0.057198167
0.070697986 -0.12570579 -0.056399763
0.023921739 -0.1189412 -0.055064924
0.066841476 -0.11240494 -0.058009967
0.061894067 -0.1029936 -0.059183538
0.28940201 -0.0182027 -0.050708175
0.1391433 0.0019198901 -0.057355478
0.032708392 0.016552087 -0.052543033
-0.011499107 0.027469669 -0.052313671
0.067442656 0.030173779 -0.059182689
-0.002024889 0.041284107 -0.0536782
0.068407707 0.047024738 -0.058733515
0.078725621 0.048140951 -0.059437849
0.005423829 0.051414385 -0.052287754
0.12246676 0.064366847 -0.057285395
0.27977401 0.064388141 -0.055961989
0.18947001 0.070562884 -0.059827011
0.20229506 0.073439844 -0.058941785
0.2363846 0.080983095 -0.056668505
0.081802994 0.096981734 -0.05796285
0.14667961 0.150498 -0.05754479
0.069637477 -0.12652458 -0.048789091
0.12211158 -0.0210032 -0.041916061
0.28140673 -0.025639083 -0.040166449
0.23099768 -0.018794224 -0.043272372
0.28940201 -0.0075563267 -0.049986728
0.0029322207 0.0092878193 -0.04571097
0.02701842 0.00019638287 -0.040612906
0.090897463 0.0019198901 -0.046122689
-0.018081475 0.011692837 -0.045389794
-0.14106926 0.029866049 -0.041939035
-0.11304443 0.025215467 -0.043226831
-0.15558942 0.031143464 -0.04090922
-0.083062522 0.039773136 -0.047191121
0.28940201 0.039829385 -0.041227102
0.0093311444 0.070211187 -0.041523688
0.17472862 0.083219372 -0.047123961
0.21902977 0.088331953 -0.046413824
0.19714025 0.150498 -0.043909855
0.036824532 0.166086 -0.04788544
0.17388771 0.166086 -0.041404765
0.067893907 -0.11152887 -0.031182455
0.041822277 -0.0210032 -0.032487307
0.09308999 -0.0210032 -0.031478722
0.21174699 -0.020137576 -0.038558446
0.27354857 -0.027028032 -0.035133582
0.12937827 -0.012399646 -0.037951425
0.1690775 -0.017162725 -0.036619756
0.17750764 -0.016019782 -0.039700679
0.28940201 -0.016177434 -0.031680264
-0.014070109 -0.0013698861 -0.033050645
0.02462054 -0.00094776647 -0.038799614
0.089452915 0.0019198901 -0.034330171
0.16495982 0.0019198901 -0.034971051
0.17306827 0.0019198901 -0.033103041
0.28940201 0.0040087076 -0.039542947
-0.069815494 0.011537256 -0.039936371
-0.16485177 0.022396859 -0.03747236
-0.18733957 0.034549747 -0.038738001
0.28431064 0.033531092 -0.038236003
-0.21976578 0.04792371 -0.033795711
-0.17989051 0.047786202 -0.037383169
-0.10648449 0.063791633 -0.034422196
0.28940201 0.09912473 -0.039742012
0.14800133 0.150498 -0.038141437
0.18242322 0.150498 -0.031049393
0.10443854 0.166086 -0.030058347
0.1252348 0.166086 -0.039285697
0.066179723 -0.12514152 -0.023257341
0.028976245 -0.0210032 -0.02807291
0.087204248 -0.0210032 -0.028058318
0.15451895 -0.0210032 -0.021538399
0.21161386 -0.026541717 -0.021779768
0.19594215 -0.016749896 -0.020304712
-0.039578252 -0.0031126861 -0.025939295
-0.026835479 -0.0045199664 -0.025265599
-0.0057644648 -0.0047647199 -0.0203226
0.0076502636 -0.0094186626 -0.020810509
-0.14648518 0.0042225025 -0.020796599
0.051830105 0.0019198901 -0.029939435
-0.29834601 0.026661698 -0.021385523
-0.25349963 0.054485146 -0.026491461
0.15334602 0.050705295 -0.020489387
-0.18356079 0.060879733 -0.028094377
-0.038295075 0.077855423 -0.022445835
0.015007332 0.079730771 -0.029311942
-0.014523983 0.080610946 -0.020874429
0.13175002 0.091981784 -0.024688847
0.24863318 0.10046444 -0.029193731
0.038660936 0.150498 -0.027197745
0.052330758 0.16608599 -0.023389935
0.071894795 0.166086 -0.020795316
0.080931202 0.166086 -0.021669015
0.15538271 0.166086 -0.020623595
0.22645172 0.16340198 -0.029520281
0.075856492 -0.11258872 -0.014297823
0.041555922 -0.0210032 -0.019535795
0.1378708 -0.021145592 -0.01655348
0.21880373 -0.02794474 -0.015628036
0.277482 -0.017735071 -0.015766095
-0.22223742 0.0082772756 -0.014368461
0.053262189 0.0019198901 -0.011393078
0.27814347 0.0014977669 -0.019010238
0.30070445 0.034455821 -0.011163661
-0.25189692 0.0420711 -0.018360449
0.28940201 0.040583622 -0.016911993
-0.24717866 0.062905163 -0.013890089
-0.21382248 0.065244742 -0.015371741
-0.17510955 0.069084316 -0.01215606
-0.16895875 0.069496647 -0.012878695
-0.10659755 0.072845042 -0.019942319
0.28115001 0.072738037 -0.015442191
0.073856369 0.089604989 -0.012308619
0.10117856 0.091940649 -0.011689834
0.13258478 0.094279975 -0.013602542
0.23896837 0.10222987 -0.019885825
0.26279739 0.10471687 -0.015928384
0.2782439 0.10654116 -0.011751708
0.078423187 0.150498 -0.01882983
0.20463967 0.150498 -0.016833303
0.049128368 0.16608602 -0.017089225
0.18200435 0.166086 -0.016884021
0.26265621 -0.032333486 -0.0038669105
0.021602798 -0.0210032 -0.0095450478
0.12992714 -0.0210032 -0.006659844
0.28940201 -0.025943451 -0.0049595917
-0.29160398 -0.0012876671 -0.004799326
-0.27817377 -0.0044717314 -0.0062784487
-0.12220466 -0.00013844017 -0.00050672854
0.19608632 -0.00399704 -0.008050696
-0.22485954 0.0081460997 -0.0019114771
-0.19190344 0.0054024183 -0.0020988456
-0.15770891 0.0023696581 -0.009934755
-0.0054568555 0.0019198901 -0.0050767809
0.17636289 0.0019198901 -0.003850542
0.27748197 0.015185015 -0.00079891575
-0.21311088 0.030612728 -0.0066369623
-0.1929163 0.030991573 -0.0066217463
-0.26058018 0.0420711 -0.0018040179
-0.24325888 0.0420711 -0.0027302522
-0.21480533 0.048565723 -0.0059158793
0.28940201 0.049765181 -0.0044482742
0.302239 0.043476872 -0.0073921019
-0.29834601 0.055640385 -0.0093034981
-0.25828743 0.051556073 -0.0057957526
-0.21949336 0.054157317 -0.0056912056
-0.22589371 0.064856634 -0.0052615046
-0.17716683 0.069244906 -0.0096475445
-0.25982565 0.073471822 -0.0049155331
-0.23560674 0.088647909 -0.0043059215
0.044311613 0.091147587 -0.0098264646
0.24791677 0.10395566 -0.001255207
-0.26904652 0.11618233 -0.0032002102
-0.2572118 0.11019133 -0.0034407291
0.080123499 0.150498 -0.00021829456
0.14233764 0.150498 -0.0025676005
0.15850638 0.150498 -0.00067339465
0.18189934 0.150498 -0.00079129636
0.084945142 0.166086 -0.0046337992
0.13081217 0.166086 -0.0054495819
0.25781739 -0.030964129 0.0035025924
0.1027576 -0.0210032 0.0048183538
0.17864056 -0.0210032 0.00061453832
0.20097721 -0.025737051 0.0075857635
0.28940201 -0.028037624 0.0078484695
0.072414793 -0.015399292 0.0050027939
0.19628571 -0.016147014 0.0088979416
0.277482 -0.00020959601 0.0035782466
0.015194971 0.0019198899 0.0023055971
0.28940201 0.008543252 0.0095805256
-0.20360017 0.0420711 0.0071440572
-0.26313156 0.05767848 0.0079344884
-0.18573239 0.067075059 0.0033170222
0.28653514 0.079130709 0.00081475801
-0.011141345 0.080666907 0.0078221671
0.016804241 0.083919659 0.0059426595
0.025195643 0.15332451 0.008735301
0.097099178 0.150498 0.0042785932
0.10143162 0.166086 0.0046742857
0.14715841 0.166086 0.0097244717
0.067948163 -0.11412714 0.016759761
0.17212605 -0.0210032 0.012337155
0.22238103 -0.023568042 0.0189094
0.07366927 -0.013128134 0.01232639
0.086076878 -0.012813272 0.015738629
-0.048710287 7.8217126e-05 0.016643168
0.030592768 0.0019198901 0.011698991
0.13871145 0.0019198901 0.017223828
-0.22738254 0.014707732 0.011700865
0.277024 0.018688783 0.018000903
-0.26895463 0.021455683 0.01337474
-0.21903129 0.022826839 0.019213282
-0.29685524 0.046322025 0.013993537
-0.26035631 0.0441636 0.01139709
-0.25556773 0.044168059 0.016846705
-0.23244694 0.057114478 0.012792647
0.010384575 0.078038603 0.018152688
0.28344199 0.076833792 0.013668466
0.080557704 0.086499609 0.013341544
0.28558445 0.080217645 0.01858351
0.12905303 0.090779379 0.013375086
0.20945176 0.098762043 0.011288328
0.21394624 0.09823212 0.013528439
0.28940201 0.10263054 0.01802288
0.047098398 0.150498 0.016143762
0.066950455 0.150498 0.016836502
0.073841795 0.150498 0.012170905
0.13230164 0.150498 0.012351807
0.19657016 0.150498 0.010515506
0.22698782 0.15172485 0.016048979
0.038156092 0.166086 0.015909225
0.0892004 0.166086 0.016547475
0.10080347 0.166086 0.015292272
0.18484159 0.16608602 0.017788675
0.20557918 0.166086 0.01730247
0.068639696 -0.11861751 0.027636686
0.15808392 -0.011574413 0.029243894
0.090060078 -0.0083460473 0.024310894
-0.032161027 0.0045407545 0.024682691
0.029905746 0.0019198901 0.026172042
0.039889786 0.0019198901 0.02892489
-0.085566901 0.010007969 0.023498766
-0.047362573 0.013320122 0.029979259
-0.20948711 0.028659785 0.022474356
-0.24475659 0.034487914 0.020352749
-0.18878163 0.033020355 0.024777722
0.28172117 0.03611625 0.022849176
-0.21577886 0.0441636 0.020696895
-0.20384224 0.043748055 0.022593448
-0.18779896 0.045755625 0.023883782
-0.11276336 0.054599777 0.02686397
0.27610701 0.05647213 0.020829804
0.12252386 0.085825495 0.023072658
0.2159909 0.093853153 0.02453758
0.28940201 0.099144787 0.023720551
0.097877249 0.150498 0.029259253
0.11931368 0.150498 0.023765281
0.12076836 0.150498 0.023731165
0.1342319 0.150498 0.025904395
0.2271426 0.1599696 0.029208187
0.18058224 0.166086 0.023184882
0.076046512 -0.12406006 0.036929846
0.073676743 -0.0210032 0.03575265
0.24600367 -0.013662403 0.038336486
0.19397546 -0.0041574743 0.034844689
0.026378756 0.0019198901 0.038300641
0.12755413 0.0019198901 0.035979129
0.19644545 0.0019198901 0.039459262
-0.051786646 0.029230507 0.035581455
-0.10634038 0.034833327 0.031818211
0.14802524 0.031184554 0.037044939
0.28440213 0.036241807 0.03060401
-0.28434598 0.0441636 0.036047779
-0.25288716 0.0441636 0.034954861
-0.24646923 0.0441636 0.030365858
0.012541682 0.056791849 0.037050273
0.13383925 0.075609818 0.036534276
0.28940201 0.086474501 0.038476489
0.21901193 0.150498 0.03466741
0.0027608303 -0.0210032 0.048964441
0.035011437 -0.021003198 0.045521259
0.28540638 -0.01552717 0.041200768
0.22572856 -0.0041796663 0.044708282
0.023949068 0.0019198901 0.047375552
0.11515575 0.0019198901 0.04746009
0.21169326 0.0020695021 0.048056301
0.13561985 0.017533757 0.04842101
0.08683195 0.021075802 0.045568567
0.097893067 0.02527447 0.047409844
0.080608204 0.033502553 0.047067106
-0.27411193 0.0441636 0.0415048
-0.21450794 0.0441636 0.044398889
0.07077153 0.042026665 0.04594646
0.074282065 0.05370149 0.043796726
0.28860724 0.051411409 0.046919618
0.20882142 0.072292052 0.046855237
0.28940201 0.079201192 0.046023615
0.14870255 0.150498 0.042306975
0.15370458 0.150498 0.047251698
0.034629211 0.16608602 0.04913605
0.1850228 0.166086 0.041035049
0.07892333 -0.12362758 0.051733863
0.12721242 -0.0210032 0.054059952
0.13657111 -0.0210032 0.056422018
0.18960494 -0.0210032 0.051800117
0.015798556 0.0019198901 0.052745715
0.11338392 0.0019198901 0.056861561
0.19315004 0.0019198901 0.05683697
0.13569272 0.023599608 0.050307974
0.16346288 0.026035 0.05291979
-0.28906325 0.0441636 0.057754837
0.11934207 0.041302856 0.050049063
0.2076402 0.051671609 0.055968899
0.24700414 0.061285734 0.055947743
0.22771131 0.070132799 0.050459687
0.28784794 0.077945039 0.050665561
0.052124262 0.166086 0.052244268
0.089035265 0.166086 0.050994072
0.13115607 0.166086 0.055626981
0.14973661 0.166086 0.051236615
0.13179782 -0.11379784 0.067193046
0.10269162 -0.071616143 0.069796562
0.098653696 -0.03062493 0.068891793
0.18752986 -0.0210032 0.067461446
0.19633755 -0.0210032 0.061597388
0.01226173 0.0019198901 0.063784331
0.029041037 0.0019198901 0.066198155
0.033154942 0.0019198901 0.065490544
0.28940201 0.030627215 0.063266195
0.26005122 0.044656858 0.061216656
0.27431187 0.053361289 0.061247166
0.13451083 0.074727558 0.0689836
0.1110509 0.150498 0.067035124
0.22060746 0.150498 0.063356347
0.058151614 -0.13044372 0.076453835
0.084980994 -0.13926855 0.073581934
0.05699563 -0.12576115 0.076432526
0.098262861 -0.10264932 0.070778728
0.13150637 -0.097690508 0.075121097
0.040466826 -0.089772463 0.077171907
0.073883884 -0.072852887 0.072654113
0.087104328 -0.069146864 0.071554601
0.070607655 -0.037460629 0.072435208
0.0043112994 -0.0210032 0.073011458
0.112718 -0.0210032 0.073230885
0.15944169 -0.0210032 0.076535046
-0.0046380111 -0.011277349 0.075421505
0.06609787 -0.013022101 0.072144151
0.085361518 0.0019198901 0.076046102
0.12849689 0.084991656 0.076433502
0.034853723 0.150498 0.07079383
0.071056828 0.150498 0.077179387
0.14465511 0.150498 0.077208355
0.15325108 0.150498 0.074996188
0.096610188 0.166086 0.07443516
0.02963209 -0.11635104 0.082831956
0.13539754 -0.11743742 0.080697678
0.12143515 -0.079039052 0.082599379
0.054795444 -0.0210032 0.088936485
0.15649149 -0.0210032 0.084155403
0.057247855 0.0019198901 0.080355756
0.073196203 0.0019198901 0.085570872
0.1392279 0.0019198901 0.088508666
0.029426243 0.150498 0.083157741
0.12169933 0.150498 0.084222086
0.18777728 0.150498 0.089720815
0.19372863 0.150498 0.081828289
0.12493772 0.16608602 0.087668344
0.048197918 -0.14663443 0.096651845
0.049655158 -0.13413666 0.096058451
0.077027462 -0.1270173 0.092584759
0.042431924 -0.096878856 0.09565571
0.066165268 -0.097821049 0.092883877
0.0099504068 -0.0210032 0.091060624
0.082724519 -0.0210032 0.091799796
0.11633179 -0.0210032 0.093483426
-0.0044245236 -0.014237161 0.093567096
-0.0043905913 -0.00032392726 0.096451253
0.11785945 0.0019198901 0.098068208
0.14935556 0.0019198901 0.096801333
0.14397031 0.150498 0.093956441
0.058332585 0.166086 0.096748263
0.095059082 0.166086 0.098828219
0.1204492 0.16608599 0.099044867
0.070994802 -0.0210032 0.10272926
0.13083424 -0.021003202 0.10064581
0.068497941 0.0019198901 0.10057161
0.073201388 0.0019198901 0.10728047
0.16188824 0.0019198901 0.10110044
0.20051517 0.150498 0.10502931
0.042931501 0.166086 0.10914089
0.092698365 0.16608602 0.10960086
0.035859842 -0.0210032 0.11338947
0.064284198 -0.0210032 0.11534371
0.0825909 -0.0210032 0.11527902
0.094618835 -0.0210032 0.11132187
0.1377411 -0.021003202 0.11456975
0.19207972 -0.021003198 0.11010177
0.10644278 0.0019198901 0.1100887
0.079722598 0.150498 0.11764126
0.12347169 0.150498 0.11962567
0.075884283 0.16608602 0.1127158
0.17559978 0.166086 0.11007191
0.22733825 0.166086 0.11754987
0.020881478 -0.0210032 0.1235535
0.053067278 0.0019198901 0.12957661
0.095289856 0.0019198901 0.12009435
0.11186245 0.0019198901 0.12832634
0.1031929 0.150498 0.12422554
0.22832754 0.15879211 0.12994009
0.059307646 0.166086 0.12170131
0.097788654 0.16608602 0.12634449
0.14391685 0.16761339 0.12749103
0.055410828 -0.0210032 0.13615929
0.16551462 -0.0210032 0.13000241
0.11751409 0.150498 0.13812459
0.16673285 0.150498 0.13030578
0.22836423 0.15287091 0.13306014
0.12479556 0.169754 0.13845627
0.13216454 0.166086 0.13374767
0.15238364 0.166086 0.1363623
0.16892384 0.166086 0.13636535
0.012218951 -0.021003202 0.14352626
0.087890863 -0.0210032 0.14706145
0.11550184 -0.0210032 0.14685936
0.14911652 -0.0210032 0.1416778
0.17520174 -0.021003202 0.14482893
0.1978378 -0.0077798613 0.14084212
0.047051299 0.0019198901 0.14731963
0.12240043 0.0019198901 0.1437351
0.039176356 0.150498 0.14476787
0.07268811 0.16641514 0.14442234
0.086671174 0.16608599 0.14104268
0.13226444 0.166086 0.1478225
0.1811104 0.166086 0.14817661
0.16185184 -0.0210032 0.15336341
0.031691268 0.0019198901 0.15484604
0.082836017 0.0019198901 0.15101941
0.1947374 0.150498 0.15221129
0.076751336 0.16791999 0.15032363
0.16253078 0.169754 0.15782353
0.17584215 0.166086 0.15567546
0.20256342 0.166086 0.15925363
0.025396109 -0.0210032 0.16352418
0.059859373 -0.0210032 0.16191477
0.14816931 -0.0210032 0.16726473
0.15499005 0.150498 0.16254552
0.22611424 0.15448244 0.16452368
0.071149588 0.169754 0.16622782
0.15328419 0.166086 0.16743593
-0.0023031519 -0.0210032 0.17269844
0.083235815 -0.0210032 0.17698815
-0.0034973405 -0.0031183539 0.17237408
0.045409992 0.0019198901 0.1752717
0.14907591 0.0019198901 0.17604245
0.18984568 0.0019198901 0.17322397
0.13305576 0.150498 0.17854486
0.15668228 0.150498 0.17957452
0.051001605 0.166086 0.17180091
0.085911803 -0.021003198 0.18609659
0.14692608 -0.0210032 0.18772627
0.16535696 -0.0210032 0.1859542
0.19836462 -0.0063403696 0.18562827
0.033527315 0.0019198901 0.18609339
0.075422943 0.0019198901 0.18199037
0.1797269 0.0019198901 0.18625283
0.19835195 0.00086151191 0.18455133
0.16785753 0.150498 0.18112539
0.22900057 0.15268412 0.18715569
0.079686098 0.169754 0.18000051
0.13125527 0.166086 0.18368068
0.073320806 -0.0210032 0.19992413
0.18982607 -0.0210032 0.19701728
0.056622878 0.0019198901 0.19966391
0.12772956 0.0019198901 0.19846079
0.072381139 0.150498 0.19126716
0.12973617 0.150498 0.19010696
0.065497726 0.166086 0.19348784
0.16081023 0.166086 0.19543755
0.17126209 0.166086 0.19531673
0.1812012 0.16608599 0.192875
0.086605608 -0.0210032 0.20513485
0.12901744 -0.0210032 0.20086446
0.19864768 -0.013727685 0.20969173
0.032081231 0.0019198901 0.20659852
0.047713581 0.0019198901 0.20036775
0.12505709 0.150498 0.20358871
0.21302597 0.150498 0.20271218
0.048871052 0.169754 0.20464371
0.08531113 0.166086 0.20930976
0.15829815 0.16608602 0.20135817
0.19819187 0.166086 0.20169744
0.20604788 0.166086 0.20333794
0.21364017 0.16608602 0.20452382
0.10653381 -0.021003198 0.21233833
-0.0030306671 -0.008169421 0.21203987
0.027588598 0.15563956 0.21212657
0.031129181 0.150498 0.2181567
0.11788491 0.16791999 0.2140514
0.15808202 0.16791999 0.21212143
0.15380296 -0.0210032 0.22203633
0.040056471 0.0019198901 0.22766456
0.052274402 0.0019198901 0.22132333
0.079430923 0.0019198901 0.22856465
0.18355978 0.150498 0.22830723
0.030553956 0.16608599 0.22416842
0.060264833 0.169754 0.22926268
0.15904275 0.166086 0.22961894
0.16378249 0.166086 0.22657441
0.062330514 -0.0210032 0.23602858
0.12515131 -0.0210032 0.2385661
0.050884578 0.0019198901 0.23651692
0.083542481 0.0019198901 0.23411196
0.084489837 0.12419344 0.23922424
0.22956689 0.15049896 0.23529799
0.20134997 0.166086 0.23874675
0.19912083 -0.0014806011 0.2499157
0.037489757 0.0019198899 0.24087527
0.12097969 0.0019198901 0.24582371
0.15910932 0.027380072 0.24027477
0.15899953 0.050154164 0.24272634
0.15588559 0.11436531 0.24130413
0.062407926 0.150498 0.24121475
0.091837801 0.150498 0.24860525
0.046826169 0.169754 0.24471949
0.093784526 0.16791999 0.24277756
0.11226542 0.169754 0.24410291
0.17298342 0.166086 0.24045765
0.20446724 0.166086 0.2424995
0.0029986384 -0.0210032 0.25301874
0.072422512 -0.0210032 0.2542761
0.095938839 -0.0210032 0.25407037
0.11419975 -0.021003198 0.25725257
0.0046160952 0.0019198901 0.2568416
0.05048405 0.0019198901 0.25593725
0.15897578 0.0019198901 0.25695327
0.21415271 0.150498 0.25814366
0.22358169 0.150498 0.25383443
0.047522184 0.16791999 0.25626999
0.06577085 0.166086 0.25665572
0.11139905 0.16791999 0.25485525
0.15237395 0.169754 0.25823668
0.22977443 0.16548946 0.2529434
0.066063382 -0.0210032 0.26781267
0.17453071 -0.0210032 0.2651166
0.19929442 -0.010486485 0.26467192
0.12204929 0.0019198901 0.26076883
0.18847138 0.150498 0.26940411
0.059378296 0.169754 0.26827484
0.10500945 0.166086 0.26660401
0.14700621 0.169754 0.26136923
0.21445589 0.166086 0.26536608
0.22996178 0.16061135 0.26886845
0.18276505 -0.021003198 0.27261183
0.022699974 0.0019198901 0.27131215
0.041569334 0.0019198901 0.27575231
0.14341325 0.0019198901 0.2709012
0.15578872 0.0019198901 0.27921179
0.14141211 0.150498 0.27562141
0.16852272 0.150498 0.27740824
0.028327279 0.16488625 0.27491143
0.11873001 0.169754 0.27153346
0.15654078 0.169754 0.27647099
0.22999623 0.16078474 0.27179897
0.19959126 -0.00051204558 0.28990814
0.13849987 0.150498 0.28487173
0.17730866 0.150498 0.28968471
0.033577479 0.166086 0.28218478
0.12830722 0.169754 0.28961003
0.17569712 0.166086 0.28222525
0.085428752 -0.0210032 0.29320231
0.13771941 0.0019198901 0.29833251
0.14434911 0.0019198901 0.29690713
0.0676587 0.150498 0.29388186
0.097352564 0.166086 0.29816574
0.18071586 0.166086 0.29111293
0.0259532 -0.0210032 0.30474973
0.035175223 -0.0210032 0.30574927
0.070810571 -0.0210032 0.30157739
0.041652925 0.0019198901 0.3047471
0.15669581 0.0019198901 0.30871445
0.18471006 0.150498 0.30801719
0.049657807 0.16608599 0.30551249
0.078021973 0.166086 0.30468443
0.19218984 -0.011311038 0.31002772
0.02880333 0.15768477 0.31537378
0.069682345 0.150498 0.31607622
0.054042418 -0.0210032 0.3266148
0.066269875 0.0019198901 0.32515535
0.090114526 0.0019198901 0.32542092
0.14784668 0.166086 0.32491454
0.17020898 0.16405103 0.32614067
0.11243492 -0.0210032 0.33815598
0.15193467 -0.015575006 0.33190566
0.15223159 -0.0038185148 0.33177924
-0.00089751778 0.0019198901 0.33487636
0.029693263 0.0019198901 0.33524501
0.086173624 0.0019198901 0.3341662
0.10726011 0.150498 0.33419362
0.15497747 0.15635826 0.3318049
0.10472265 -0.0210032 0.34232545
0.120277 -0.0054210685 0.34426782
0.048658725 0.0019198901 0.34855655
0.090890363 0.0019198901 0.34987915
0.087656409 0.16005725 0.34712833
0.040603559 -0.020904761 0.35958004
-0.0013028487 -0.016945992 0.35889915
0.0040176609 -0.0044247909 0.35983929
0.063864276 -0.0034216607 0.3572439
0.046094783 0.0019198901 0.35803932
0.018966291 -0.016655881 0.36028501
0.026937995 -0.016192645 0.36015922
