# .PCD v0.7 - Point Cloud Data file format
VERSION 0.7
FIELDS x y z
SIZE 4 4 4
TYPE F F F
COUNT 1 1 1
WIDTH 837
HEIGHT 1
VIEWPOINT 0 0 0 1 0 0 0
POINTS 837
DATA ascii
-0.22228472 -0.030365914 -0.17416802
-0.2061951 -0.030897524 -0.17891197
-0.19731401 -0.030776033 -0.17820036
-0.16525643 -0.030030226 -0.17191017
-0.22083892 -0.029322177 -0.17712513
-0.21837413 -0.028501503 -0.17448008
-0.19823228 -0.027983818 -0.17623767
-0.23345786 -0.029038182 -0.16434813
-0.22232729 -0.028837597 -0.16264692
-0.21287216 -0.026629131 -0.16608681
-0.18603134 -0.028050147 -0.15394807
-0.16959344 -0.024861831 -0.15875654
-0.1494626 -0.024340766 -0.15713587
-0.13548025 -0.027580392 -0.15740836
-0.18159318 -0.023466749 -0.1442066
-0.17265753 -0.022872249 -0.14018348
-0.12091905 -0.027554717 -0.14497542
-0.11327825 -0.027176883 -0.14081891
-0.2220642 -0.023411799 -0.13207799
-0.19590919 -0.0256756 -0.13202818
-0.18328041 -0.025898764 -0.13333079
-0.17864017 -0.02252931 -0.13613692
-0.13343059 -0.026074648 -0.13155392
-0.12233999 -0.026359422 -0.13358101
-0.11238305 -0.023257272 -0.13726747
-0.1006372 -0.02622322 -0.13068627
-0.22755449 -0.023586439 -0.12422676
-0.19375497 -0.022993328 -0.12382988
-0.18452278 -0.021680873 -0.12117049
-0.1746237 -0.021926606 -0.12978637
-0.14632931 -0.022499382 -0.12336376
-0.13715145 -0.025660513 -0.12760867
-0.11879783 -0.020842334 -0.12701528
-0.10188879 -0.02543284 -0.12273216
-0.22335243 -0.024756486 -0.11659151
-0.192072 -0.024863807 -0.11767168
-0.18214405 -0.021186106 -0.1117254
-0.16308157 -0.022189802 -0.11312936
-0.14013879 -0.020856289 -0.11974619
-0.10145843 -0.022638526 -0.1189715
-0.083370119 -0.020859811 -0.11591815
-0.084077843 -0.019632608 -0.11415897
-0.20781744 -0.039326873 -0.10016236
-0.18460624 -0.039247923 -0.10009077
-0.22050703 -0.024018224 -0.10011291
-0.2150743 -0.024715193 -0.10140319
-0.20296992 -0.021180682 -0.10423583
-0.19756368 -0.028660851 -0.10004017
-0.165649 -0.020821696 -0.10999092
-0.15318078 -0.024445029 -0.10427822
-0.14333516 -0.022426674 -0.10719144
-0.12757839 -0.02451624 -0.10368959
-0.095442332 -0.024650238 -0.1031879
-0.23389935 -0.042390641 -0.090436853
-0.19798321 -0.041706555 -0.098879077
-0.17475812 -0.044223182 -0.094527036
-0.15784375 -0.044404436 -0.090622455
-0.14724234 -0.044121541 -0.09622018
-0.12601525 -0.044740435 -0.093278736
-0.10759802 -0.0449339 -0.096704274
-0.089550115 -0.042982403 -0.0979717
-0.24640325 -0.031269841 -0.093048245
-0.16947937 -0.037238017 -0.099978819
-0.14618421 -0.038937002 -0.099695906
-0.13044658 -0.030808201 -0.099756986
-0.10410787 -0.034080617 -0.099014729
-0.24639547 -0.025061846 -0.090865701
-0.23837048 -0.025192805 -0.09726204
-0.12532328 -0.029503226 -0.096051611
-0.082559489 -0.024525667 -0.093690969
-0.027510114 -0.023166988 -0.091205329
-0.079323247 -0.019023072 -0.099435486
-0.043003298 -0.018681575 -0.091327339
-0.22582471 -0.043321412 -0.083547965
-0.21275321 -0.043821272 -0.082229167
-0.19721992 -0.043988004 -0.083308943
-0.10420363 -0.041869044 -0.087986663
-0.23861524 -0.035762124 -0.085160822
-0.13052601 -0.030715823 -0.089397579
-0.19115886 -0.024055691 -0.087614119
-0.1831806 -0.020770801 -0.081526697
-0.17555247 -0.024014195 -0.080177188
-0.16366228 -0.020445913 -0.087830514
-0.14420633 -0.024153475 -0.083521679
-0.11468213 -0.02523437 -0.083485514
-0.10493399 -0.024319293 -0.084297463
-0.051341403 -0.023970608 -0.080048323
-0.043090105 -0.0238086 -0.082594812
-0.1131727 -0.019588523 -0.089964479
-0.089631528 -0.019185839 -0.088525474
-0.061863635 -0.018710023 -0.086131617
-0.059298962 -0.018663494 -0.083755091
-0.049469505 -0.018494047 -0.08208666
-0.23194566 -0.040240161 -0.074170783
-0.21908891 -0.043623574 -0.072287604
-0.1489626 -0.044504672 -0.078573219
-0.24366671 -0.03870742 -0.076190621
-0.2398057 -0.039147321 -0.075038396
-0.12856883 -0.03491671 -0.075592831
-0.11595749 -0.036565978 -0.078851812
-0.092693537 -0.030181091 -0.078745924
-0.084400423 -0.035617117 -0.079006203
-0.22483742 -0.024121899 -0.071208775
-0.20214 -0.023952488 -0.073548555
-0.18567944 -0.022304738 -0.071484953
-0.16557965 -0.022265214 -0.076638654
-0.15620022 -0.022127595 -0.075863533
-0.14533347 -0.020114595 -0.071855992
-0.12292564 -0.026550323 -0.075651646
-0.11299956 -0.029754311 -0.075693436
-0.10290001 -0.0251878 -0.078807831
-0.076850221 -0.024364464 -0.074973777
-0.060790062 -0.024161944 -0.077665038
-0.016591184 -0.02311272 -0.07470338
-0.11579998 -0.019619372 -0.078365304
-0.054469965 -0.018573638 -0.077463031
-0.07600832 -0.092459701 -0.060533799
-0.088271074 -0.083937325 -0.060533799
-0.20632073 -0.042157773 -0.064712346
-0.19096541 -0.044055142 -0.06890431
-0.16212727 -0.044364691 -0.068636619
-0.14822462 -0.044206753 -0.06409137
-0.097740404 -0.045054406 -0.065093555
-0.24624307 -0.038528681 -0.067170314
-0.22518285 -0.039337341 -0.063654438
-0.20576499 -0.036604837 -0.061023794
-0.1966109 -0.033573009 -0.060752347
-0.19327527 -0.020925036 -0.066751897
-0.18316521 -0.022323411 -0.064867318
-0.17452499 -0.020598959 -0.061158959
-0.16054405 -0.023906428 -0.067400813
-0.11222681 -0.026977792 -0.061107241
-0.0816264 -0.024220454 -0.062942699
-0.076785021 -0.024705146 -0.069448218
-0.062140096 -0.024083219 -0.067618407
-0.047957744 -0.023721436 -0.064370066
-0.037817262 -0.023761565 -0.061446793
0.025808979 -0.023816917 -0.06084805
-0.12516908 -0.019764686 -0.066520423
-0.09802302 -0.01930294 -0.067038514
0.00093402714 -0.017613808 -0.064028531
0.021919301 -0.017255615 -0.063401885
-0.10663845 -0.082756758 -0.054677799
-0.093219467 -0.083119825 -0.051018201
-0.085309714 -0.082480781 -0.054677799
-0.079215869 -0.085754171 -0.059609607
-0.087665625 -0.07974077 -0.054677799
-0.0875168 -0.060400128 -0.052500591
-0.097345345 -0.043032117 -0.055887848
-0.10473441 -0.036654938 -0.059556022
-0.087425083 -0.038152911 -0.054677799
-0.24314764 -0.024548145 -0.053139884
-0.2378598 -0.022249842 -0.052776914
-0.22679149 -0.021849245 -0.055633895
-0.20370328 -0.024333887 -0.056614492
-0.19466117 -0.024830908 -0.051327765
-0.18953827 -0.020844121 -0.052303355
-0.17626067 -0.024407115 -0.055320814
-0.16600482 -0.020444665 -0.0534687
-0.15317498 -0.02022526 -0.052738503
-0.14207128 -0.020016951 -0.051440004
-0.10069583 -0.024125323 -0.058142304
-0.083325654 -0.02969766 -0.059285238
-0.0728122 -0.024898905 -0.050909702
-0.068341531 -0.024941631 -0.050506067
-0.037940755 -0.024054531 -0.058695879
-0.016635619 -0.024440505 -0.055044957
-0.0089009069 -0.024711406 -0.052519754
0.026472244 -0.024865635 -0.051025476
-0.12528835 -0.019752627 -0.054713622
-0.11499701 -0.01958211 -0.058708679
-0.083787158 -0.019048281 -0.056845069
-0.033671614 -0.018189782 -0.052765273
-0.02144035 -0.017986359 -0.056874238
0.043734696 -0.016794337 -0.050099678
0.053069804 -0.016916743 -0.05333665
-0.097779833 -0.085312396 -0.047358099
-0.08584138 -0.083576605 -0.046921004
-0.065579355 -0.085668072 -0.045162201
-0.22537388 -0.023754321 -0.042552091
-0.17163776 -0.020030666 -0.040073961
-0.16288137 -0.020133652 -0.045923706
-0.15234938 -0.025766514 -0.043041907
-0.14923534 -0.020039164 -0.049124181
-0.12826736 -0.025443181 -0.045984745
-0.11710616 -0.025240181 -0.047840022
-0.098422334 -0.025784349 -0.042945266
-0.068946972 -0.025969621 -0.041767087
-0.14162675 -0.019776639 -0.046040162
-0.035782062 -0.017993119 -0.046488885
0.036958851 -0.016666099 -0.04444607
-0.24090128 -0.024749288 -0.031077255
-0.22265412 -0.021475943 -0.037568234
-0.18435544 -0.02640635 -0.037486173
-0.10369187 -0.026350074 -0.038572855
0.046318978 -0.026803486 -0.03153016
0.05872025 -0.025988612 -0.031770185
0.085852191 -0.023964025 -0.036071762
0.10377336 -0.023073189 -0.031940322
-0.1736234 -0.019580847 -0.034441166
-0.16519994 -0.019580619 -0.035300002
-0.14887433 -0.019510332 -0.036997169
-0.12291186 -0.018784506 -0.034871817
-0.11404347 -0.018378191 -0.033430442
-0.084033735 -0.018314131 -0.035955001
-0.070012696 -0.017159116 -0.030781545
-0.063068867 -0.017941197 -0.035865538
0.044433676 -0.016139571 -0.037056737
0.061211206 -0.015982376 -0.038166247
0.079614669 -0.015602026 -0.036614176
0.10193232 -0.01490412 -0.034585722
-0.14810315 -0.027867956 -0.026649542
-0.12584116 -0.027739262 -0.027832584
-0.11105529 -0.027928414 -0.026518106
-0.0081973113 -0.028007386 -0.026834358
0.038687766 -0.027632697 -0.026262829
0.057566363 -0.026595412 -0.02247501
0.12337784 -0.022254139 -0.024995264
-0.22160372 -0.019392056 -0.025314273
-0.21544521 -0.018734675 -0.020901091
-0.20248541 -0.019493759 -0.029167797
-0.14977309 -0.017705228 -0.022842098
-0.11034766 -0.01749819 -0.027374551
-0.10365812 -0.01734332 -0.027162556
-0.093430094 -0.013747107 -0.024884485
-0.0052350988 -0.015507057 -0.027667509
0.058487017 -0.013719752 -0.020381443
0.064989857 -0.014208376 -0.027104054
0.071483307 -0.010362368 -0.021235598
0.082609341 -0.01350929 -0.024851173
0.094309084 -0.013252293 -0.02438454
0.10345601 -0.01383906 -0.020341024
0.11406934 -0.012657385 -0.023066523
0.16293341 -0.019933579 -0.021412253
0.17178017 -0.017371371 -0.022287916
0.23244706 -0.013067964 -0.020651024
0.25183231 -0.010642497 -0.021073177
-0.25935417 -0.0063391067 -0.020054072
-0.21659574 -0.0097900769 -0.020794451
-0.17586818 -0.004611854 -0.021808529
-0.10067366 -0.008166723 -0.021444887
-0.080810532 -0.0041551874 -0.021868052
-0.012247123 -0.00064995862 -0.021418713
0.003601769 -0.0052196006 -0.021766715
0.010214601 -0.008675606 -0.021404952
0.024287406 -0.0026336282 -0.021804923
0.039564885 -0.0077759475 -0.021502925
0.11899992 -0.0086234128 -0.02142385
0.14906394 -0.0046706377 -0.021732148
0.15957785 -0.0033543813 -0.021916874
0.17720684 -0.0030260154 -0.021847453
0.18383332 -0.0052673849 -0.021783881
0.25714731 -0.0038483767 -0.021686673
0.26924157 -0.0008420067 -0.020863555
0.27410814 -0.0040267506 -0.02140451
0.28452468 -0.0027975633 -0.020608418
-0.25207505 0.0038005998 -0.020023726
-0.15289555 0.0017709457 -0.020969745
-0.0667639 0.0054988577 -0.020021427
-0.040829554 0.0048020012 -0.020340953
-0.025191139 0.0027753292 -0.020690423
0.071083814 0.0017577767 -0.020921383
0.10478245 0.0016465023 -0.020934844
0.13823783 0.0010898262 -0.021037795
-0.1920003 -0.030329481 -0.011943648
-0.10662889 -0.030057212 -0.014054322
-0.085290603 -0.030122457 -0.013825705
-0.060286403 -0.030075654 -0.014257015
-0.0018811272 -0.030378334 -0.012927075
-0.26202697 -0.020395527 -0.010440434
-0.24243064 -0.021372706 -0.013606445
-0.23754258 -0.022897612 -0.010848258
-0.22143292 -0.021224882 -0.015110596
-0.2154375 -0.025608003 -0.015893199
-0.20503864 -0.024097238 -0.013473757
-0.19864842 -0.024537016 -0.01362666
-0.17705047 -0.029639905 -0.015954625
-0.16226211 -0.027999911 -0.01502904
-0.15061279 -0.029820744 -0.01510408
-0.1487817 -0.029712539 -0.015730049
-0.09031371 -0.020837525 -0.017309701
-0.079117887 -0.025098959 -0.013839672
-0.041866008 -0.029991802 -0.014854816
-0.027935319 -0.022692004 -0.016140841
-0.0056699482 -0.029508715 -0.017835289
0.035700448 -0.027043687 -0.015259992
0.051577903 -0.027044687 -0.018717375
0.060549941 -0.026600016 -0.012598712
0.078658283 -0.02618604 -0.01374829
0.081450336 -0.025225665 -0.015753243
0.10649237 -0.025858626 -0.014166099
0.12261379 -0.024838233 -0.014847985
0.13430357 -0.021385405 -0.017122524
0.15988714 -0.028413448 -0.011021458
0.18620278 -0.022572532 -0.016383357
0.2106867 -0.021598401 -0.017041299
0.22464061 -0.026589371 -0.013450555
0.23322971 -0.023571691 -0.015763793
0.25207621 -0.026850715 -0.012936262
0.26623517 -0.024461159 -0.014846241
0.28125256 -0.024410073 -0.014517189
-0.27337638 -0.016483642 -0.013468925
-0.18603772 -0.018349685 -0.018648403
-0.15433842 -0.018642139 -0.018624546
-0.070677027 -0.019054344 -0.018494699
-0.047637694 -0.015820231 -0.019615451
0.044431902 -0.017994935 -0.018853284
0.11608499 -0.01829223 -0.018848531
0.17111222 -0.019521257 -0.019436838
0.19039215 -0.019265238 -0.01855056
0.27842504 -0.015783621 -0.019213833
-0.32703841 -0.0026791841 -0.01488869
-0.30179325 -0.0089581786 -0.015237899
0.33484364 -0.0057201586 -0.017011849
0.35216165 -0.0049260929 -0.014222512
-0.35460398 0.002329872 -0.012410098
-0.34446847 0.0097371414 -0.011756483
-0.33585832 0.0022233489 -0.01475494
-0.31249014 0.0033272021 -0.016553849
-0.28106108 0.0062657678 -0.017823085
-0.084153727 0.0083200457 -0.018149847
-0.021640908 0.0099936184 -0.016982727
0.021309335 0.0084016817 -0.018013023
0.046244584 0.007031804 -0.018908991
0.075541548 0.0055493955 -0.0198767
0.094487384 0.0079449443 -0.018261045
0.18718857 0.0091989748 -0.017350787
0.21018997 0.0067832074 -0.018947039
0.23415564 0.0068210508 -0.018903021
0.29624575 0.0054972973 -0.016968902
0.30357906 0.0048607071 -0.016733985
0.32091576 0.0024695892 -0.016212124
-0.32108694 0.010915149 -0.012743507
-0.24773684 0.011257808 -0.015998241
-0.21688661 0.0144426 -0.012293504
-0.19380639 0.014739014 -0.011927301
-0.10873243 0.010065435 -0.017002711
-0.071644239 0.010588257 -0.016624391
-0.067668863 0.013601333 -0.013468631
0.0014678054 0.011124377 -0.016209302
0.014695241 0.014558702 -0.011891895
0.05848952 0.013022971 -0.014113425
0.13810366 0.01252426 -0.014720587
0.16999741 0.014631189 -0.011511704
0.22646327 0.01325567 -0.013471528
0.30978936 0.010640288 -0.010441758
0.18496485 -0.093942754 -0.003496469
0.17469049 -0.057115164 -0.00069881801
0.16858882 -0.042580847 -0.00012789469
-0.17522933 -0.030842341 -0.0065987459
-0.15677764 -0.031487249 -0.0056094276
-0.13296257 -0.031783801 -0.002947425
-0.068679705 -0.031404085 -0.0066652354
-0.045280911 -0.032345653 -0.0014788716
-0.0032858104 -0.032119006 -0.0021957888
0.047660671 -0.032665092 -0.00020428469
0.09071856 -0.031996213 -0.0031479746
0.11372216 -0.030730337 -0.0079899486
0.12551457 -0.0312999 -0.0061641946
0.17732684 -0.03096425 -0.0077853291
0.18340139 -0.031031761 -0.0075381105
0.22630981 -0.032334946 -0.0024105695
0.23132044 -0.031509638 -0.0058116708
0.30482611 -0.030044623 -0.0064364392
0.31202471 -0.03004718 -0.0054773604
-0.25249043 -0.024696181 -0.0020875714
-0.21371281 -0.02681493 -0.0069371099
-0.023456609 -0.02943822 -0.0094372826
0.014384575 -0.029659776 -0.0043939827
0.1227788 -0.029610669 -0.0094351918
0.33190805 -0.029954597 -0.0016749352
0.34178209 -0.028828543 -0.0042078043
0.40689039 -0.02180879 -0.0048116827
-0.27577999 -0.019725047 -0.0084136864
0.36382002 -0.0031979596 -0.00048196656
0.37059355 -0.0042601814 -0.0079652229
0.38602477 -0.0075210249 -0.0061817756
-0.4006246 0.00037602987 -0.0021323916
-0.39148244 0.0086161466 -0.0079506803
0.35030293 0.0027672253 -0.0089120753
-0.40636429 0.013814807 -0.00080932456
-0.36147922 0.012872091 -0.0078419847
-0.3035793 0.01675754 -0.0013120156
-0.23823754 0.017217368 -0.0076104403
-0.22409301 0.017905883 -0.0025070217
-0.21502389 0.018116534 -0.0016930792
-0.20487547 0.018347096 -0.0014819881
-0.12441747 0.017575372 -0.0057728686
-0.054024238 0.017750107 -0.0044803736
-0.0322331 0.017635513 -0.0049284562
0.039942615 0.016110372 -0.0095255086
0.079552501 0.017882209 -0.003031404
0.11178897 0.017789867 -0.0033063148
0.14467111 0.016221324 -0.0091761891
0.25576112 0.017590113 -0.0012232277
0.31606504 0.010132213 -0.009809427
0.32037175 0.010784207 -0.0077301976
-0.34088236 0.028521089 -0.001049737
-0.33527693 0.023287077 -0.0014638799
-0.2931633 0.029189732 -0.0014638799
-0.27956972 0.024494408 -0.0014638799
-0.35766494 0.034818903 -0.0014638799
-0.33944178 0.039781936 -0.0014638799
-0.24992512 0.033938959 -0.0014638799
-0.35907269 0.045334939 -0.0014638799
-0.25713453 0.046395529 -0.00082022918
-0.34609315 0.052617509 -0.0013723872
-0.33125478 0.057832576 -0.0014638799
-0.3168903 0.054387666 -0.0011851883
-0.27802414 0.056495003 -0.0014638798
-0.35900214 0.068794459 -0.0014638799
-0.33982718 0.067462087 -0.0010906159
-0.32272229 0.066233344 -0.00096738548
-0.28751191 0.06289953 -0.0014638799
-0.3499108 0.077186383 -0.0014638799
-0.33611214 0.079199046 -0.0014638799
-0.32166886 0.082619302 -0.0014638799
-0.36175817 0.093219489 -0.0014638799
-0.35399932 0.092739314 -0.0014638798
0.17904234 -0.064726457 0.0013172399
-0.17935817 -0.031292647 0.0065632751
-0.1268656 -0.031754218 0.0030973933
-0.11521997 -0.031639926 0.0050184568
-0.099840358 -0.031440064 0.0062542246
-0.089713104 -0.032551419 1.1898314e-05
-0.072547421 -0.032255091 0.0013069548
-0.043476142 -0.030854341 0.0099507216
-0.029629484 -0.032455821 0.0009572198
-0.0034204884 -0.030743329 0.0061937561
0.0025893748 -0.031219631 0.005904987
0.0971561 -0.031995516 0.003181915
0.11548206 -0.030945664 0.007565775
0.13597606 -0.032369472 0.0018371671
0.14090754 -0.032406311 0.0017099846
0.17940047 -0.034681316 0.0013172399
0.19634812 -0.031200828 0.0069081211
0.24026006 -0.032820333 0.00049061183
0.2604509 -0.03153142 0.0048137731
-0.2728045 -0.021287516 0.0047115125
-0.22319236 -0.025115971 0.0089332638
-0.21376958 -0.028168762 0.0047887447
-0.024748651 -0.029042399 0.009941495
0.073928542 -0.025827762 0.0090897763
0.30395293 -0.028271846 0.0091599273
0.31258619 -0.028166141 0.0087963548
0.34759352 -0.02751541 0.0065404791
0.38638601 -0.026145458 0.0019711
-0.32135391 -0.012949782 0.0078422483
-0.31830513 -0.012639351 0.009213374
0.38946024 -0.015117839 0.0098567801
0.42367592 -0.017173443 0.0041162195
-0.36980405 -0.0062705427 0.00076423248
0.37376261 -0.0056048105 0.004727358
-0.41959822 0.0043036574 0.00097192469
-0.39803338 0.0039564073 0.0068746922
0.33551264 0.0092957485 0.0049063102
0.34428573 0.0082620401 0.0033058184
-0.36364958 0.015529141 0.00035177395
-0.34938657 0.017504312 0.0012886475
-0.33699757 0.018991198 0.0014638898
-0.32814443 0.019959664 0.00146389
-0.31707376 0.016397938 0.0014697257
-0.2349073 0.017833199 0.00096036791
-0.21740168 0.017562509 0.0059866994
-0.20841493 0.017629251 0.0056995042
-0.19160698 0.017500723 0.0064362977
-0.14632647 0.017102307 0.0071869125
-0.13273728 0.017498981 0.0062054312
-0.10625587 0.01863433 0.00034118068
-0.058050591 0.017726827 0.0046206419
-0.03823854 0.018488888 0.0006729177
-0.0016778857 0.018536665 0.00021808468
0.022008285 0.017864104 0.0034598392
0.035946738 0.01613716 0.0094919428
0.058540165 0.017911132 0.0030089375
0.062765963 0.017641749 0.0043382561
0.13854261 0.017185891 0.0061848345
0.14406912 0.018077698 0.0016694401
0.16029049 0.017468831 0.0046348562
0.17828369 0.017501863 0.0043631578
0.18922403 0.017661475 0.0034965763
0.27314419 0.016669907 0.0031022381
0.29023489 0.015662115 0.0012545496
-0.35728228 0.022242989 0.00146389
-0.34798729 0.027339928 0.00146389
-0.27133149 0.021641282 0.0014666652
-0.26724544 0.023765333 0.00146389
-0.22926202 0.028003085 0.00146389
-0.20285636 0.023887843 0.0014069193
-0.35867497 0.031346977 0.00146389
-0.34563047 0.036186259 0.00146389
-0.31169224 0.035472296 0.00146389
-0.30070317 0.030242804 0.0014638901
-0.25416255 0.032975309 0.00146389
-0.36730444 0.042867072 0.00146389
-0.34717959 0.046611838 0.0014638901
-0.30056944 0.04031964 0.00146389
-0.34341586 0.051501475 0.0014638901
-0.33197343 0.059471387 0.00146389
-0.30428559 0.055629089 0.00146389
-0.34416196 0.063015804 0.0011625857
-0.32756242 0.064328171 0.00146389
-0.34520498 0.070137955 0.0014638901
-0.33571976 0.071725026 0.00146389
-0.30901554 0.084258407 0.00146389
-0.32885128 0.095210865 0.0014638901
-0.17327848 -0.030217838 0.012700897
-0.097249299 -0.030778434 0.010024887
-0.05508158 -0.03043301 0.01226401
-0.23022193 -0.024254292 0.018512109
-0.21178702 -0.025458779 0.010962851
-0.20618914 -0.021855395 0.015425241
-0.19623533 -0.027179029 0.010518745
-0.18488893 -0.022021128 0.016334156
-0.15934134 -0.021243857 0.016990153
-0.14957422 -0.028724283 0.01016183
-0.11475458 -0.02978339 0.015553596
-0.09099225 -0.024703972 0.014772399
-0.06205146 -0.025253208 0.014434194
-0.0043199472 -0.026222788 0.016268551
0.010514855 -0.025591113 0.014268083
0.034121044 -0.026749667 0.01296109
0.045727849 -0.026639877 0.013118809
0.066037685 -0.02739485 0.011692228
0.071664475 -0.025759984 0.019890519
0.093717478 -0.026548712 0.013307041
0.10900904 -0.023552205 0.01277786
0.15489326 -0.028736178 0.010601342
0.16490692 -0.028291546 0.011184835
0.17515348 -0.020202782 0.017929802
0.19224311 -0.025486665 0.014475873
0.21294624 -0.025127515 0.014116373
0.25610143 -0.027254052 0.012346322
0.30233991 -0.02737242 0.010398429
-0.2456113 -0.018454909 0.015761159
-0.11542127 -0.016927734 0.019216398
-0.10776549 -0.019163305 0.018394759
-0.034602646 -0.018193631 0.018822452
-0.0076834373 -0.017472446 0.019075556
0.0082844887 -0.01522134 0.019838858
0.038700435 -0.017075617 0.019227238
0.16785693 -0.016935006 0.019325305
0.30647796 -0.0125773 0.018834054
0.32388201 -0.012164003 0.01766214
0.36532557 -0.013839774 0.013445272
0.38932073 -0.016533691 0.010000975
-0.32611388 -0.005690454 0.013920414
-0.30178976 -0.00142981 0.017592067
0.32681113 -0.0056581553 0.017859533
0.33711153 -0.0079402728 0.016862256
-0.3734504 0.0054386081 0.010589427
-0.33045396 0.0017681856 0.01535197
-0.24362954 0.0093225008 0.017308025
-0.22420681 0.0056496831 0.019840641
-0.052456029 0.008829888 0.017784178
-0.023759088 0.0085808691 0.017928133
0.027793938 0.0088047329 0.017738294
0.049063496 0.0072586099 0.01875481
0.082617894 0.0081492802 0.01813364
0.23221147 0.0078846654 0.018193828
0.26706597 0.0057733133 0.01883949
0.28089669 0.0039350302 0.019394057
0.31831181 0.0056009996 0.014515126
-0.34142387 0.011463529 0.010833857
-0.31076729 0.010763415 0.013433181
-0.29505864 0.013354005 0.011796362
-0.24356376 0.010911642 0.016246401
-0.18726532 0.011920253 0.015799813
-0.1661478 0.013258373 0.013560056
-0.14333349 0.010653625 0.016636569
-0.059397392 0.010661516 0.016565908
0.040942803 0.015648698 0.010214241
0.12539721 0.01510055 0.010886819
0.13764742 0.014085405 0.012384666
0.164279 0.013811062 0.012748648
0.20068111 0.013500007 0.013150479
0.25353259 0.010802999 0.015872702
-0.24151157 -0.023774356 0.02343121
-0.23905133 -0.024111545 0.023375751
-0.1601804 -0.028380562 0.023210492
-0.15901096 -0.027703894 0.027801048
-0.037328266 -0.028664796 0.022412773
-0.020514304 -0.027803143 0.028289221
-0.018025529 -0.028723665 0.022206828
0.012226714 -0.027897103 0.027862485
0.035966326 -0.027836861 0.025814317
0.089547165 -0.024246793 0.027935579
0.095762625 -0.02407592 0.024347112
0.1362229 -0.021379296 0.025725221
0.14794926 -0.020816078 0.022715574
0.15274858 -0.020124413 0.028684365
-0.20432842 -0.010784538 0.020819269
-0.19985279 -0.018862322 0.024410307
-0.12470172 -0.017295148 0.023443278
-0.10846087 -0.017667769 0.029062033
-0.05176203 -0.016059561 0.024843581
-0.025144394 -0.015596807 0.025257468
-0.0095865857 -0.013487431 0.020414969
0.017016578 -0.015053086 0.02725991
0.022352118 -0.011328053 0.021128424
0.045767736 -0.014872174 0.029003587
0.056269407 -0.010033396 0.021268092
0.09103854 -0.013032527 0.022603577
0.14586644 -0.014505841 0.025984714
0.16638181 -0.014618736 0.020103637
0.21512198 -0.0134925 0.02050153
0.24836297 -0.014456355 0.02009766
-0.22394842 -0.0080697034 0.020984057
-0.21489388 -0.0031993776 0.021723846
-0.18178985 -0.009398872 0.021305621
-0.17409323 -0.0067678904 0.021582395
-0.16453448 -0.0059263017 0.021671802
-0.13141191 -0.0069597578 0.021567525
-0.098247677 -0.006539423 0.021615665
-0.075443715 -0.0065938849 0.021612659
-0.058820918 -0.0072233249 0.02154877
-0.045251586 -0.0072269859 0.021549877
-0.038904339 -0.0085742995 0.021409623
-0.0079694428 -0.0078898203 0.021484934
0.0069617834 -0.00051530509 0.021387441
0.05607339 -0.0053358143 0.021760656
0.067066595 -0.0067002168 0.021618851
0.12272376 -0.0066906661 0.021626677
0.14321211 -0.0044278023 0.021866526
0.1694767 -0.0095796715 0.021329697
0.17004985 -0.0038716355 0.02192815
0.20859325 -0.006676917 0.021638799
0.24672776 -0.00018500979 0.021155875
0.26373309 -0.0060408451 0.021386649
-0.1625466 0.0042690649 0.020475006
-0.14042723 0.0045923013 0.02040568
-0.11993533 0.0040889047 0.020500913
0.10021898 0.0031280159 0.020649586
0.13134055 0.0018502139 0.020890564
0.19704285 0.0011655635 0.0210099
-0.23980108 -0.025184128 0.036897093
-0.22492288 -0.021040889 0.033172622
-0.21521685 -0.026570266 0.035980821
-0.20519748 -0.027112726 0.031910695
-0.18068559 -0.026525317 0.036605489
-0.14497869 -0.027308799 0.030914873
-0.13362776 -0.026967783 0.033601865
-0.089465588 -0.026920782 0.034370411
-0.05858165 -0.027255112 0.03214274
-0.032377373 -0.02701246 0.034222662
0.014392857 -0.026702784 0.037003987
0.050890166 -0.025997587 0.038050689
0.081027225 -0.024296073 0.035743985
-0.14974955 -0.018831987 0.032077469
-0.13362318 -0.018561007 0.032405078
-0.12727347 -0.019149598 0.037163913
-0.10650147 -0.018226787 0.033300918
-0.030004267 -0.017368838 0.035813719
-0.01033299 -0.017198611 0.038111374
-0.0055056922 -0.017171077 0.039380312
0.051218335 -0.015471293 0.032910798
0.096616402 -0.01500348 0.034635514
-0.095104992 -0.086075425 0.047358099
-0.087291032 -0.084030554 0.045162201
-0.091609903 -0.075065851 0.048976716
-0.077762775 -0.078320324 0.045162201
-0.24596277 -0.024174552 0.049821701
-0.23721337 -0.024094071 0.044004139
-0.21973786 -0.021487677 0.045269188
-0.13666037 -0.025776669 0.042917542
-0.11899153 -0.025904611 0.041857429
-0.10221174 -0.025760442 0.043097191
-0.062602356 -0.025093341 0.049091998
-0.050325636 -0.025658857 0.044296499
-0.0440327 -0.026081733 0.041132029
-0.032803103 -0.025841681 0.043049686
-0.023800595 -0.025587065 0.045071933
-0.0085589979 -0.025643118 0.044778351
0.096616626 -0.022049438 0.046547607
-0.12364689 -0.019428225 0.045061693
-0.10015684 -0.019221697 0.049552783
-0.09869507 -0.019216053 0.049999513
-0.065775059 -0.01848118 0.045959339
0.073160395 -0.016118208 0.046040315
-0.10528244 -0.088914528 0.051017702
-0.084297411 -0.086806506 0.051017702
-0.079679638 -0.085603535 0.053992264
-0.069196329 -0.080271915 0.051017702
-0.094203055 -0.076912642 0.052237734
-0.084170513 -0.079769239 0.05284775
-0.092126861 -0.057331271 0.053455688
-0.094698101 -0.042272992 0.055791095
-0.11865585 -0.035547812 0.05997704
-0.10924491 -0.037911132 0.059857726
-0.085470431 -0.035271242 0.056353785
-0.23944791 -0.021853114 0.058550738
-0.22014058 -0.024491478 0.056806948
-0.21091111 -0.022887815 0.057275906
-0.17538433 -0.020611297 0.059227541
-0.1677707 -0.023214534 0.052985374
-0.11105447 -0.02539078 0.05919037
-0.10143817 -0.024372257 0.05584795
-0.065447971 -0.024195073 0.057409834
-0.043770712 -0.023917807 0.059986662
-0.029474949 -0.024397235 0.055466752
-0.018649861 -0.023939377 0.059752941
-0.12036872 -0.019670688 0.056266088
-0.083974279 -0.018967872 0.050058879
-0.060237292 -0.018646216 0.056058243
-0.036162291 -0.018232591 0.05308767
-0.10538648 -0.080045767 0.0605333
-0.098424233 -0.078501403 0.0605333
-0.077533349 -0.07755743 0.0605333
-0.16018054 -0.042157277 0.061387856
-0.15460846 -0.044259816 0.063825965
-0.14921044 -0.040158585 0.060301546
-0.091079883 -0.042712364 0.06033875
-0.24442209 -0.036222067 0.065327622
-0.23703761 -0.039054975 0.06794285
-0.20136434 -0.032098047 0.060762413
-0.18298657 -0.038790099 0.060834728
-0.1608358 -0.039804861 0.060491838
-0.13052601 -0.031539053 0.063074917
-0.097854808 -0.039052598 0.060685921
-0.23624386 -0.027879527 0.065567292
-0.14668256 -0.023880508 0.062012669
-0.10253086 -0.02417098 0.069201536
-0.069179438 -0.024245415 0.067640737
-0.05617832 -0.023875806 0.061189353
-0.13432577 -0.019913772 0.0607435
-0.10818675 -0.01947071 0.062554576
-0.23270899 -0.04008618 0.074416101
-0.21447456 -0.043802794 0.072634503
-0.19816369 -0.043977879 0.070107788
-0.18807539 -0.044086166 0.078570828
-0.17527202 -0.044223599 0.078270361
-0.1405486 -0.044594646 0.077011988
-0.24640216 -0.032150563 0.076038159
-0.13044898 -0.036885206 0.078537107
-0.12002919 -0.032812588 0.078755356
-0.11541392 -0.032398853 0.07885211
-0.1002178 -0.034273177 0.078941852
-0.09271951 -0.03021585 0.078747585
-0.24404302 -0.026796324 0.074240938
-0.23897611 -0.025955915 0.076940142
-0.21156971 -0.021244895 0.073650673
-0.1909028 -0.020896014 0.076255858
-0.18177705 -0.020740379 0.076086104
-0.15940943 -0.024042413 0.078756914
-0.14439654 -0.022085354 0.076249368
-0.13802052 -0.024032589 0.071894594
-0.12329361 -0.025198491 0.079881907
-0.11889395 -0.024145942 0.07484521
-0.10351542 -0.026783578 0.078583255
-0.091679126 -0.029894413 0.075697318
-0.061656594 -0.024196684 0.079019681
-0.055975176 -0.023968033 0.070056736
-0.0080866441 -0.022892557 0.072460905
0.016452031 -0.022166537 0.0735939
-0.18309277 -0.044138264 0.087776564
-0.10890474 -0.04099163 0.084620237
-0.1176495 -0.039326258 0.081995845
-0.24317516 -0.027312193 0.083258115
-0.20979074 -0.021231556 0.087809712
-0.19850081 -0.021033458 0.082962252
-0.17509294 -0.02063735 0.085115649
-0.1564351 -0.020322101 0.087230302
-0.11679828 -0.025227826 0.082828037
-0.080509707 -0.024476286 0.088290974
-0.076423161 -0.025227677 0.082922414
-0.04851054 -0.023968905 0.085852481
-0.063143253 -0.018731609 0.085956529
-0.24054022 -0.042183518 0.091438808
-0.18934603 -0.044052277 0.094506599
-0.15857904 -0.04439516 0.093541592
-0.14018878 -0.042010076 0.099430591
-0.12226475 -0.044779826 0.093980879
-0.24564092 -0.033673581 0.096878454
-0.23449479 -0.037601177 0.095449738
-0.16490731 -0.032037873 0.09968619
-0.24429759 -0.025845554 0.095483072
-0.21594359 -0.024121322 0.097099282
-0.20720138 -0.024134647 0.099254631
-0.18635517 -0.020842858 0.096539639
-0.16389263 -0.022344749 0.095907852
-0.15437467 -0.021596462 0.094070651
-0.12854137 -0.025266904 0.099542595
-0.095535956 -0.024489801 0.0949945
-0.078202359 -0.02828039 0.097357601
-0.034180999 -0.022846639 0.092959136
-0.1161667 -0.019644409 0.094076641
-0.10300341 -0.019415764 0.090338841
-0.066798039 -0.018800071 0.091186434
-0.05965405 -0.018682392 0.094621271
-0.23934035 -0.023868613 0.10040185
-0.21759531 -0.024617756 0.10013838
-0.19611394 -0.024297304 0.1040732
-0.18507773 -0.020841965 0.10353004
-0.17019704 -0.02442446 0.10593796
-0.14240126 -0.020100702 0.10212706
-0.13512336 -0.022427231 0.10928333
-0.083445773 -0.02472329 0.10398167
-0.083790131 -0.019170318 0.10464681
-0.23193716 -0.024574418 0.11268465
-0.21630961 -0.024581321 0.11211909
-0.18268871 -0.024932384 0.11885608
-0.17260993 -0.024881192 0.11717492
-0.16431707 -0.02114087 0.11709885
-0.14931509 -0.022762801 0.11402119
-0.12035574 -0.020518905 0.11973757
-0.11982136 -0.020150099 0.11225815
-0.081271544 -0.019468321 0.11173591
-0.23668826 -0.024712278 0.1285359
-0.17333214 -0.025570303 0.12931608
-0.15024996 -0.025354292 0.12544198
-0.12609434 -0.020785622 0.12325095
-0.10677318 -0.023147836 0.12542373
-0.23409753 -0.024597974 0.13157743
-0.18373048 -0.022479396 0.1348941
-0.17994629 -0.022228464 0.13319792
-0.14251909 -0.024151729 0.13575536
-0.12860321 -0.021598469 0.13542326
-0.23761541 -0.02704652 0.14749983
-0.20195976 -0.024116855 0.14696479
-0.1973353 -0.02697096 0.14460075
-0.16533715 -0.027538873 0.14786883
-0.15391919 -0.024725357 0.14706893
-0.13673496 -0.02704189 0.14112948
-0.23231599 -0.026876643 0.15339923
-0.22611482 -0.027160395 0.15679857
-0.21524213 -0.025217388 0.1549183
-0.189677 -0.024967384 0.15660504
-0.1753062 -0.027041843 0.15530674
-0.15692756 -0.026174366 0.15423867
-0.2339129 -0.028676927 0.16205773
-0.18567961 -0.02807671 0.16810487
-0.15754497 -0.028888986 0.16013467
-0.22637036 -0.03024178 0.17791118
-0.18781996 -0.030029129 0.17162016
-0.16848882 -0.030421343 0.17566822
-0.22526507 -0.031657018 0.18264613
-0.21795994 -0.031479865 0.187383
