# .PCD v0.7 - Point Cloud Data file format
VERSION 0.7
FIELDS x y z
SIZE 4 4 4
TYPE F F F
COUNT 1 1 1
WIDTH 853
HEIGHT 1
VIEWPOINT 0 0 0 1 0 0 0
POINTS 853
DATA ascii
-0.10360816 -0.045753807 -0.34156975
-0.10179632 -0.047155563 -0.3366631
-0.090422526 -0.04854805 -0.32258919
-0.070684984 -0.048898783 -0.3190445
-0.10385233 -0.049893245 -0.30899444
-0.097068325 -0.050961073 -0.29794043
-0.087679662 -0.051213723 -0.2956489
-0.07415387 -0.051695518 -0.29077947
-0.073912241 -0.050051142 -0.28347132
-0.066978596 -0.051978089 -0.28792357
-0.055122741 -0.05236927 -0.28397009
-0.062363416 -0.050158937 -0.27323452
-0.05906691 -0.052961573 -0.27798408
-0.048299141 -0.050250761 -0.26479757
-0.072082058 -0.055380642 -0.25353599
-0.047820505 -0.055505548 -0.25227356
-0.043563206 -0.051883727 -0.24617991
-0.034560978 -0.051971361 -0.24544552
-0.077889718 -0.056837421 -0.23592509
-0.058342181 -0.054459192 -0.23604932
-0.041900124 -0.056934386 -0.23783305
-0.026525985 -0.055454604 -0.23335737
-0.074578591 -0.057796557 -0.2291197
-0.065111242 -0.056531377 -0.22777347
-0.055703212 -0.055019401 -0.2293551
-0.04150423 -0.053439967 -0.22965655
-0.025789635 -0.053204317 -0.22503942
-0.028532472 -0.059223447 -0.21469881
-0.062733479 -0.061123382 -0.20431764
-0.013812533 -0.060459964 -0.20220195
-0.0099616097 -0.060337473 -0.20343992
-0.046790831 -0.059966959 -0.20718461
-0.020252574 -0.059682261 -0.20941719
-0.014527598 -0.059843116 -0.2084361
-0.042592101 -0.061521739 -0.19147131
-0.020659197 -0.061116539 -0.19556634
-0.0031386372 -0.061181016 -0.19491464
-0.03577685 -0.056728452 -0.19692628
-0.019399822 -0.055825401 -0.19352831
-0.056006156 -0.061920494 -0.18006609
-0.060236614 -0.063456371 -0.17191902
-0.058259353 -0.062785603 -0.17869814
-0.049989343 -0.061480951 -0.17714106
-0.032302972 -0.063536033 -0.17111389
-0.0022205524 -0.063054815 -0.17597724
8.4025785e-05 -0.063599259 -0.17047484
0.010781374 -0.064119466 -0.16521734
-0.055375159 -0.070430472 -0.15091702
-0.056903571 -0.068356857 -0.15046434
-0.043537445 -0.063453831 -0.15643987
-0.020608762 -0.065290786 -0.15337956
0.11096445 -0.10037044 -0.14602447
0.11412239 -0.099973328 -0.14620245
0.12923682 -0.087747388 -0.14480028
0.13255601 -0.088072054 -0.14206794
-0.046016231 -0.065608129 -0.1434633
-0.0018987702 -0.059734382 -0.14522763
0.0077229803 -0.059614263 -0.14055783
0.081789464 -0.10890636 -0.13035128
0.061896246 -0.081925467 -0.13510144
0.080566458 -0.07480932 -0.13312018
-0.047268711 -0.067441463 -0.13139401
-0.026534162 -0.063863806 -0.13630101
0.0059321425 -0.067441471 -0.1316437
0.026026392 -0.067446232 -0.13159561
0.10047941 -0.10493615 -0.12632537
0.033044431 -0.092116348 -0.12329455
0.050664417 -0.096355878 -0.12844963
0.023031846 -0.084075272 -0.12578282
0.045710489 -0.087501451 -0.12252226
0.053447645 -0.084992789 -0.12382618
-0.033709824 -0.073449872 -0.12631468
-0.022677649 -0.070229635 -0.12601016
-0.0048095272 -0.070318475 -0.12342113
0.0060014175 -0.070260152 -0.12652801
0.016211955 -0.070307679 -0.12718977
0.038221598 -0.07956247 -0.12847829
0.064671561 -0.077439994 -0.12389937
0.073390827 -0.075745434 -0.12884672
0.083235584 -0.073988497 -0.12751201
0.10185114 -0.076132551 -0.12200816
0.12227225 -0.070397086 -0.12712985
-0.044823587 -0.067804039 -0.12647663
-0.013916443 -0.068168908 -0.12429189
-0.0083220657 -0.067254581 -0.12584025
0.11061388 -0.069202811 -0.12506711
0.10997213 -0.11164734 -0.11372851
0.048170224 -0.097504325 -0.11858884
0.067902736 -0.09856306 -0.11014688
0.053669382 -0.085425414 -0.11923148
0.098773643 -0.082157686 -0.11077745
-0.024497051 -0.073061399 -0.11543913
0.01740969 -0.075749904 -0.11550434
0.029751576 -0.079943873 -0.11560891
0.039414946 -0.078171544 -0.11556302
0.072945699 -0.074058503 -0.11545715
0.086242959 -0.07311096 -0.11422751
0.10785528 -0.070793934 -0.1144639
0.11760388 -0.070119061 -0.11620009
0.12668711 -0.074340925 -0.11118193
-0.037421063 -0.068304509 -0.11194983
-0.010101162 -0.068802297 -0.11789012
0.11838472 -0.069032475 -0.11989038
-0.31133384 -0.016754657 -0.11508152
0.069060557 -0.092967235 -0.10592616
0.080143303 -0.093127362 -0.10574971
0.11430572 -0.09329664 -0.10529393
0.090047747 -0.088154361 -0.10703985
0.10465772 -0.078895055 -0.10401374
-0.036237728 -0.069671884 -0.1091011
-0.022669377 -0.115996 -0.096553087
-0.0032583412 -0.11423162 -0.09365198
0.003751921 -0.11939619 -0.094628982
-0.020508856 -0.10713479 -0.097765028
-0.0092339301 -0.10829867 -0.090079315
0.12266006 -0.095642842 -0.098990485
0.0073246378 -0.071118206 -0.094483368
0.045569502 -0.070997804 -0.095700324
0.055060305 -0.071511157 -0.090511955
-0.022329068 -0.067584679 -0.097996324
-0.3206861 -0.018589821 -0.090903088
-0.29085588 -0.018223453 -0.097971529
-0.0086771622 -0.12595072 -0.088841319
-0.020855609 -0.1198664 -0.08966291
-0.011979938 -0.11519416 -0.08348757
-0.0047312491 -0.11076327 -0.081316598
-0.0072800196 -0.10538332 -0.081234694
-0.014250298 -0.096589573 -0.082193211
-0.0034770845 -0.097173654 -0.08309117
0.0029703903 -0.091118485 -0.084497415
-0.032304291 -0.070383623 -0.083982944
-0.0079990849 -0.074309126 -0.087316081
0.015233489 -0.077955469 -0.08487834
0.049989421 -0.072285265 -0.082687989
0.007580935 -0.065738678 -0.083696708
0.049167134 -0.063346393 -0.080149829
0.051812988 -0.063600004 -0.081399858
-0.30660951 -0.01785093 -0.080379739
-0.018852359 -0.11430788 -0.079998136
-0.0063837292 -0.106555 -0.07562419
0.0031993431 -0.10607959 -0.071992509
-0.034460176 -0.073222019 -0.073220253
-0.024488665 -0.070122778 -0.07653372
-0.0080007147 -0.072677508 -0.078723587
-0.0050120978 -0.06811136 -0.075347945
0.054239657 -0.063799821 -0.075851947
-0.31476802 -0.020726193 -0.070506714
0.001129202 -0.11861884 -0.068923533
-0.0081514511 -0.074077144 -0.064577527
0.0090465816 -0.074190252 -0.0634344
0.015429826 -0.067271292 -0.063299991
0.044409264 -0.064808965 -0.067589238
0.051954068 -0.064865313 -0.063199587
0.066719204 -0.065698072 -0.06994088
-0.29130107 -0.021385223 -0.062417828
-0.27800062 -0.021106966 -0.065164626
-0.03520079 -0.074413136 -0.050116684
-0.028504398 -0.07458622 -0.05943238
-0.011075765 -0.0748308 -0.056960497
-0.0077122543 -0.071273297 -0.051002931
0.024582123 -0.074671119 -0.058574386
0.041832015 -0.074764967 -0.057625815
-0.0017601185 -0.069893643 -0.057144076
0.031393606 -0.066528723 -0.056570649
-0.29349038 -0.021769462 -0.058158841
-0.27345145 -0.022036713 -0.054575533
0.04028663 -0.091641657 -0.043251589
-0.020955306 -0.080126099 -0.043362178
0.03934801 -0.080696337 -0.043356523
0.047505349 -0.088018648 -0.043286312
0.052073222 -0.082770593 -0.043336619
0.071028426 -0.084895663 -0.043316212
0.087581418 -0.080152944 -0.043361653
-0.037045226 -0.076056622 -0.044571351
-0.010772872 -0.078512967 -0.043377616
-0.0027409522 -0.074834697 -0.047524374
0.017474491 -0.075782485 -0.047341868
0.020127447 -0.079029292 -0.043372672
0.039836418 -0.078119531 -0.043381222
0.085842624 -0.071260795 -0.047170844
-0.096773133 -0.060203694 -0.042422865
-0.081821181 -0.062014289 -0.042577453
-0.043102439 -0.060597088 -0.0429518
-0.032045443 -0.066523448 -0.043492451
-0.016773526 -0.067400165 -0.043484055
-0.0021576211 -0.06382893 -0.041871801
0.003889658 -0.06269519 -0.043529116
0.019869816 -0.067690432 -0.040193114
0.0247309 -0.069498807 -0.046996552
0.034840807 -0.060252018 -0.0430016
0.044959277 -0.067741044 -0.046822608
0.060535595 -0.066501968 -0.040709771
0.1093989 -0.069817528 -0.043460719
0.11188451 -0.06484662 -0.041429386
0.1969558 -0.06352938 -0.040678047
-0.11515771 -0.058774762 -0.040216744
-0.067928791 -0.055933185 -0.043625429
-0.01025301 -0.054775573 -0.043791972
0.036799997 -0.050020613 -0.044364605
0.14743933 -0.053409509 -0.043989085
0.19468242 -0.05237826 -0.043045025
-0.078774184 -0.048250698 -0.044143781
0.011467125 -0.045426387 -0.043791361
0.033438392 -0.043512642 -0.043552291
0.051625453 -0.048055969 -0.044119481
0.11694259 -0.047292717 -0.044024244
0.13654199 -0.040078878 -0.043123722
0.16817537 -0.047807209 -0.044088367
-0.037068076 -0.036646869 -0.041979376
0.0039145942 -0.035963193 -0.041697476
0.061680749 -0.03896419 -0.042934105
0.17758423 -0.033601865 -0.040724445
0.19657467 -0.036375247 -0.040365901
-0.29257271 -0.021423336 -0.048215106
-0.2752679 -0.022551395 -0.048838567
-0.050774891 -0.091433734 -0.030639641
-0.035655908 -0.092844263 -0.031542096
-0.067261919 -0.08709646 -0.033030823
-0.057714753 -0.089658417 -0.031796247
0.050045677 -0.080318078 -0.031736888
0.075008832 -0.080340803 -0.031718716
0.097642809 -0.088544354 -0.033081926
0.10960428 -0.080972001 -0.031213868
-0.10096415 -0.071254276 -0.036317248
-0.077656344 -0.072010294 -0.039191321
-0.056730628 -0.078913286 -0.032649498
-0.033947662 -0.079710349 -0.03222296
-0.0045399228 -0.076459244 -0.034823276
0.024765315 -0.076408058 -0.03486421
0.093714699 -0.07514488 -0.035874546
0.11349932 -0.075003944 -0.036001746
0.16040292 -0.071059227 -0.038728613
0.18690315 -0.0792384 -0.03260044
-0.1364619 -0.06331373 -0.034729205
-0.11560617 -0.068151489 -0.03573611
0.099634282 -0.060491093 -0.037566669
0.10847098 -0.067186669 -0.037361197
0.16917244 -0.069963478 -0.039204963
0.20615536 -0.064428627 -0.038992185
-0.17673284 -0.053394668 -0.03273138
0.0092806714 -0.056482397 -0.0302983
0.031660452 -0.056556087 -0.037984911
0.046956379 -0.056559879 -0.038380034
0.0633865 -0.056722246 -0.034873813
0.093185209 -0.057951272 -0.036634374
0.2573801 -0.053858254 -0.030466862
-0.12531295 -0.040775452 -0.039875619
-0.12536605 -0.037097439 -0.03936087
0.064808175 -0.030495603 -0.039444465
0.11834765 -0.031572822 -0.03988824
0.2032707 -0.03425255 -0.038376741
0.2315273 -0.030277587 -0.031235911
-0.30062497 -0.023888912 -0.034524184
-0.28939357 -0.024054006 -0.032343667
-0.1764164 -0.028978679 -0.031688638
-0.042054344 -0.027485283 -0.037813783
-0.0048883632 -0.024131879 -0.035235584
0.003127858 -0.025637466 -0.036393028
0.042653847 -0.02097258 -0.032806579
0.056653447 -0.023959257 -0.0351028
0.1441447 -0.025473872 -0.036267176
0.19423394 -0.027866313 -0.036886923
0.20325413 -0.023414921 -0.031835102
-0.050137676 -0.018307436 -0.030129336
-0.055172268 -0.091236696 -0.027932219
-0.03327851 -0.093235932 -0.02973613
-0.00039284909 -0.094856024 -0.028951274
0.044108164 -0.094605677 -0.023678297
-0.11947274 -0.080579221 -0.021200635
-0.092834443 -0.083552532 -0.025393769
-0.058079164 -0.087598883 -0.021397104
-0.0074701747 -0.087436289 -0.022533206
0.045491986 -0.087817132 -0.022015672
0.1085365 -0.082056127 -0.029844351
0.11112286 -0.087005347 -0.023118816
0.12668607 -0.088658765 -0.020095963
0.15630472 -0.084185153 -0.026951201
0.23123597 -0.081830427 -0.024532849
-0.13095489 -0.077936515 -0.021337423
-0.10223761 -0.079136059 -0.028722957
-0.093386367 -0.075007886 -0.021579467
-0.071375683 -0.06249572 -0.026935497
0.10313764 -0.062392365 -0.023845347
-0.21069342 -0.05880972 -0.020982569
-0.03711905 -0.056388214 -0.020472988
0.020819122 -0.05638478 -0.020115107
0.033432942 -0.056447007 -0.02660629
0.045138106 -0.056392267 -0.02089612
0.088933364 -0.057669152 -0.025247185
-0.23632173 -0.035153821 -0.023200117
-0.29920983 -0.024395114 -0.028789515
-0.28912982 -0.024731208 -0.024718709
-0.26567858 -0.024422863 -0.027511574
-0.24483544 -0.022774145 -0.026050545
-0.23491712 -0.022979839 -0.026176233
-0.22096676 -0.025529552 -0.02372721
-0.18545128 -0.025210975 -0.028993515
0.23376301 -0.020442683 -0.021745244
-0.18973829 -0.018247003 -0.022326011
-0.15389076 -0.017070642 -0.023649286
-0.14148837 -0.014387533 -0.021001259
-0.11668507 -0.012521192 -0.020038459
-0.10348476 -0.018733319 -0.02975768
-0.095255464 -0.014629705 -0.02504237
-0.082290187 -0.013471996 -0.023815647
-0.068696864 -0.012166904 -0.021792909
-0.051986728 -0.014792138 -0.025539368
-0.046237059 -0.012399711 -0.022351917
0.015264384 -0.01201861 -0.021436833
0.038496036 -0.013095077 -0.02332343
0.095696047 -0.017048437 -0.028484946
0.10795785 -0.014787223 -0.0255327
0.12919188 -0.012432959 -0.022431752
0.1322245 -0.01329688 -0.023093214
0.14585415 -0.017673666 -0.029301245
0.26157483 -0.11328476 -0.011060057
-0.058190934 -0.091998309 -0.011842391
-0.046735875 -0.092977665 -0.017497003
-0.016300879 -0.090263031 -0.016025586
0.0090997443 -0.091534302 -0.012800093
0.011582366 -0.095111161 -0.013544277
0.026485123 -0.092343196 -0.010224479
0.060030445 -0.092357829 -0.010101555
0.083499946 -0.090033934 -0.016606852
0.093639232 -0.090246931 -0.01606643
0.10044736 -0.091985345 -0.01165569
0.21194172 -0.090536594 -0.012232447
-0.12839904 -0.082643092 -0.011472177
-0.10908356 -0.08463949 -0.016671067
0.22177605 -0.089027494 -0.01464303
0.23303719 -0.088305682 -0.014263599
-0.094945647 -0.075918123 -0.012840923
0.29657134 -0.074174047 -0.014401976
-0.1971584 -0.066649869 -0.016185708
-0.17530985 -0.06969738 -0.019052587
0.018577369 -0.056307949 -0.012100736
0.051511101 -0.056380592 -0.019678453
0.067210078 -0.056680139 -0.014256914
0.082404755 -0.057329651 -0.017535068
0.094432019 -0.057788454 -0.014360029
0.29474032 -0.05067962 -0.018500004
-0.25787044 -0.040842377 -0.017378736
0.2861259 -0.04403758 -0.018978916
0.29564086 -0.041815363 -0.012587499
-0.30033317 -0.025622204 -0.010608509
-0.27850059 -0.027282417 -0.013080627
-0.26240849 -0.024621062 -0.015782867
-0.24852064 -0.024741601 -0.018087519
-0.22677851 -0.019508049 -0.018390812
-0.15687308 -0.010640771 -0.011134759
-0.058065109 -0.011109127 -0.019253016
-0.0037208535 -0.011187331 -0.019440796
0.1275685 -0.010028414 -0.016658051
0.13905385 -0.010037929 -0.016680896
0.1509998 -0.010411588 -0.017578112
0.19504517 -0.010460503 -0.015362987
0.21951786 -0.012680605 -0.012971791
0.2260201 -0.014836574 -0.015829278
-0.075174719 -0.0098587107 -0.016250564
-0.059569277 -0.0080263522 -0.011850773
-0.046939097 -0.0079438332 -0.011393182
0.099885091 -0.0084512187 -0.012870947
0.14235184 -0.0098506287 -0.016231159
0.17376636 -0.0084708855 -0.012918172
0.25532436 -0.12297415 -0.0028774289
0.26140168 -0.12138481 -0.0085706245
0.24389988 -0.11652151 -0.0087593682
0.25562373 -0.11592648 -0.0016986348
0.24486642 -0.10726352 -0.00028524327
-0.066747904 -0.091867059 -0.0058700894
-0.024631578 -0.093815036 -0.0054014623
-0.016908402 -0.094026402 -0.00035291538
0.051558044 -0.094172813 -0.0045474754
0.075217351 -0.093389362 -0.0054456126
0.098970592 -0.092573591 -0.0033058135
0.10424523 -0.091393761 -0.0025748427
0.12516737 -0.092584863 -0.0081951423
0.14640564 -0.092818849 -0.0062302351
0.20742002 -0.091885693 -0.0080673499
-0.088121101 -0.088390544 -0.00067281682
0.25688022 -0.0880749 -0.0067175934
-0.22449255 -0.062424969 -0.0066542537
0.3253938 -0.065091975 -0.0070389174
-0.25500005 -0.053336971 -0.0083761895
-0.042232726 -0.056331176 -0.00018324703
-0.0013843402 -0.056271341 -0.008282382
0.28533965 -0.03231962 -0.0065793763
-0.30554292 -0.027460147 -0.006714717
-0.28379714 -0.013399819 -0.0010742504
-0.24229352 -0.010365482 -0.0030629886
-0.19711637 -0.011411466 -0.0081870612
0.22943681 -0.011707387 -0.0033711756
0.23972848 -0.013882433 -0.0022160986
0.25724992 -0.017940547 -0.0022726855
-0.24233738 -0.003768642 -0.0031263011
-0.21759461 -0.0066756252 -0.0030983712
-0.20635478 -0.0031838473 -0.0031318471
-0.1610222 -0.0089279916 -0.0019563497
-0.15936233 -0.0094632683 -0.0041740229
-0.14352046 -0.0078525385 -0.0029006919
-0.11278316 -0.008477997 -0.0095915804
-0.10433723 -0.0080108335 -0.0084763654
-0.083393238 -0.006807663 -0.0031937789
0.019505687 -0.0071357265 -0.0055613182
0.038758956 -0.0068502733 -0.0035012818
0.048104491 -0.0076119541 -0.0089981081
0.11206788 -0.006420603 -0.00040047857
0.13575312 -0.0064838333 -0.00085679261
0.14788659 -0.0071603316 -0.0057388847
-0.24583414 0.00059416809 -0.0031681773
-0.23918363 0.00067689084 -0.0031689629
-0.20867871 0.0094794435 -0.0032533077
-0.18412857 0.001899685 -0.0032035313
-0.16248856 0.002450682 -0.0032472035
-0.27578607 0.018063035 -0.0032645387
-0.2655665 0.017781233 -0.0033328619
-0.19142482 0.020231953 -0.0033253632
-0.30664098 0.033702645 -0.00044335693
-0.24854276 0.037834004 -0.003525052
-0.2929557 0.048025381 -0.0029632268
-0.28747281 0.046238966 -0.0034181552
-0.24251363 0.04044681 -0.0035502042
-0.21630196 0.043153554 -0.0022921802
-0.29434246 0.054270767 -0.0031153166
-0.27841833 0.05642784 -0.0037033784
-0.25332087 0.052936427 -0.0036698515
-0.23341443 0.06058839 -0.0037433144
-0.28762513 0.079103105 -0.0039207633
-0.31325218 0.085156307 -0.0014187453
-0.2731564 0.086181819 -0.0039886823
-0.3140834 0.10193034 -0.0031505809
-0.31780645 0.11359672 -0.0031374181
-0.28975338 0.12298009 -0.0032152229
0.25569639 -0.11200663 0.0041335737
-0.051941887 -0.092645749 0.0048781512
-0.019674852 -0.093625374 0.00060689158
-0.006727526 -0.093045957 0.0047883596
0.0087149404 -0.092877559 0.0060036355
0.027189434 -0.093308285 0.002895189
0.062413428 -0.092798069 0.0065772366
0.092889115 -0.092691973 0.0055764345
0.19976628 -0.092968419 0.0022653781
0.20654905 -0.091645285 0.0099557545
0.2564559 -0.098246217 0.0048787757
-0.14064197 -0.081042513 0.0072720898
-0.1356415 -0.082061581 0.007019409
-0.11126314 -0.086722195 0.0081420355
0.25469574 -0.082060955 0.0062308582
0.28276291 -0.083025306 0.0065055178
-0.15555508 -0.077798076 0.0095992908
-0.086501181 -0.070372842 0.0048946701
0.30199394 -0.07678017 0.0098467469
-0.26979491 -0.051137686 0.0022554374
-0.25889274 -0.052697603 0.0071292492
-0.23470613 -0.059004806 0.0086836219
-0.056628853 -0.059241619 0.00066008756
0.011822399 -0.056173369 0.0019373484
0.02745758 -0.056108288 0.0087263156
0.058110658 -0.056128472 0.0066210302
0.073883504 -0.056723263 0.009561494
-0.28023612 -0.048614226 0.00022345065
-0.29232407 -0.037853107 0.0088095721
0.29725534 -0.038788527 0.0018562099
0.26808012 -0.022237264 0.0060559949
0.28205544 -0.028770287 0.0054282583
-0.30629331 -0.01580181 0.00074459676
-0.29560924 -0.017295154 0.0047609396
-0.2859804 -0.014312427 0.0020276771
-0.27365777 -0.014457874 0.0024448149
-0.20051795 -0.010946506 0.0034392746
-0.18093725 -0.010208214 0.0038076814
0.21976525 -0.010917412 0.0061396994
0.23449089 -0.012474434 0.00057126535
0.24137101 -0.014593026 0.004695748
-0.27167875 -0.0070255492 0.0024131346
-0.26315984 -0.0022427153 0.0029533559
-0.20014283 -0.0070867585 0.0029998755
-0.18481237 -0.0093192663 0.0022328352
-0.13754353 -0.0088784071 0.0063018682
-0.11950895 -0.00787808 0.003493527
-0.10550528 -0.0073197326 0.0031467758
0.0023873723 -0.0064780628 0.00038793631
0.073164634 -0.0067939986 0.0030408599
0.084530875 -0.0071710856 0.0062072733
0.099095672 -0.0075442181 0.0093404762
0.16620013 -0.0075759962 0.0096073225
-0.29180166 0.0073617836 0.00082976307
-0.27973917 0.0092087556 0.0020605326
-0.21674719 0.0075727352 0.002859405
-0.29303479 0.016289618 0.00094912294
-0.28447962 0.012506098 0.0016850561
-0.26183477 0.011521118 0.0028214622
-0.24961482 0.013719857 0.0028004157
-0.18855007 0.011170124 0.0025411882
-0.22001454 0.025510911 0.0026874139
-0.20072791 0.023775209 0.0027039219
-0.30479297 0.036498167 4.1611267e-05
-0.24261506 0.03659936 0.0025811756
-0.21153918 0.037707459 0.0022354419
-0.27821097 0.049657565 0.0024559463
-0.24030679 0.045219831 0.0024984004
-0.23553304 0.04727741 0.0024784855
-0.22311999 0.047706924 0.0024745399
-0.30423152 0.057121523 0.00095095875
-0.29785162 0.058446795 0.0016110823
-0.27226588 0.051858783 0.0024347666
-0.25469667 0.055241037 0.0024023405
-0.2739619 0.065365158 0.0023052187
-0.29029775 0.079879828 0.0021661301
-0.25168476 0.071149975 0.0022498374
-0.3034811 0.081862621 0.0016897018
-0.2969389 0.080142342 0.0021636239
-0.28971079 0.10981278 0.0018792865
-0.30242139 0.12546918 0.0017292523
-0.29091099 0.12189034 0.0017635619
-0.049738035 -0.09279184 0.013258604
-0.037679918 -0.090319946 0.016212903
0.045616142 -0.094193235 0.014058677
0.056322239 -0.092739522 0.015098991
0.092490964 -0.092623346 0.014119503
0.12529212 -0.090450525 0.015899383
0.15066141 -0.091668457 0.012974856
-0.095901147 -0.088190868 0.014690593
-0.080440074 -0.089069366 0.015802743
0.11300534 -0.082024753 0.018727167
0.26875186 -0.080198765 0.017033646
-0.18270674 -0.071150653 0.012692921
-0.13604651 -0.07974837 0.015177418
0.29833531 -0.076774403 0.011756314
0.10679395 -0.064173639 0.011649618
0.11187509 -0.068380192 0.014853626
-0.2183589 -0.059008852 0.017479746
-0.0058963764 -0.056084692 0.011187837
0.023470294 -0.056043755 0.015457841
0.042050622 -0.056007661 0.019222712
0.066609308 -0.056399882 0.012427919
0.31633607 -0.058139618 0.012033108
0.30423597 -0.045814887 0.012048555
-0.27380848 -0.033090077 0.014523357
-0.26177374 -0.028082244 0.016783161
0.24998105 -0.024107547 0.019543584
-0.1280192 -0.010106932 0.0132385
-0.035283595 -0.011186169 0.019943237
0.0063785855 -0.010217255 0.01748481
0.059770592 -0.010326407 0.017761763
0.06705837 -0.010647664 0.018576887
0.23542687 -0.01910313 0.019613303
-0.11839826 -0.009299119 0.01221632
-0.085549064 -0.0098074572 0.016445035
-0.078835644 -0.009771226 0.016353102
-0.052495189 -0.0088822227 0.014097443
0.017197859 -0.0081808781 0.012317922
0.05986065 -0.0091114677 0.014679102
0.065928489 -0.0077343443 0.010936974
0.11604964 -0.0080482 0.011981279
0.17920418 -0.0093238708 0.015218034
-0.041764598 -0.092828326 0.021644119
-0.028292181 -0.093363196 0.028897287
-0.010752098 -0.093996257 0.024393212
0.025970928 -0.094716281 0.028095342
0.065933019 -0.093050703 0.027976155
0.097209722 -0.091283038 0.020947421
-0.090738609 -0.086283192 0.023696661
-0.083170459 -0.08635167 0.027975913
-0.077777825 -0.08848235 0.026003128
-0.014336979 -0.084113441 0.027326323
0.018619465 -0.08483018 0.026390469
0.11297239 -0.082067728 0.026305823
0.13392869 -0.084483162 0.02684357
0.17016643 -0.086334661 0.02442605
0.18556024 -0.085787237 0.02499757
-0.14108719 -0.073083729 0.025148213
-0.087022662 -0.070494995 0.026759908
0.24649271 -0.075243682 0.026614254
0.26745763 -0.070115149 0.024662038
-0.17319018 -0.06020892 0.029913895
-0.21338287 -0.056608245 0.02199327
-0.19692095 -0.055195481 0.028800417
-0.054749869 -0.058653004 0.022324461
0.025200658 -0.055910543 0.029353583
-0.22200517 -0.042066865 0.026419416
-0.24367155 -0.035585761 0.021765156
-0.3004612 -0.024187591 0.025315659
-0.25742128 -0.02404758 0.025588721
-0.24402104 -0.024144171 0.024378899
0.21127278 -0.021853629 0.029398134
0.25160134 -0.029311838 0.023754943
-0.17808276 -0.017514005 0.022516876
-0.09936554 -0.013840798 0.023923732
-0.07581678 -0.015242958 0.026450759
-0.042388774 -0.016646218 0.028357632
-0.025294773 -0.01316653 0.023629196
-0.017444011 -0.011328641 0.020304728
0.031688225 -0.014972867 0.025921524
0.053050403 -0.014265192 0.025122177
0.06495481 -0.017320318 0.02927373
0.089046732 -0.016626127 0.028330436
0.10463998 -0.014807323 0.025858881
-0.022256432 -0.092982545 0.038143896
-0.013227582 -0.093791388 0.037080169
0.016314656 -0.094784111 0.037158102
0.06266991 -0.091606051 0.037271164
0.07287243 -0.09017244 0.037690558
-0.053895213 -0.081571087 0.030237949
-0.015055588 -0.080028906 0.032378152
0.00088168966 -0.080681853 0.031806991
0.098687381 -0.08921127 0.030620079
-0.10575011 -0.07739006 0.030139148
-0.038224272 -0.076561272 0.033668917
-0.021295562 -0.076476842 0.03438234
0.023718979 -0.075999662 0.038414642
0.071813263 -0.073170334 0.037651613
0.10179406 -0.077148207 0.034593076
0.11567823 -0.073333152 0.037526414
0.20381716 -0.073232174 0.035489775
0.23639119 -0.073145941 0.03061172
-0.16415256 -0.06025986 0.031820275
-0.15837872 -0.062518813 0.03121716
-0.14250843 -0.067230046 0.030798193
-0.13659811 -0.065021709 0.033487353
-0.11035268 -0.069167107 0.036135539
-0.091559105 -0.069003366 0.039761622
0.10990174 -0.065782152 0.031965584
-0.19070843 -0.051296618 0.03150811
-0.13333274 -0.050882638 0.039426807
-0.055448316 -0.058679529 0.034327801
-0.020921299 -0.055826187 0.038152795
-0.014502434 -0.055887192 0.031789333
0.023600236 -0.055821881 0.038601775
0.035146773 -0.055878483 0.03269764
0.045048926 -0.055813253 0.039501779
0.070452616 -0.056350581 0.033878513
0.240785 -0.052624382 0.035218537
-0.18281218 -0.043067235 0.034320824
-0.15492801 -0.048149928 0.037092917
0.24028724 -0.040073499 0.033058524
-0.16969077 -0.030017333 0.032928739
0.024165707 -0.030757148 0.039823245
0.21062635 -0.030951409 0.036036588
-0.29900414 -0.022719268 0.038843632
-0.2685084 -0.02104394 0.033763386
-0.24210256 -0.021759864 0.032146789
-0.15378456 -0.025422353 0.031865649
-0.092102624 -0.027605785 0.038330745
-0.078583315 -0.022425052 0.034224674
-0.056650907 -0.022824833 0.034544442
0.0047300681 -0.021778526 0.033707537
0.011715911 -0.024888363 0.03619501
0.058417212 -0.028734863 0.038943909
0.067001842 -0.020343663 0.032559842
0.11901808 -0.028486745 0.038717285
0.12822402 -0.022746485 0.034481637
0.13713539 -0.024113059 0.035574794
0.21370792 -0.025687419 0.031931251
-0.04210858 -0.084144786 0.042206164
-0.0087755229 -0.084708959 0.044426985
0.046677809 -0.083386838 0.044414226
-0.013119478 -0.075308815 0.044252358
0.0077396464 -0.076920375 0.044352308
0.068710729 -0.074869394 0.044332594
-0.070775717 -0.061719123 0.041393265
-0.047422815 -0.063993454 0.044228382
-0.0098435897 -0.066931017 0.040835712
0.0078924382 -0.064033195 0.04422874
0.049536694 -0.06295044 0.044218346
0.054426 -0.060564727 0.044195469
0.063442856 -0.064010791 0.046059612
0.084322304 -0.065199092 0.041549418
0.093213387 -0.067694321 0.046401478
0.16087535 -0.065676779 0.04135257
-0.041147009 -0.05579466 0.041441265
0.0052586831 -0.056480598 0.044156324
0.015001437 -0.052393369 0.044385221
0.037300095 -0.054139629 0.044328019
0.055161115 -0.057257582 0.042024322
0.089228064 -0.05563895 0.043980204
0.11945754 -0.057845321 0.043704905
0.14577512 -0.054296643 0.044147722
-0.11610517 -0.048787154 0.041811224
0.1141094 -0.046218358 0.044249102
0.13568707 -0.048546784 0.044585049
-0.097258106 -0.039594226 0.042732596
-0.087809935 -0.035756439 0.041996278
-0.071674921 -0.032735959 0.040683534
0.035405345 -0.037458733 0.042736273
0.11222067 -0.032943539 0.040773794
0.15177213 -0.037481017 0.04274597
-0.26125336 -0.022325965 0.041581646
-0.03080589 -0.073471166 0.059780575
-0.0039328514 -0.074350312 0.052351773
0.017506359 -0.074298136 0.052792694
0.058208842 -0.07366728 0.058123402
0.0036003108 -0.068362884 0.056466661
0.070816964 -0.064851314 0.05882062
-0.28383341 -0.02106417 0.053771764
-0.25730637 -0.02049954 0.058359452
-0.28662562 -0.018908942 0.053309832
-0.034894694 -0.0710392 0.068527475
0.068767361 -0.072755419 0.065828755
0.083792917 -0.073348582 0.06081653
0.033298142 -0.064881027 0.060983364
-0.28376204 -0.02013541 0.062348764
-0.30534637 -0.018795922 0.062418565
-0.26630029 -0.0184919 0.06828507
-0.25982633 -0.019860603 0.064322375
-0.0018027702 -0.12285911 0.078658149
-0.012637182 -0.11583193 0.076783173
-0.0025088973 -0.11393459 0.078071788
-0.013030708 -0.10964255 0.078639992
-0.0053696693 -0.10462224 0.07074295
-0.0030736495 -0.071474954 0.076648459
-0.027690707 -0.068728961 0.079404414
-0.0056758164 -0.066762626 0.075626954
0.01294249 -0.064473093 0.077293545
0.057887539 -0.063074425 0.079147935
-0.27053213 -0.01869157 0.075374149
-0.26833296 -0.01860287 0.076142646
-0.012300884 -0.11546403 0.089366861
-0.0062350603 -0.11496636 0.085236013
0.0024116326 -0.11664748 0.089772969
-0.022640906 -0.10234915 0.086337812
-0.013533778 -0.10693698 0.082386687
-0.0068476168 -0.10698204 0.08875595
-0.0020895628 -0.091322124 0.08434321
-0.0096006524 -0.072277844 0.087879024
0.0054152878 -0.064243451 0.085045494
0.033374891 -0.06168345 0.08825133
-0.31869817 -0.018189784 0.081148118
-0.28184754 -0.016212394 0.08471559
-0.0106654 -0.11152138 0.094116077
-0.0047020521 -0.11236309 0.092325374
-0.013578473 -0.098152168 0.090336531
-0.031665307 -0.068872973 0.098635174
-0.026372476 -0.069179423 0.09604568
0.016815567 -0.069773227 0.091028191
-0.31527144 -0.016176213 0.090310082
0.13089336 -0.10016865 0.10448031
0.08401718 -0.091952175 0.10382266
0.12472818 -0.096275255 0.10700393
0.11215761 -0.084096059 0.10855174
0.10871003 -0.072017252 0.10949055
0.12851231 -0.07974726 0.10497014
-0.018768454 -0.064029686 0.1082717
-0.0025587655 -0.065201849 0.10616239
0.042260371 -0.067603037 0.10936715
-0.29581186 -0.015085067 0.10207057
0.082752801 -0.10549561 0.11637356
0.11095229 -0.10278983 0.1178795
0.12845442 -0.10660916 0.11207768
0.10943232 -0.080552243 0.11090927
0.12347801 -0.08875747 0.11363135
0.047637515 -0.072422288 0.11606453
0.087268621 -0.070257746 0.11579641
0.098180667 -0.078320451 0.11326681
-0.039991174 -0.067369364 0.11134072
0.013539941 -0.060152471 0.11108952
0.04196962 -0.067348026 0.11152197
0.052553333 -0.068194233 0.11587648
0.10039148 -0.068255767 0.11656606
-0.32459494 -0.014204796 0.1129449
-0.30225796 -0.014275735 0.11691783
0.074150808 -0.10346875 0.12439332
0.094466127 -0.10910109 0.12485995
0.1063326 -0.10287139 0.12495332
0.1268087 -0.091740638 0.12322448
0.048262686 -0.08225622 0.12202674
-0.019655092 -0.074220225 0.12834781
0.049805272 -0.077517442 0.12397804
0.11444386 -0.073673919 0.12334456
-0.041243222 -0.067736782 0.12758876
-0.03887042 -0.067773633 0.126831
-0.016054528 -0.065885156 0.12388338
-0.0068043834 -0.06624718 0.12082401
0.015500797 -0.0690782 0.12880832
0.028793655 -0.06575197 0.12500897
0.042839158 -0.062988572 0.12837474
0.066283822 -0.069269411 0.12881434
0.081402972 -0.06681291 0.12603717
0.0078531029 -0.058580428 0.12727638
0.012112338 -0.059176419 0.12010536
-0.32727653 -0.012654983 0.12549201
-0.3059364 -0.012752569 0.1242241
0.085953474 -0.10041288 0.13338941
0.095266715 -0.10746734 0.13345373
0.058927041 -0.091403887 0.13391617
0.060715638 -0.08087714 0.13087176
0.088270053 -0.078781262 0.13484958
-0.04798891 -0.064522974 0.1353936
-0.037994005 -0.064289652 0.13736507
0.024809478 -0.064812183 0.13294983
-0.0052122576 -0.058559198 0.13466534
0.0051926333 -0.057753317 0.13535514
-0.33144939 -0.012256738 0.13259809
-0.32078591 -0.011308483 0.13623324
0.12864476 -0.1004643 0.14282274
0.060695924 -0.091618285 0.1408823
0.10706826 -0.090760022 0.14513078
0.11583498 -0.092399575 0.14489378
0.13127916 -0.086108744 0.14083353
0.089872658 -0.077712163 0.14194694
0.10298968 -0.076623231 0.14282089
-0.042727973 -0.062500998 0.14317627
-0.039582472 -0.063594297 0.14324059
-0.0007831594 -0.063714877 0.14222172
0.003127153 -0.063348919 0.14531393
0.015089964 -0.063135691 0.14711565
0.023737788 -0.057998888 0.1452879
-0.042935755 -0.065633163 0.15038481
-0.035979372 -0.063664928 0.15425158
-0.019563509 -0.065308288 0.1570839
0.024341073 -0.062735654 0.15049587
-0.054700922 -0.060995027 0.1628795
-0.035052314 -0.061407987 0.16171417
-0.019842684 -0.061208047 0.1634036
-0.020803709 -0.056629322 0.16067982
-0.01281313 -0.055412441 0.16357717
-7.3164701e-06 -0.054098096 0.16770382
0.012216387 -0.060305692 0.17102835
-0.061079454 -0.059539028 0.17697516
-0.052404929 -0.059313849 0.17940894
-0.017492551 -0.054491445 0.17345104
-0.053591747 -0.057895429 0.18184397
-0.021501223 -0.053247392 0.18560588
-0.0064295735 -0.052701429 0.18233259
-0.064373672 -0.057796769 0.19222774
-0.042010099 -0.054876857 0.19056675
-0.03965985 -0.056878243 0.19998898
-0.067092605 -0.056012306 0.20730586
-0.032083757 -0.051834673 0.20210698
-0.012032381 -0.056259945 0.20521364
-0.064646974 -0.060246531 0.21015498
-0.053851977 -0.05511684 0.21407583
-0.037743695 -0.059892047 0.21090786
-0.0087039378 -0.055460341 0.21197009
-0.036803216 -0.054462392 0.22040226
-0.022699323 -0.053739782 0.22650827
-0.063690424 -0.051858507 0.233163
-0.059262328 -0.052970938 0.23300445
-0.042200241 -0.052355908 0.23820144
-0.045848638 -0.051884677 0.24218322
-0.080368757 -0.050439782 0.25439191
-0.083477706 -0.049916252 0.25881577
-0.04492265 -0.046335742 0.25372344
-0.059101693 -0.045720417 0.26517671
-0.073181488 -0.048528355 0.27054301
-0.088348009 -0.046011757 0.28498912
-0.079314031 -0.046347365 0.28897232
-0.054839686 -0.047290511 0.28100264
-0.076519288 -0.042616762 0.29864839
-0.095268264 -0.044265006 0.30656925
-0.082746543 -0.043954834 0.30918932
-0.073294982 -0.043555643 0.31256169
-0.11065459 -0.039776098 0.34450081
