# .PCD v0.7 - Point Cloud Data file format
VERSION 0.7
FIELDS x y z
SIZE 4 4 4
TYPE F F F
COUNT 1 1 1
WIDTH 950
HEIGHT 1
VIEWPOINT 0 0 0 1 0 0 0
POINTS 950
DATA ascii
-0.14563522 0 -0.28282258
-0.091656573 0.0023187904 -0.28517291
-0.17464879 0.015890054 -0.27523774
-0.11376171 0.019297769 -0.27182999
-0.14792298 -0.029112602 -0.26175877
-0.12712292 -0.020843804 -0.26201501
0.028401203 -0.022556107 -0.26579714
-0.18104556 -0.015603893 -0.26201501
0.040932603 -0.012714664 -0.2697517
0.043385975 -0.0020366174 -0.26201501
0.092175528 -0.002353545 -0.26201501
0.14861774 -0.0038491057 -0.26201501
0.2048202 -0.0092417113 -0.26013038
0.22244158 0.0066878144 -0.26008171
-0.20101732 0.010182221 -0.26347086
0.0025391392 0.015292182 -0.26201501
0.14217436 0.01344323 -0.26175657
-0.1399141 0.023444364 -0.26201501
0.029227687 0.020757388 -0.2666328
0.042962987 0.025848458 -0.26201501
-0.067647614 -0.039672378 -0.25145525
0.013210222 -0.037734624 -0.25339299
0.11603101 -0.034427181 -0.25667575
-0.19254997 -0.011472749 -0.25420099
0.19465531 -0.01401244 -0.25917614
-0.24350911 0.00068563904 -0.25071812
0.22681683 0.019357834 -0.25485283
-0.1181978 0.0291126 -0.25204387
0.097354114 0.0291126 -0.2530171
0.18154457 0.025672285 -0.25630501
0.05112917 0.0390376 -0.25208998
0.071633212 0.035760015 -0.25536749
-0.090271883 -0.046934888 -0.24419272
-0.076525718 -0.045352403 -0.24577521
-0.085099764 -0.0291126 -0.24713597
0.076858252 -0.0291126 -0.2484232
-0.20950654 -0.014660861 -0.24934077
-0.153854 -0.018558661 -0.2455225
-0.23863639 -0.008315023 -0.24471328
0.24532159 0.016587801 -0.24732578
-0.086590901 0.0291126 -0.24965653
0.029593766 0.0291126 -0.24889602
-0.11768156 0.043135323 -0.24799228
-0.0031197611 0.044936888 -0.24619071
0.022837942 0.048305444 -0.24282217
-0.22902302 0.062814675 -0.24148884
-0.19344205 -0.067942925 -0.23084511
-0.21765637 -0.058676127 -0.23717637
0.045849741 -0.053101562 -0.23514232
-0.167016 -0.048347518 -0.23145011
0.10996462 -0.043220427 -0.23267128
0.15511115 -0.041269135 -0.23287639
-0.10160355 -0.0291126 -0.23683921
-0.09386088 -0.0291126 -0.23086423
-0.17698872 -0.013098737 -0.23899141
0.072828025 0 -0.2309435
-0.18562408 0.024799451 -0.23030466
-0.1673598 0.026560437 -0.23290201
-0.032146946 0.0291126 -0.2348842
-0.19140686 0.047712952 -0.23556028
-0.18728133 0.045837194 -0.23372957
0.11846606 0.04835064 -0.2363479
0.13469806 0.047288928 -0.2321955
0.15194248 0.042440493 -0.23277375
-0.061601449 0.05454611 -0.23658149
-0.019276438 0.056630351 -0.23449725
0.083626837 0.050630093 -0.23329136
-0.19342917 0.063285172 -0.23574826
-0.25063291 0.074694887 -0.23280162
-0.32052177 -0.086128756 -0.22470316
-0.26814994 -0.081485271 -0.22035265
-0.28179044 -0.07777743 -0.22765759
-0.23715374 -0.06929522 -0.22536626
-0.17969227 -0.055594727 -0.22893476
0.00026840949 -0.058351777 -0.22226337
0.062452883 -0.052378472 -0.22620088
0.14644122 -0.053052828 -0.22457334
0.065440618 -0.031017862 -0.22705212
0.0062553268 -0.0291126 -0.22722267
0.092586197 -0.029338164 -0.2222631
0.20467851 -0.029340968 -0.22228436
-0.21952805 -0.010189543 -0.22252962
-0.24466288 -0.0066859964 -0.22005066
-0.030270349 0 -0.22186634
-0.0087027028 0 -0.22448713
0.095457561 0 -0.22888541
0.26595345 0 -0.22746623
0.27619535 0.013637852 -0.2207917
-0.19117248 0.022877848 -0.22479516
0.0092549128 0.0291126 -0.22355165
0.056674723 0.0291126 -0.2238742
0.080545366 0.029112598 -0.22864088
0.12024169 0.030531537 -0.22615601
0.23434095 0.031914867 -0.22822155
-0.18789929 0.046041939 -0.22716932
-0.091922134 0.066698194 -0.2244294
-0.055025514 0.062978432 -0.22814918
-0.3284061 0.085661739 -0.22428866
-0.3288044 -0.085729644 -0.21824212
-0.30756482 -0.085846953 -0.21770287
-0.29591683 -0.081269696 -0.2148478
-0.20667897 -0.081037097 -0.21428177
-0.18974699 -0.078530446 -0.21111353
-0.16731821 -0.072623789 -0.21827671
-0.022494962 -0.061330352 -0.2152161
-0.16382691 -0.055657826 -0.21712899
0.034935601 -0.047843896 -0.21573433
0.10780607 -0.034210406 -0.21068156
-0.16636738 -0.021396969 -0.21592055
0.0030332934 -0.0291126 -0.21862306
0.11731362 -0.0291126 -0.21009155
-0.20423517 -0.0079579912 -0.21171488
-0.16634969 -0.0059444099 -0.21974355
-0.11365654 -0.0011494474 -0.21222547
0.17104036 0 -0.21470623
-0.20764612 0.011016629 -0.21343943
-0.17239837 0.015561223 -0.21135764
0.26762617 0.018182388 -0.21848455
-0.15423645 0.029306836 -0.21523276
0.071842343 0.0291126 -0.21917111
0.14872426 0.0291126 -0.21677814
0.18222091 0.029350566 -0.21874478
0.24922176 0.027942505 -0.21196601
0.0071994271 0.057444859 -0.21920715
0.054509014 0.051706076 -0.2137823
0.12262166 0.051407583 -0.2133933
-0.23497222 0.064095795 -0.21274573
-0.28798863 0.078606971 -0.21133782
-0.29945925 0.085460514 -0.21816739
-0.30585676 -0.082553923 -0.2010974
-0.2819019 -0.084623449 -0.20059006
-0.26206487 -0.08292257 -0.20278576
-0.18126807 -0.066516355 -0.20365866
-0.079395451 -0.068775743 -0.20540458
0.16916338 -0.045033805 -0.20548727
0.20467412 -0.041681372 -0.20552163
-0.073440492 -0.031027043 -0.20187455
0.19161734 -0.036740746 -0.20925239
0.20080969 -0.035572987 -0.203789
-0.12349655 -0.0291126 -0.20885742
-0.11461077 -0.0291126 -0.20682463
0.05421216 -0.025259564 -0.203789
0.10592947 -0.0291126 -0.20979729
0.11851884 -0.025615694 -0.203789
0.1758616 -0.0291126 -0.20799015
0.19651371 -0.0291126 -0.20663264
-0.153854 -0.015931765 -0.20115194
-0.084411383 -0.00036626781 -0.203789
-0.048467346 -0.0075057121 -0.203789
0.059004549 -0.0037698457 -0.203789
0.061554343 -0.0055413111 -0.203789
0.23379588 -0.0020420821 -0.20285162
-0.19132629 0.00088904559 -0.20859027
-0.10306524 0.0015623363 -0.20427555
-0.087633424 0 -0.20632347
-0.043281447 0 -0.20483023
0.069694273 0.0062197424 -0.20093395
0.1442032 0 -0.20710877
0.1983497 0.00039602543 -0.203789
0.23985149 0.0026260817 -0.203789
-0.066198885 0.019910224 -0.203789
0.11512061 0.010078263 -0.203789
0.26614249 0.011043364 -0.20155829
-0.13403843 0.027118586 -0.203789
-0.048182778 0.0291126 -0.20897
0.057729639 0.024900014 -0.203789
0.13322407 0.0291126 -0.20830409
0.21443507 0.0291126 -0.20739318
-0.14256823 0.030772891 -0.20038836
-0.12054567 0.030382343 -0.20251925
0.19409037 0.037019484 -0.20913693
0.23778108 0.034009721 -0.2055577
0.14219645 0.043638483 -0.20848531
-0.15854608 0.078742303 -0.20087339
-0.12576626 0.07484334 -0.20519538
-0.35834998 0.087714344 -0.20339209
-0.33935982 0.086312748 -0.2089912
-0.30372784 -0.084618174 -0.19326657
-0.25345731 -0.081103906 -0.19174854
-0.21841353 -0.080194309 -0.19546165
-0.18928911 -0.047080334 -0.19352269
0.1185191 -0.040613595 -0.19775644
0.13742909 -0.040173341 -0.19249722
0.040114604 -0.039974432 -0.193266
0.08010938 -0.037950978 -0.19790611
-0.10460909 0 -0.19414926
-0.078856297 0.0027228696 -0.19201119
-0.036802366 0 -0.19700569
-0.024127841 0 -0.19613102
0.2370114 0.0092959274 -0.19952188
0.02649745 0.011950193 -0.19770619
-0.089024827 0.029110447 -0.19379407
0.081953332 0.020408956 -0.19442067
0.15349914 0.038849212 -0.19459997
0.1932587 0.031460062 -0.19980249
-0.15729955 0.040907353 -0.19254887
0.1617697 0.045216672 -0.19598302
-0.22210369 0.059209548 -0.19255826
-0.153854 0.063747376 -0.19688332
-0.051840529 0.065170199 -0.19136569
-0.15632994 0.078636646 -0.19880743
-0.35603008 0.08740671 -0.19116628
-0.30610117 0.081720367 -0.191843
-0.30789596 -0.084787808 -0.1868639
-0.22584763 -0.081950985 -0.18959148
-0.099501178 -0.071406566 -0.18052378
-0.20237622 -0.067513987 -0.18954614
-0.19407155 -0.065061375 -0.18593967
-0.091992319 -0.051299278 -0.18160231
-0.048778012 -0.052508526 -0.18039308
0.036373429 -0.051593762 -0.18140191
0.056026421 -0.052435752 -0.18761672
0.06530723 -0.050967664 -0.18306011
0.070698835 -0.051475808 -0.18722373
0.090557061 -0.050176583 -0.18768491
0.019690532 -0.043969005 -0.1889326
0.072543122 -0.044152554 -0.18352164
-0.04566592 -0.038669761 -0.18033299
0.14515963 -0.031172071 -0.18948007
0.02550789 0.032465309 -0.18821909
0.057543814 0.039274603 -0.18576075
-0.10755046 0.041285791 -0.1844755
0.017897215 0.044758111 -0.18814349
0.05424859 0.051487487 -0.18161309
-0.24363594 0.066355601 -0.18737893
-0.23105183 0.062194761 -0.18520994
-0.08455883 0.069451377 -0.18948969
-0.33710012 0.08725509 -0.18230072
-0.33622679 -0.087213457 -0.17303991
-0.24703713 -0.080937259 -0.17926766
-0.19846524 -0.080334187 -0.17405665
-0.20882405 -0.076219052 -0.17580198
-0.19492313 -0.078137815 -0.17596796
-0.17844623 -0.079519451 -0.17074969
-0.17771555 -0.063018113 -0.17484745
-0.10702588 -0.062195804 -0.17070581
-0.13574579 -0.05493268 -0.17517652
-0.085999049 -0.050881922 -0.17187223
-0.072210647 -0.055095978 -0.1778056
-0.028742636 -0.053057335 -0.17984426
-0.091302209 -0.049144115 -0.17411159
-0.020607449 0 -0.17727865
-0.077595592 0.044230245 -0.17691182
-0.18022972 0.057149157 -0.17983146
-0.12568295 0.054300543 -0.17425689
-0.0015828727 0.056042112 -0.17547899
-0.19551018 0.06534639 -0.17369482
-0.15521443 0.062017404 -0.17110319
-0.16474578 0.079037875 -0.17286742
-0.33018702 0.086925499 -0.1765402
-0.32443324 0.086651184 -0.17313986
-0.27308959 0.084203303 -0.17111486
-0.25216487 0.0832057 -0.17578232
-0.23519938 -0.082396843 -0.16435656
-0.18995959 -0.074520804 -0.16921005
-0.17764859 -0.078526452 -0.16490439
-0.15789464 -0.078711241 -0.16530059
-0.16823316 -0.069350488 -0.16653802
-0.13305327 -0.066303715 -0.1665979
-0.11364853 -0.064177677 -0.16872391
-0.10632856 -0.067167565 -0.16573404
-0.08172904 -0.067013085 -0.16676117
-0.12432924 0 -0.16978537
-0.01355651 0 -0.16440147
0.018577134 0 -0.16244562
-0.11486802 0.069769233 -0.16115886
-0.21310201 0.081343323 -0.16624102
-0.21351069 -0.081362806 -0.15906674
-0.20332162 -0.080877028 -0.15916348
-0.052584663 0.0097721629 -0.15330596
-0.012093274 0 -0.15341698
0.033780925 -0.0031319098 -0.14532018
-0.017876029 0 -0.14635918
0.032055948 0.0033699721 -0.14505792
-0.12815186 -0.022482658 -0.1326904
-0.0019375025 -0.0095698154 -0.13385627
-0.16815932 0.0062673776 -0.13531974
-0.04832086 0 -0.13034323
0.0076651415 0 -0.13529301
0.10060135 3.5738147e-05 -0.1309768
0.10841192 -0.0015723987 -0.1217059
-0.16698954 0 -0.12874916
-0.00405906 0.00056634238 -0.12133224
0.011947367 0 -0.12512816
0.020666622 0 -0.12107812
0.14933254 0 -0.12596869
0.15103522 0 -0.1216988
-0.032451522 0.01465858 -0.12570755
-0.14153281 -0.024683695 -0.11834459
-0.1095472 -0.01218691 -0.11030708
-0.022909034 -0.0052245995 -0.11863025
0.07106325 -0.006704377 -0.1161182
0.11500315 -0.0020348316 -0.11721969
-0.14657187 0.0032201016 -0.11435005
0.034861535 0.0098173749 -0.1181474
0.045891777 0 -0.11730772
0.068603069 0.0065337457 -0.11778482
0.027292902 0.010550598 -0.11824162
-0.095937319 -0.016154628 -0.10754609
0.14708987 0 -0.10275494
0.15510748 0.0019992895 -0.10132016
-0.1760824 0.012072866 -0.10228726
0.00064139208 0.014754579 -0.10665423
0.16225618 -0.0028160156 -0.095193774
-0.15669057 0.017873557 -0.093972251
0.087338656 0.011591936 -0.091841787
-0.024890151 0.024436641 -0.099496908
0.013195164 0.022779478 -0.097108796
-0.15279186 -0.035877749 -0.080736637
-0.011154764 -0.033133652 -0.089504302
0.035270568 -0.031486567 -0.084661104
-0.25953829 -0.029395148 -0.081549659
0.068307593 -0.021801313 -0.08701732
-0.26080814 -0.0144419 -0.085436784
-0.15385398 -0.019138847 -0.080360353
0.090880983 -0.018555131 -0.083798274
-0.30935979 -0.0032406996 -0.086911447
-0.21522294 -0.0086722216 -0.086196378
0.1674535 -0.0046848245 -0.085639611
0.2258265 -0.00017972167 -0.080310889
-0.21639323 0.0031635927 -0.086921602
-0.19318289 0 -0.083400242
0.18520615 0 -0.088254727
-0.28513452 0.017533304 -0.085029796
-0.17571174 0.014036829 -0.088930696
-0.24439657 0.020499429 -0.084639303
-0.21112145 0.023289155 -0.084078722
-0.11009136 0.033887651 -0.088558093
-0.045024123 0.037468825 -0.087264515
-0.22567634 -0.050511334 -0.070387267
-0.28988743 -0.045832861 -0.073977225
-0.35182351 -0.039502755 -0.077363156
-0.200435 -0.037995633 -0.076600462
-0.36346599 -0.0085786553 -0.079358988
-0.17503691 -0.0096269893 -0.077479325
0.2228502 -0.00064261968 -0.079649836
0.23957022 -0.00030842851 -0.074298568
0.23134504 0.0019285057 -0.071108267
-0.25392196 0.039204985 -0.077486493
0.0048913034 -0.060845576 -0.060120396
-0.27248883 -0.055693813 -0.066410556
-0.23052959 -0.059850924 -0.063220665
-0.00085193105 -0.055777296 -0.065787114
0.052315302 -0.047438167 -0.06515801
0.13925803 -0.017035166 -0.067982212
0.19038035 0 -0.06270542
0.22372502 0.0042195753 -0.064536773
-0.36346596 0.017113626 -0.061598476
0.080297239 0.038599562 -0.066981621
-0.31316364 0.053660277 -0.067970961
-0.25090867 0.052796006 -0.068634152
-0.005806081 0.057823867 -0.064256757
0.0088689784 0.05423712 -0.066314384
-0.22904322 0.06071572 -0.062557079
-0.075479396 -0.072572634 -0.052100845
-0.32194465 -0.065701 -0.056618515
-0.31625512 -0.064931035 -0.057621948
-0.091196075 -0.065080509 -0.059040587
-0.34442562 -0.028680738 -0.050603688
-0.29972938 -0.022199474 -0.053288389
-0.20534593 -0.022455933 -0.053182162
-0.35584548 -0.00087760331 -0.056749236
-0.32398519 -0.003978123 -0.057701875
-0.21362312 -0.0054122135 -0.057513073
-0.35193959 0.006205054 -0.05740869
-0.16629635 0.0052655712 -0.057532374
0.2283318 0 -0.053702075
0.27751499 0.001946185 -0.052569393
-0.30427441 0.021742551 -0.05347766
0.09441103 0.04379208 -0.057484753
0.079868034 0.051986489 -0.053725593
0.089768991 0.050623134 -0.052069403
-0.2499747 0.066820525 -0.055159539
-0.35500932 -0.073782012 -0.046087258
-0.31883243 -0.076447889 -0.041712418
-0.15316509 -0.075721167 -0.04083579
-0.1028438 -0.075541928 -0.047546424
0.033680376 -0.073234469 -0.043182656
0.043646641 -0.069823191 -0.044820618
-0.32162881 -0.035743657 -0.045336608
-0.21561453 -0.03393257 -0.046726305
-0.36026052 -0.029904839 -0.049101561
-0.20043498 -0.019013131 -0.04630756
0.19569692 -0.014880709 -0.042339362
0.22912969 -0.0092126336 -0.04285815
0.21359774 0.0092322817 -0.048992045
0.28365463 0 -0.044098888
-0.34265989 0.020874163 -0.049850218
-0.20285326 0.035778869 -0.045309588
-0.36346599 0.050602585 -0.040973108
-0.153854 0.051947474 -0.04897543
-0.153854 0.065879971 -0.041178338
0.065474436 0.065146364 -0.04434149
-0.047717612 0.079924852 -0.044915482
-0.14717802 -0.081180289 -0.036296733
-0.36346596 -0.077360481 -0.032623805
-0.20243557 -0.079387203 -0.034615874
0.091263503 -0.06828592 -0.033950828
0.11757918 -0.060667925 -0.032706037
-0.200435 -0.058582895 -0.035232909
-0.35899094 -0.042640295 -0.037956107
-0.32528132 -0.042455938 -0.033963233
-0.31828997 -0.048622891 -0.031460892
-0.25265878 -0.043332744 -0.038355142
-0.2375284 -0.046825491 -0.033803307
-0.28544298 -0.031212524 -0.031402096
0.17427003 -0.035841607 -0.032759063
0.2340273 -0.008473834 -0.0399483
-0.23390394 0.0015274255 -0.034888174
0.21606103 0.0065246723 -0.038146809
0.15828498 0.039830185 -0.036594894
0.16478997 0.034597822 -0.038889706
-0.20043501 0.063896105 -0.033040844
0.071623035 0.074814819 -0.033220664
-0.051254079 0.092611879 -0.032368932
-0.041047204 -0.10060471 -0.023970652
-0.10146277 -0.097651511 -0.025559286
-0.31759399 -0.082674727 -0.026678829
0.12406472 -0.063549817 -0.027382331
0.16550696 -0.050564799 -0.022561746
0.17724818 -0.039475624 -0.027543247
0.28726786 0.0065116147 -0.023532428
0.34297466 0.0017282515 -0.027257297
-0.20043501 0.012619546 -0.027845949
-0.23701492 0.084357806 -0.022615379
-0.12301925 0.091951326 -0.029238524
0.0017545063 0.093663409 -0.027629409
0.040162712 0.091631338 -0.023687374
-0.078289449 0.10442975 -0.020175301
-0.153854 0.027986696 -0.013698312
-0.153854 0.037371367 -0.011774705
0.20318937 0.034600899 -0.018003158
-0.2885851 0.043391384 -0.011108645
-0.21710882 0.056499589 -0.013110395
0.16631937 0.053652696 -0.019144174
-0.28844774 0.084784158 -0.019399133
-0.26885521 0.085680805 -0.012588413
0.047290985 0.094272248 -0.019510724
-0.039479617 0.10555629 -0.018956801
0.038855799 0.10381445 -0.011725716
-0.044729039 -0.1168131 -0.0079085128
0.078242391 -0.10596615 -0.00024171277
-0.32577482 -0.057994224 -0.0017574552
-0.23137653 -0.057957366 -0.0020374432
-0.200435 -0.054428734 -6.2214931e-05
-0.1672563 -0.05787316 -0.0026770688
0.21408254 -0.036127836 -0.0097629512
-0.200435 -0.020253882 -0.0059643779
0.23334226 -0.01429797 -0.0091541782
0.25713408 -0.0029264884 -0.0083793476
0.29427171 -0.0098994756 -0.0056596417
0.22612494 0 -0.0039246986
0.25283542 0.0058781873 -0.00011647711
0.24524492 0.010261895 -0.0029370293
-0.33744353 0.052893236 -0.0052064471
0.18278705 0.054968812 -0.0091081588
0.19598155 0.050316572 -0.0067295418
-0.14390597 0.11482741 -0.0031524559
-0.11140236 0.11845017 -0.0038793311
-0.048935555 -0.11615406 0.0087346556
-0.31315362 -0.08639355 0.0071745566
-0.30163887 -0.08639738 0.0071454509
-0.23679858 -0.086834647 0.0038241071
-0.21876872 -0.086089626 0.009483072
-0.17916304 -0.057230797 0.0075563057
0.22372499 -0.0038962236 0.0075602964
0.22464919 0 0.0095775407
0.22586136 0.028918959 0.0073649501
-0.31215781 0.048907407 0.0011842955
-0.24566948 0.04917904 0
0.20305523 0.049962547 0.0027241753
-0.26493472 0.056190528 0
-0.22862294 0.057499345 0.0055164518
0.17352597 0.064115025 0.0048808455
-0.2345167 0.086732537 0.0045996811
-0.15531445 0.090011902 0
-0.056195755 0.11527459 0.0098684654
-0.15385398 -0.091511533 0.018756153
-0.33434591 -0.084803566 0.019251697
-0.3004756 -0.085115865 0.016879544
0.094165698 -0.0876377 0.013713947
0.13526098 -0.067257866 0.019458879
-0.23279428 -0.056711584 0.011500095
-0.200435 -0.05799092 0.016890619
0.21849579 -0.023583999 0.019586975
0.31608433 -0.0015883665 0.016658001
0.23154995 0 0.012849007
0.30378687 0 0.019931912
0.32514599 0.0035831069 0.016658001
0.22372501 0.024047531 0.012803234
-0.30105144 0.045671165 0.010701349
-0.30710787 0.085454479 0.014307545
-0.27153513 0.08509104 0.017068099
-0.24362072 0.08474496 0.019696839
-0.22194543 0.084948704 0.018149262
-0.153854 0.086047404 0.016494887
0.044335566 0.095022671 0.019458402
0.054297656 0.095510095 0.016617825
-0.12490736 0.10382545 0.017074229
-0.038632199 -0.097022742 0.027456684
0.011752624 -0.090826616 0.02930609
-0.22178066 -0.082163587 0.027912868
-0.30258453 -0.051479619 0.02656612
-0.16801432 -0.051620249 0.026226606
0.31618842 -0.0013100054 0.028151553
0.33559307 -0.0022691409 0.024727453
-0.200435 0.0011002412 0.021625597
0.23076196 0 0.026597612
0.2155567 0.019867148 0.02511513
-0.30969185 0.039135952 0.028185718
-0.20043501 0.036899555 0.025596812
-0.25808921 0.049931675 0.029755246
-0.30559283 0.051471092 0.026586697
-0.22218242 0.05142333 0.026702002
-0.2137922 0.052944288 0.023030188
-0.1958946 0.052997693 0.022901258
-0.33637312 0.081554271 0.029383935
-0.010753164 0.10134941 0.021246698
-0.20848477 -0.078698829 0.036277823
0.04240036 -0.075687289 0.039250907
0.20080125 -0.022546969 0.031528845
0.21720934 -0.004721066 0.03924273
0.23723906 -0.0041474779 0.0399483
0.29041505 -0.0042718076 0.038106587
0.34228072 -0.00020631387 0.033622831
-0.22944838 0 0.035335213
0.2302161 0.0033966887 0.0399483
0.17789826 0.028272459 0.038401134
0.19437161 0.022749148 0.03517485
-0.30121627 0.046762556 0.033885326
-0.1248588 -0.07877937 0.042127769
-0.11317044 -0.073827505 0.048345234
0.055265665 -0.068817884 0.043081388
-0.32237133 -0.025899807 0.043719478
-0.30848581 -0.0059426008 0.047625244
0.20929191 -0.0038110232 0.045032136
0.22372501 -0.0048365928 0.045283724
-0.27471429 0 0.046221636
0.25331405 0 0.046920836
-0.31637686 0.014188338 0.047583025
-0.34143999 0.030904196 0.044134814
-0.28832352 0.038608976 0.043137968
0.15818992 0.034846913 0.0416211
-0.36346599 0.045662165 0.047195029
0.12196025 0.045769248 0.045955233
0.097500674 0.05767715 0.042657416
-0.20687497 0.07231991 0.047992684
-0.11765391 -0.070871003 0.050904207
-0.26888299 -0.067501813 0.054271683
-0.153854 -0.061288558 0.053968985
-0.005726906 -0.062273968 0.059798412
0.12096947 -0.040086355 0.052011158
-0.35198414 -0.022760503 0.050855719
-0.18697317 -0.024014408 0.052536599
-0.2084717 -0.019469358 0.054419279
-0.1758775 -0.018737063 0.054722611
-0.29169661 -0.0072277156 0.057274051
0.23443915 -0.0061745811 0.052886382
-0.23004842 0.008651441 0.05708662
-0.1812965 0.0014328714 0.058036961
0.28997657 0.00070453715 0.05255153
0.15364031 0.026387338 0.052135207
-0.200435 0.060839158 0.055102143
-0.15329607 0.062437635 0.054099116
-0.033460949 0.065535732 0.058738276
-0.024009174 0.065439887 0.058458667
-0.23902555 -0.060019962 0.063090943
-0.075938173 -0.060242731 0.064419575
-0.24700886 -0.054345895 0.067444861
0.0079552941 -0.052022759 0.068623953
0.031504065 -0.056778893 0.060006995
-0.153854 -0.022436665 0.061103769
0.17219876 -0.003775056 0.069700807
-0.19949658 0.00058650802 0.064132631
0.25662106 0.0015399762 0.062551878
-0.153854 0.040337514 0.069707848
-0.36346599 0.055890787 0.064091228
-0.24663755 0.052735776 0.068680368
-0.14137772 0.051063687 0.067304738
-0.24721304 0.062063623 0.061358795
-0.041666679 -0.053840976 0.070758991
-0.200435 -0.046021078 0.070345148
-0.33266217 -0.033504363 0.079847649
-0.20043498 -0.028201096 0.073956236
0.22948746 -0.001184138 0.074828789
-0.200435 0.0058708191 0.075560376
0.23543811 0.0010903272 0.072823703
0.07514289 0.035115004 0.072038129
-0.28355387 0.041689869 0.076457232
-0.27289495 0.044771872 0.074791357
-0.14282793 0.0444187 0.073726833
-0.10103351 0.048355613 0.074893251
-0.15329289 -0.030427273 0.086110137
-0.053107865 -0.036579054 0.088475399
-0.29573649 -0.025547029 0.08314351
-0.20975128 -0.029090423 0.081675842
-0.153854 -0.021785896 0.085312158
-0.17375115 -0.014868038 0.087961659
-0.30624086 -0.0096353265 0.086069584
-0.27008644 -0.0058835573 0.086563513
-0.36241904 0.0025943636 0.08699654
-0.25551051 0.0054612462 0.086619109
-0.17623234 0.0091099674 0.088478476
0.12756604 0.005780282 0.083833613
0.14945671 0.007583281 0.080411799
-0.3559387 0.01379242 0.085522294
-0.29448053 0.010599411 0.085942663
-0.23091717 0.012329843 0.085714847
0.097779892 0.016366212 0.083883196
0.10519008 0.010493672 0.087495811
-0.28469062 0.02823513 0.082030132
-0.041910827 -0.030783646 0.093826026
-0.0073115365 -0.02954234 0.092695154
-0.17001933 -0.0037731174 0.096244656
0.18046136 -1.1532322e-05 0.099129684
-0.19516201 0 0.093950607
-0.18304296 0 0.098185822
0.094883069 0.0067897234 0.094343141
0.10390846 0.003823438 0.098380342
0.15098126 0 0.099238478
0.1799663 0.00138317 0.09384127
-0.16914052 0.01800566 0.09423694
0.033455305 0.021770366 0.094684891
0.050299473 0.020503588 0.092568748
-0.12028214 -0.014480976 0.1070612
0.14392725 -0.00095129461 0.10998432
-0.17732638 0.0089470576 0.10178086
0.037624966 0.0096855331 0.10606319
0.063512184 0.00079036743 0.10995135
0.089095712 0.0025902819 0.10289787
-0.061994031 0.017081579 0.10792027
-0.029446725 0.016163727 0.10795083
-0.15385401 0.02154828 0.10596351
-0.025563804 0.021797551 0.10216276
-0.16457792 -0.020802397 0.11296438
-0.14644954 -0.019241063 0.11758896
-0.15465619 -0.0057426202 0.1156908
-0.045586526 -0.008483557 0.11627212
0.023452207 -0.0031286108 0.11502165
-0.15132545 0.0042975759 0.1168396
-0.037859969 0.0050760871 0.11937267
-0.10664503 -0.018686309 0.12275131
-0.153854 -0.0032278597 0.12341848
-0.10368287 -0.008575079 0.12301396
-0.074418485 0.0027125154 0.12198679
-0.044409305 0.0045206142 0.1201883
-0.039858237 0.0047070649 0.12452814
-0.029319324 0.0081003895 0.12410949
-0.015891979 0.0050693573 0.12313156
0.035488334 0 0.12037037
-0.14289376 0.025566854 0.12625015
-0.12118232 -0.021278478 0.13471942
0.074533686 -0.0027691156 0.1304705
-0.1008299 0 0.13589492
-0.096640632 0 0.13575885
-0.06531322 0 0.13736562
0.051996149 0 0.13735533
-0.026567657 0 0.14419058
-0.089684784 0.015511605 0.14518799
0.028669007 0.00022560544 0.1589902
0.057624802 0 0.15725857
0.064417861 0 0.1581713
-0.084093608 0.012894451 0.15342087
-0.21858846 -0.081604898 0.16564497
-0.10159914 -0.071681082 0.16255684
0.016775794 -0.0010764358 0.16034421
-0.050416511 0 0.1629898
-0.078513362 0.064403698 0.16849789
-0.19259134 0.077212438 0.16218543
-0.18650694 0.078529373 0.16793206
-0.17768531 0.07852646 0.16936228
-0.12380785 0.072697803 0.16537443
-0.2867431 0.08404769 0.1671541
-0.22843923 0.082074545 0.16054773
-0.21215704 0.081298269 0.1629433
-0.35240027 -0.086870752 0.17930737
-0.13408901 -0.075932369 0.1768858
-0.0544689 -0.065514125 0.17849869
-0.094612524 -0.059463046 0.17343856
-0.09489914 -0.045913108 0.17789727
-0.14804673 0.05623389 0.17666772
-0.095424682 0.053595476 0.17036861
0.02159553 0.054366224 0.17788897
-0.075435236 0.068257555 0.17367351
-0.2615025 0.078554116 0.17737451
-0.23859936 0.074973471 0.17357829
-0.22568686 0.070564896 0.1779872
-0.33310348 0.086556099 0.17553334
-0.30287689 0.082007416 0.17938976
-0.25279361 0.081086673 0.17472312
-0.24071428 0.082659774 0.17358257
-0.35333443 -0.087004043 0.18211395
-0.13665569 -0.046168275 0.18408123
0.027615538 -0.044783995 0.18271363
0.049036428 -0.04318767 0.18396455
0.10719843 -0.037934694 0.18637583
-0.153854 -0.0048044836 0.18722898
0.00074164942 0 0.18234234
0.013755441 0.036391269 0.18558505
0.09066359 0.039573509 0.18637797
0.10404338 0.03132138 0.18941152
-0.070747033 0.049411558 0.18349004
-0.036411449 0.049720965 0.18318063
-0.0046818256 0.049179379 0.18372223
0.08343409 0.049143299 0.18501002
-0.0041010156 0.051537864 0.18136373
-0.22016238 0.071176596 0.18938151
-0.27006194 0.083248034 0.18076402
-0.22634669 0.080400221 0.18476443
-0.22635157 -0.08197502 0.19830081
-0.054259729 -0.040392917 0.19250868
0.0095677553 -0.042285878 0.19061571
0.06110242 -0.041422538 0.19319102
0.11990169 -0.048256919 0.19609645
0.13309857 -0.044754408 0.19456947
0.16363077 -0.032399453 0.19226782
-0.064938284 -0.026481859 0.19270834
0.075611442 -0.026717784 0.19152471
0.1123712 -0.022101676 0.19364366
0.18894336 -0.02771455 0.19472748
0.19271728 -0.02323433 0.19973166
-0.058506429 -0.019035367 0.199163
-0.0022641066 -0.013711553 0.19581388
0.12539105 -0.014300212 0.19722477
-0.11177601 0 0.19090801
-0.0855105 0 0.19269326
-0.067609601 0.020564955 0.19903719
-0.046192713 0.020405106 0.19589442
0.22225487 0.028193813 0.1998346
-0.12610769 0.034564383 0.19833721
-0.11577944 0.031839561 0.1951907
0.14001559 0.030019237 0.19000924
0.0034528514 0.040468019 0.19243358
0.11443305 0.048614725 0.19758144
-0.16896082 0.065115735 0.19948053
-0.087253861 0.069804013 0.19161136
-0.22351439 0.078541584 0.19348127
-0.18754634 0.074788004 0.19734231
-0.16697879 0.076801859 0.19190165
-0.12584005 0.074852988 0.19472364
-0.35498774 0.088107899 0.19283481
-0.30203927 0.082364894 0.19237213
-0.29645476 0.082300082 0.19455594
-0.22090511 0.080258973 0.19284761
-0.38079476 -0.089222059 0.2017059
-0.32670319 -0.086759403 0.2071564
-0.153854 -0.078331061 0.20226999
-0.23403177 -0.063605912 0.20463848
0.17030267 -0.044959255 0.20015113
-0.14351445 -0.030431574 0.20247003
0.033709973 -0.033646755 0.20428368
0.082953751 -0.031729229 0.203789
0.16508818 -0.039531324 0.20845354
-0.13398142 -0.029220372 0.20368123
-0.093691327 -0.020857396 0.20276672
-0.08336506 -0.02786088 0.203789
-0.032035775 -0.02833372 0.203789
-0.028334161 -0.021899 0.203789
0.19449615 -0.021397909 0.203789
-0.14803043 -0.011341407 0.203789
0.0092529394 -0.012881286 0.203789
0.084421434 -0.011893914 0.203789
0.21072353 -0.015923932 0.203789
0.27244782 -0.015625261 0.20735037
-0.05561541 -0.0011865858 0.203789
0.076948427 -0.0017876328 0.20298724
0.10464428 -0.0040659476 0.2019226
-0.16644992 0 0.20708412
-0.15366565 0 0.20521218
-0.041575234 0 0.20049258
0.0077949278 0.0075489813 0.20042528
0.14252098 0.0038068793 0.20204154
0.18486658 0.001363176 0.203789
0.20578331 0.0052148905 0.2013952
0.24014172 0.0069461227 0.20060052
0.30138201 0 0.20430429
-0.1354607 0.012830613 0.203789
0.005153602 0.010025177 0.203789
0.031364322 0.012721418 0.203789
0.13465098 0.01720912 0.203789
0.18911938 0.01003487 0.203789
0.25880265 0.019776765 0.203789
-0.088082448 0.0291126 0.20822337
0.067358971 0.0291126 0.20946169
0.20982072 0.0291126 0.20696718
0.22723058 0.025500519 0.203789
0.23634361 0.027211601 0.20166107
-0.11365201 0.031880043 0.20102155
0.014809912 0.031306893 0.20159471
0.098480821 0.032053277 0.203789
0.22580585 0.035569936 0.203789
0.046210669 0.042435896 0.20832697
-0.1620318 0.059772741 0.20229051
-0.082849443 0.069227695 0.20017892
-0.077926919 0.068583593 0.20782846
-0.052223645 0.065220334 0.20422488
-0.21210121 0.072069168 0.20272699
-0.17883626 0.07852684 0.20549197
-0.16663355 0.075620256 0.20383669
-0.090327762 0.070206232 0.20919253
-0.29473042 0.085235059 0.20769426
-0.27100107 0.084103733 0.20258982
-0.20534727 0.08097361 0.20749722
-0.30079931 -0.081236571 0.21528703
-0.27855337 -0.076621212 0.21856259
-0.20632744 -0.053708356 0.21464637
0.077486195 -0.050192494 0.21181276
0.20802328 -0.053083323 0.216602
0.14205419 -0.0291126 0.21192551
0.24850079 -0.028324923 0.21864519
-0.17666207 -0.019612212 0.21569031
-0.14375281 -0.0038993601 0.21326463
0.29516324 -0.0035785693 0.21534835
-0.26671019 0.00476402 0.21877247
-0.13921216 0 0.21102409
-0.24220493 0.012508948 0.21991983
-0.153854 0.01375376 0.21120514
0.22372501 0.019086005 0.21520062
-0.08094275 0.0291126 0.21006739
-0.027844664 0.0291126 0.219754
0.031243721 0.0291126 0.21710925
0.25652024 0.024071898 0.21690045
0.10096432 0.049169242 0.2110275
-0.17779414 0.057278752 0.21244526
0.052884564 0.053485498 0.21804306
0.076143011 0.051119678 0.21185149
0.22369163 0.053548373 0.21852076
-0.24213892 0.074825406 0.21424891
-0.17567293 0.073570162 0.21435849
-0.31148013 0.086033627 0.2131574
-0.23496407 0.081819624 0.2177074
-0.1762161 -0.068012908 0.22766313
-0.018331265 -0.060785536 0.22246432
0.097167894 -0.05369848 0.22144079
0.034935601 -0.033266556 0.22312255
-0.069767997 -0.0291126 0.22469872
-0.0030455776 -0.0291126 0.22892965
0.20692638 -0.0291126 0.22357401
0.22372499 -0.02966392 0.22972387
-0.20941241 -0.013341344 0.22739868
-0.18571746 -0.013243275 0.22716191
-0.083426282 0 0.22481553
-0.023960695 0 0.22907871
-0.26106378 0.014608694 0.22746564
-0.24985757 0.015398725 0.22574377
-0.20954627 0.0133659 0.22745796
-0.19629541 0.013393073 0.22752357
0.22372501 0.012618624 0.22610989
-0.17657846 0.040971547 0.22450295
0.054068215 0.051263705 0.22789566
-0.23652729 0.069364585 0.22853589
-0.1597977 0.064893954 0.22335748
-0.31910697 0.084553637 0.22798982
-0.28786221 0.081996925 0.22215915
-0.27227715 0.083338186 0.22136799
-0.26402721 0.081378251 0.22608303
-0.30104172 -0.082633674 0.23022434
-0.24507299 -0.07081987 0.23639183
-0.24110925 -0.066643424 0.23332174
-0.20088166 -0.051682621 0.23156765
-0.12347918 -0.059382141 0.23174547
0.0047267601 -0.053538896 0.23758872
0.16236316 -0.041459747 0.23290142
-0.22125313 -0.020668861 0.23290201
-0.09479028 -0.0291126 0.23619923
-0.25363457 0.014184816 0.23572522
-0.17852324 0.025660153 0.23570381
0.1036039 0.0291126 0.23237954
0.16642001 0.0291126 0.23397641
0.080883473 0.03505142 0.23106608
0.10655694 0.049129985 0.23388039
0.112321 0.042673919 0.23274307
-0.10755631 0.057064041 0.23406358
-0.24458043 0.06795495 0.23591921
-0.12703036 -0.042330906 0.2487967
0.0087096719 -0.049973063 0.24115455
0.21877714 -0.041787811 0.24213424
0.11991636 -0.0291126 0.24077356
0.12435349 -0.0291126 0.24063805
0.15639192 -0.0291126 0.24739502
-0.21355161 -0.0045998418 0.2466183
-0.2531524 0.0037040147 0.24911538
-0.24986173 0.003204244 0.2495925
-0.18906727 0 0.249208
-0.2403952 0.013476865 0.2451348
-0.21270274 0.016047396 0.24742247
-0.1894491 0.022350315 0.24284101
-0.10982011 0.0291126 0.24759194
-0.039574888 0.0291126 0.24750203
-0.0088958256 0.0291126 0.24281995
-0.19473097 0.049387563 0.24477597
-0.067236334 0.0456299 0.2454977
0.032784361 0.044884805 0.24536428
0.048630618 0.043132063 0.2479955
0.068403497 0.046409808 0.24471772
-0.18229315 0.051746368 0.24548301
-0.1418025 0.050487414 0.24064019
0.027650451 0.050246548 0.24088106
-0.067820713 -0.041001886 0.25012574
-0.12740265 -0.036061294 0.25506631
0.20406623 -0.03442543 0.2509492
-0.12912892 -0.0291126 0.25188723
-0.022742778 -0.0291126 0.2553941
0.17062409 -0.020793166 0.25826013
0.23568314 -0.011109511 0.25330806
-0.22171509 -0.0048959414 0.25288802
0.24143468 -0.009220181 0.25127485
0.23798928 0.0023455266 0.25487792
-0.1917741 0.013609926 0.25291687
-0.15385401 0.019901991 0.25550833
0.094755612 0.0291126 0.251095
-0.090286545 0.03906104 0.25206655
0.073335722 0.037577674 0.25354981
0.10228369 0.03795895 0.25316846
-0.031399734 -0.030446894 0.26068071
-0.18242681 -0.029067252 0.26201501
-0.12756336 -0.027655039 0.26201501
-0.1199415 -0.0291126 0.26093099
-0.10804803 -0.023290345 0.26783735
0.044284575 -0.027169332 0.2622658
-0.20307355 -0.011571437 0.26861149
-0.16480765 -0.017530765 0.26201501
0.078189932 -0.017961061 0.26201501
0.096019253 -0.013768709 0.26497725
-0.16916868 -0.00092303351 0.26201501
-0.084225282 -0.0084678587 0.26201501
-0.034511961 -0.0081986533 0.26201501
-0.11375093 0 0.26336259
-0.067590542 0.0070050326 0.26201501
-0.037008412 0.0059927907 0.26201501
-0.0051847789 0.0074673197 0.26201501
0.012224004 0 0.26347178
0.1282891 0.0071743764 0.26201501
0.18573444 0.0046834657 0.26260251
0.19019656 0.0011691273 0.26201501
0.20659404 0.0040902663 0.26158351
-0.15194598 0.019861026 0.26201501
-0.083747573 0.011343643 0.26201501
-0.057301149 0.018657191 0.26201501
-0.1228393 0.02097003 0.26201501
-0.075563364 -0.013478162 0.27764967
-0.20043501 -0.00010832011 0.27183735
-0.053468354 0.0085922368 0.27909166
-0.042513013 0 0.27152294
-0.20207754 0.014101872 0.27702594
-0.1761378 -0.0055797701 0.28554815
-0.11238758 -0.009857404 0.28127044
-0.18619388 0.0063261972 0.28480172
-0.16667745 0.0019151985 0.28921276
-0.13156456 0 0.28717732
