# .PCD v0.7 - Point Cloud Data file format
VERSION 0.7
FIELDS x y z
SIZE 4 4 4
TYPE F F F
COUNT 1 1 1
WIDTH 914
HEIGHT 1
VIEWPOINT 0 0 0 1 0 0 0
POINTS 914
DATA ascii
-0.11004496 -0.041775402 -0.26615921
-0.10460879 -0.037804611 -0.25469303
-0.089440033 -0.039665397 -0.25563562
-0.075038292 -0.039260052 -0.25575024
-0.12217683 -0.070283279 -0.24211797
-0.12157767 -0.061526306 -0.24376655
-0.10938751 -0.061192825 -0.24961197
-0.098153718 -0.060859531 -0.24387349
-0.065744221 -0.065275677 -0.24480815
-0.05123806 -0.064259961 -0.24980173
-0.0083310092 -0.063381001 -0.24210614
-0.075450197 -0.058207057 -0.24516664
-0.060411356 -0.05362498 -0.24957603
-0.026292777 -0.055286556 -0.24663824
-0.059350353 -0.049189422 -0.24965677
-0.043170474 -0.047457911 -0.24966063
-0.017882977 -0.049955629 -0.24499016
-0.078879386 -0.037733484 -0.24498895
-0.068077251 -0.034233738 -0.24703391
-0.12569125 -0.05376298 -0.23564237
-0.11858677 -0.054090306 -0.23578812
-0.10343987 -0.032653887 -0.23095833
-0.07337077 -0.034760259 -0.23666549
-0.062207706 -0.02895233 -0.2391434
0.022409 -0.047912747 -0.22079721
-0.076510109 -0.053843927 -0.21412937
-0.008690618 -0.053790376 -0.21258627
-0.057836354 -0.030203667 -0.21939057
-0.092487469 -0.029568583 -0.21770371
-0.073943309 -0.025184283 -0.21374291
-0.047095366 -0.021002728 -0.21141663
-0.078288078 -0.063300423 -0.20440811
-0.0056845094 -0.067854807 -0.20265587
0.03753002 -0.060700268 -0.20178387
-0.057955839 -0.051667102 -0.20722376
-0.0035116265 -0.052958265 -0.2016345
0.010352013 -0.059524432 -0.20921481
-0.044008069 -0.049697611 -0.20878242
-0.028427333 -0.046339408 -0.20880353
-0.062271804 -0.032716639 -0.20027794
-0.033188928 -0.036633361 -0.20036241
-0.014491767 -0.037697263 -0.20031622
-0.088140704 -0.027642369 -0.2098676
-0.074857876 -0.022566404 -0.20075046
-0.057535201 -0.022058148 -0.20948973
-0.035007574 -0.027625013 -0.20487007
-0.011938524 -0.019210406 -0.20332116
-0.039552517 -0.067300141 -0.19731051
0.021853691 -0.063549086 -0.19929823
-0.00086051901 -0.052684307 -0.19309999
-0.053893838 -0.046878785 -0.19441345
-0.013849392 -0.041458692 -0.19347619
0.011423904 -0.049245469 -0.19736505
0.015769798 -0.051311206 -0.18633077
0.013200989 -0.041750982 -0.18419956
-0.077612214 -0.022056386 -0.1873935
-0.032785051 -0.021701466 -0.18656079
-0.063965395 -0.018492971 -0.18816055
-0.023755796 -0.012386647 -0.18535472
-0.036164083 -0.011225296 -0.17140323
-0.027610872 -0.019796824 -0.17921957
0.0017871512 -0.015333189 -0.1750069
-0.05207853 -0.090868011 -0.16100538
-0.041625958 -0.093422212 -0.16606773
-0.040696982 -0.023540426 -0.1692149
-0.073074892 -0.014840947 -0.16518332
-0.023358312 -0.012071928 -0.16123173
0.019113498 -0.0008829725 -0.16175801
0.02680641 -0.0058265431 -0.16175801
-0.073948637 -0.019058453 -0.15516436
-0.064209238 -0.014340364 -0.15647192
-0.050395265 -0.018090622 -0.15487704
-0.020306638 -0.046263956 -0.141092
0.023329036 -0.0066021588 -0.14083853
-0.34706408 -0.055855341 -0.13463208
0.056386486 -0.050809085 -0.13148509
-0.085352652 -0.047797497 -0.13227926
-0.078844815 -0.042420864 -0.13187981
-0.045920454 -0.042113356 -0.13905494
0.046623413 -0.031931326 -0.13607666
0.04668593 -0.028428972 -0.13133919
-0.01830723 -0.00078424322 -0.13295545
-0.061774243 -0.057169445 -0.12147819
-0.086019158 -0.042587198 -0.12546779
0.066715114 -0.048982121 -0.1272251
0.079056606 -0.044820357 -0.12423702
0.083949633 -0.033539988 -0.1286636
-0.032669764 -0.020460524 -0.12843999
0.031260796 -0.024165079 -0.1299791
0.042564534 -0.022339392 -0.12488821
-0.051264703 -0.012621084 -0.12603189
-0.03703928 -0.01596541 -0.12399305
-0.041137047 -0.0084723597 -0.12941106
-0.034385584 -0.0083289593 -0.12971447
-0.0033620673 -0.0081774145 -0.12261833
0.0017160214 0.0037625167 -0.12439284
-0.36188343 -0.050501678 -0.11762598
-0.34242791 -0.052742273 -0.11875837
0.0048799906 -0.049605254 -0.11330151
0.068502188 -0.04113631 -0.11754961
-0.040333822 -0.039961345 -0.11403123
0.0021467328 -0.033348177 -0.11543775
0.065253675 -0.03455979 -0.11751544
0.0063826661 -0.0027308669 -0.11127894
0.034713328 -0.0014284521 -0.11802633
-0.035242539 0.00042474398 -0.11635394
-0.31830865 -0.048704378 -0.10888338
-0.012508564 0.0063248407 -0.10273001
0.057337515 0.0079592103 -0.10485779
-0.30115214 -0.039627075 -0.096856125
0.056272559 -0.025887096 -0.094391286
0.079716891 -0.023081388 -0.091916919
-0.050899044 -0.00051391614 -0.099972725
0.081487514 -0.001693476 -0.093242303
0.00035469979 0.0013776207 -0.092542097
0.026713356 0.0026415056 -0.091290578
-0.31644505 -0.042917989 -0.087684155
0.065167993 -0.026211701 -0.088842221
0.12637228 -0.0034988141 -0.087093815
-0.014695918 0.0018336026 -0.089023992
0.014576691 0.002635519 -0.089375317
0.053232759 0.003216404 -0.087201864
0.036056444 0.01614709 -0.087670505
0.042919815 0.016631508 -0.089895934
-0.30463067 -0.032376911 -0.077753171
-0.04889857 -0.039072961 -0.074160427
-0.028527215 -0.034179572 -0.071209416
-0.074206516 -0.022675417 -0.073108494
0.068904065 -0.022411454 -0.074491426
0.071230695 -0.022083195 -0.074361607
-0.036494628 -0.01217459 -0.078031063
0.059540994 -0.01034666 -0.073100805
0.064569786 -0.013291528 -0.071544863
0.074674278 -0.016535498 -0.073228896
0.091990732 -0.01138242 -0.074976534
0.10085911 -0.019428572 -0.078966759
0.026230551 -0.0075848084 -0.070173688
0.061957784 -0.0088123037 -0.073449798
0.14451817 -0.0019385774 -0.07977251
0.090380087 0.00088316138 -0.07551074
0.14350301 0.001545751 -0.073459327
0.16013035 0.0024916853 -0.074910797
-0.34473637 -0.033732396 -0.061675657
-0.33349857 -0.030453224 -0.060475305
-0.051895339 -0.035014257 -0.068423562
0.039991297 -0.034126364 -0.063152105
0.051831327 -0.032162182 -0.064688355
0.11510788 -0.033370364 -0.061991658
-0.057942759 -0.025856694 -0.068317987
-0.02246736 -0.022787087 -0.068001978
0.095378332 -0.0248638 -0.069970831
0.10501596 -0.02895274 -0.066134572
-0.030350365 -0.01708883 -0.062801749
-0.025213961 -0.012594422 -0.064678654
0.10455243 -0.0027460565 -0.06788642
0.12266259 -0.0023856624 -0.066354848
-0.032027181 0.0080903517 -0.064801276
-0.018018806 0.0088525871 -0.060875736
0.033047821 0.0098180808 -0.060407102
0.062016562 0.0088612102 -0.063650042
0.19410196 0.007344828 -0.061706811
-0.026669577 0.012728493 -0.061203323
-0.018780984 0.012774281 -0.067143612
0.074177042 0.013432096 -0.064218536
0.12059157 0.010821506 -0.0680952
0.17022318 0.019426055 -0.061858393
0.038377777 0.020790879 -0.066552177
0.14244182 0.023855489 -0.061299846
-0.018586135 -0.041435726 -0.052054413
0.07885015 -0.043111116 -0.050006725
-0.28658861 -0.031435043 -0.051396362
-0.094333045 -0.035951283 -0.05054839
-0.042643562 -0.037307464 -0.056711409
-0.019340357 -0.0385851 -0.055216651
0.15658301 -0.034014121 -0.058853198
0.16821991 -0.033807926 -0.058161333
-0.31214157 -0.025441155 -0.051357951
-0.30238914 -0.024959944 -0.053487152
-0.022236928 -0.025772549 -0.051480312
-0.11961553 -0.017607773 -0.050065987
0.095102735 -0.00233854 -0.059346464
0.18294674 -0.0080862641 -0.058777712
-0.0013514485 0.0091061685 -0.058936641
0.0058604539 0.0079007111 -0.057482734
0.13038005 0.0025691707 -0.052479535
-0.04684864 0.01049141 -0.053277232
-0.0026827545 0.016673991 -0.05802412
0.14262983 0.019004988 -0.05803179
0.1853884 0.018365134 -0.052266218
0.085650288 0.027012028 -0.057053845
0.12886611 0.026901484 -0.050513212
0.16059022 0.025527073 -0.058197379
0.0018287895 -0.062297076 -0.047404513
0.052945219 -0.066180818 -0.049226951
0.083959788 -0.063528538 -0.046831507
-0.084663227 -0.042285696 -0.045524027
-0.032187734 -0.047504548 -0.042509772
0.087371223 -0.04576917 -0.043876715
0.12829357 -0.043720603 -0.043248691
-0.13280901 -0.03623585 -0.043938331
0.11853227 -0.030709641 -0.046804849
-0.29078287 -0.021622218 -0.046572998
-0.16365868 -0.029527524 -0.040520351
-0.093947217 -0.0073504127 -0.049225323
0.11576549 0.0063322238 -0.04475775
-0.059080936 0.010976538 -0.047528364
-0.023817353 0.015506573 -0.04541003
-0.0049558235 0.01871594 -0.044815212
0.005656674 0.015062149 -0.047010154
0.012533845 0.011561973 -0.0488993
0.065066196 0.014042937 -0.046398669
0.083022989 0.017334893 -0.046371326
0.17648765 0.013759221 -0.047447085
0.065455019 0.029034695 -0.043528788
0.12432924 0.024191525 -0.047749713
0.157037 0.028970951 -0.04285353
0.16212614 0.029319284 -0.042394273
-0.011791391 -0.0501724 -0.03568016
-0.17405224 -0.040914439 -0.03197151
-0.058486056 -0.049621738 -0.034761529
0.011683044 -0.046803061 -0.038313571
0.086642668 -0.047791179 -0.03850054
0.10940011 -0.048157107 -0.03836621
0.18913065 -0.041261911 -0.030920643
-0.12482669 -0.031580631 -0.031710498
-0.038853679 -0.036744788 -0.035451602
-0.0031881202 -0.030796252 -0.037220731
0.090152308 -0.036060445 -0.030593235
0.18490259 -0.038850598 -0.03641066
-0.3057954 -0.021246597 -0.039480768
-0.04797934 -0.023762055 -0.039121523
0.01617115 -0.024404036 -0.03824845
-0.29194629 -0.017867312 -0.033589624
-0.16401854 -0.014387669 -0.038690969
-0.11016443 -0.016310181 -0.033328243
0.1015559 -0.019429192 -0.036869198
0.11728032 -0.019161869 -0.034653593
0.12248558 -0.016260095 -0.03598557
0.13386977 -0.013534264 -0.035697844
-0.061172985 -0.00065389136 -0.032899544
0.003790563 -0.0072451904 -0.037648115
0.012587494 -0.0028411965 -0.036830168
0.020226717 -0.0039445902 -0.037192471
0.22402918 -0.0056753103 -0.03045319
-0.049417082 0.0078422669 -0.033396702
0.11579092 0.0059060538 -0.03931861
0.14599483 0.00012086087 -0.03402796
0.047547512 0.015076944 -0.03865651
0.078954063 0.017425256 -0.037726857
0.069999628 0.02188481 -0.032189526
0.077233046 0.022530315 -0.032592971
0.091784261 0.020272847 -0.037033826
0.19040591 0.021996628 -0.036237732
0.14833668 0.032390088 -0.036025863
-0.026023135 -0.088039167 -0.021356599
-0.1039245 -0.050612845 -0.023965141
-0.094153084 -0.051762678 -0.025367672
-0.066522881 -0.051668353 -0.020439401
0.017370872 -0.051967517 -0.027241794
0.025703315 -0.052387159 -0.021587301
0.069787748 -0.050239399 -0.02012765
-0.12980834 -0.047591999 -0.02611509
0.022294424 -0.048209742 -0.022595083
0.066727541 -0.045219645 -0.023122273
-0.19126894 -0.030382918 -0.023114681
0.073832817 -0.039042007 -0.02981404
0.13093346 -0.031381465 -0.02998247
0.14556418 -0.033629127 -0.027510375
0.17325053 -0.037483484 -0.021553647
-0.25587308 -0.028723598 -0.020860819
-0.19960041 -0.028749276 -0.022012994
0.21925434 -0.02877445 -0.024044625
0.24280874 -0.025746947 -0.023946119
0.27172619 -0.021000098 -0.025057372
0.29666817 -0.025018573 -0.021536831
0.32650137 -0.022417806 -0.021180648
-0.26897717 -0.013748161 -0.028714873
0.25262466 -0.011772761 -0.027945332
0.29368809 -0.019763928 -0.02472093
-0.20567647 -0.0055646989 -0.021622173
-0.14783806 -0.0020253141 -0.02920148
-0.12444307 -0.0016934723 -0.022884496
-0.1080498 -0.0011984963 -0.02835343
0.31086805 -0.0047141621 -0.025979538
-0.1341581 0.0027464963 -0.020526743
-0.085012831 0.0064676059 -0.02571575
-0.0772008 0.0049532135 -0.026271807
-0.061558381 0.0095325317 -0.023471758
-0.056471229 0.0077898148 -0.024811778
0.2388479 0.0037074403 -0.028499674
0.24911216 0.0073926668 -0.020310067
0.30070224 0.0078356527 -0.023063818
0.31977445 0.008802209 -0.020164859
-0.038056388 0.015667584 -0.020550657
-0.02082948 0.012472133 -0.021097178
0.0095361285 0.015620537 -0.025373094
0.11837195 0.014521778 -0.023627192
0.14611202 0.017246915 -0.029966485
0.19562365 0.011309637 -0.028700154
0.22724767 0.01071952 -0.028020363
0.24612802 0.012247019 -0.023097089
0.0014444611 0.023304842 -0.025475621
0.0468054 0.020952422 -0.024280671
0.10549068 0.025821868 -0.027961556
0.11615639 0.027227819 -0.024078863
0.12820037 0.028852118 -0.020553352
0.15429935 0.029656634 -0.027878894
0.16918236 0.022073727 -0.021468939
0.18798155 0.023086146 -0.023512177
0.22897889 0.026793869 -0.021466067
0.2786558 0.025601313 -0.022805147
0.061572131 0.030176368 -0.023325011
0.12745588 0.036108218 -0.024771515
0.13717046 0.036602594 -0.023580637
0.14937766 0.040995624 -0.020770662
0.25949159 0.043831401 -0.022777488
-0.18943551 -0.05892504 -0.0122717
-0.17296761 -0.058390111 -0.012378896
-0.14594185 -0.051203467 -0.010183163
-0.11519605 -0.052143127 -0.011601445
-0.097627573 -0.058040172 -0.014660438
-0.068791687 -0.058849342 -0.013093269
-0.048842452 -0.052449241 -0.016869573
-0.038924914 -0.053221941 -0.012645131
0.045451768 -0.0526179 -0.013668571
0.072441705 -0.050393667 -0.013419572
0.083017871 -0.050297961 -0.015336796
0.16451187 -0.059592638 -0.019665323
-0.27198276 -0.042699024 -0.012380199
-0.21572439 -0.048233058 -0.012585637
0.089069068 -0.049764305 -0.016955405
0.10682173 -0.049839363 -0.010463629
0.1148946 -0.047081046 -0.015120934
0.15322866 -0.045782402 -0.015434612
0.21747005 -0.048403319 -0.016020445
0.25004858 -0.047242574 -0.015412011
-0.29631358 -0.033679467 -0.011617744
-0.2761527 -0.039237145 -0.013722451
-0.24558216 -0.03946925 -0.016150232
-0.2158452 -0.034794111 -0.019667309
0.20082176 -0.03745807 -0.018134892
-0.29926041 -0.021041326 -0.01809353
-0.23921059 -0.026613167 -0.016740398
-0.21223816 -0.02165555 -0.019585174
-0.35810679 -0.01716138 -0.010064945
-0.34020355 -0.01735379 -0.015511852
-0.27366304 -0.019642176 -0.01361755
-0.2679455 -0.014984944 -0.01235021
-0.2511971 -0.018953854 -0.017889654
0.28919631 -0.010692745 -0.014902877
-0.26361603 -0.0074724639 -0.010514388
-0.25357234 -0.009349932 -0.017678984
-0.24524641 -0.0066497265 -0.014788939
-0.22521473 -0.002660543 -0.013138857
-0.21979727 -0.007363548 -0.015295331
-0.20313898 -0.0036734482 -0.01633675
-0.16465509 -0.0013227088 -0.012889635
-0.16100675 0.0058677052 -0.01387067
-0.12815769 0.00048421643 -0.016277211
0.23756513 0.0053840159 -0.015577251
0.27298462 0.0072711343 -0.018794227
0.36623573 0.0017284517 -0.011036379
-0.095944814 0.016540766 -0.011238596
-0.053844124 0.014439976 -0.018345563
-0.048739828 0.019900287 -0.017970612
-0.0063024554 0.019128807 -0.010733156
0.0027684527 0.017684212 -0.019049753
0.031355161 0.019998893 -0.018188264
0.065570951 0.019861473 -0.01969301
-0.049104422 0.024024744 -0.01136442
-0.015388585 0.02211019 -0.016877076
0.16107249 0.02113089 -0.010828998
0.19811857 0.025283875 -0.014994
0.28486103 0.021156663 -0.017338425
0.29269665 0.024548529 -0.018887047
0.025149677 0.034936812 -0.012919431
0.042600438 0.033585928 -0.019142361
0.070606142 0.036293089 -0.010044248
0.097691447 0.03802241 -0.015576414
0.15125734 0.030302696 -0.013805032
0.19968328 0.033567995 -0.010758554
0.2168953 0.030936569 -0.019552372
0.23017362 0.054624993 -0.01315229
-0.034952726 -0.087938793 -0.0035603789
0.16648492 -0.087523431 -0.0057593547
0.19732182 -0.089106321 -0.0052332077
-0.27138555 -0.072512731 -0.0012201322
0.19336568 -0.075548455 -0.0062969187
-0.33160099 -0.068896711 -0.0046633342
-0.089683071 -0.061978549 -0.00042127151
0.19559325 -0.068933465 -0.0092196409
-0.31196487 -0.058170922 -0.0084974421
-0.09281379 -0.05290287 -0.0096910503
-0.085091904 -0.053756855 -0.0047133756
-0.055884816 -0.059618473 -0.0053565884
-0.048359398 -0.059705008 -0.0026686529
-0.036110461 -0.053857964 -0.0086794011
-0.015748456 -0.057137296 -0.0058431495
-0.00092137244 -0.055168279 -0.0074337106
0.028793607 -0.054022446 -0.0096677616
0.040672675 -0.054011833 -0.0047016088
0.105055 -0.051005371 -0.00057888281
-0.29811373 -0.045173515 -0.0060645482
-0.254208 -0.048650756 -0.00011467771
0.16504434 -0.046146385 -0.0061283978
0.18206432 -0.044324022 -0.0092886435
0.22191691 -0.025990061 -0.0030816272
0.27937344 -0.022576544 -0.0028372239
0.29137024 -0.021863734 -0.0069990773
0.36904925 -0.021280576 -0.0082842764
-0.31387082 -0.010263415 -0.0050219144
-0.29865858 -0.010255734 -0.0067325886
-0.22645484 -0.010780434 -0.0027856263
-0.32775661 -0.0069045671 -0.006137609
-0.30533671 -0.00030327018 -0.0053749145
-0.22671819 -0.0058292123 -0.0059296358
-0.21692219 -0.0041021612 -0.0098812319
0.33648562 -0.0045175646 -0.0083394358
0.3676194 -0.005373409 -6.610807e-05
-0.35262406 0.0092010954 -0.00087347225
-0.28815451 0.0031757862 -0.0051634796
-0.27227664 0.0028679057 -0.0059865853
-0.26697779 0.0083042495 -0.0056939153
-0.23223931 0.0053238878 -0.0035314341
0.2224375 0.0027148637 -0.0071315332
-0.24537748 0.017763248 -0.0014423567
-0.11908671 0.013759219 -0.0090940101
-0.06273596 0.016436422 -0.0072328988
-0.047417149 0.018506311 -0.004093816
0.32383323 0.016856918 -0.0063896081
-0.29940927 0.027617628 -0.0045212372
0.0082105398 0.028322587 -0.0041198623
0.018276338 0.022589521 -0.00041022259
0.073633 0.024070114 -0.0074132788
0.22103846 0.026277542 -0.006755149
0.29385805 0.022831012 -0.0044122273
-0.33338416 0.032473754 -0.0034221173
-0.32465774 0.030797902 -0.0037334035
-0.28334299 0.030215656 -0.0027940506
-0.27832812 0.031557851 -0.0017752274
0.0054707834 0.034693614 -0.0032867766
0.022211527 0.037664361 -0.0017085009
0.14975017 0.032069061 -0.0076041929
0.22020276 0.036474481 -0.0031371948
0.28978649 0.03961556 -0.0080813356
-0.33257374 0.043532394 -0.0035615412
0.044936627 0.040361524 -0.006346758
0.1244783 0.049025334 -0.0025771544
-0.37658119 0.058057837 -0.00076127623
0.19840775 0.052147862 -0.0085761761
0.22845754 0.058924165 -0.0012307151
-0.36415809 0.06543228 -0.0025167782
-0.34682804 0.066892982 -0.0032608474
-0.34680131 0.075595945 -0.0031748884
-0.3555114 0.080540761 -0.0030700008
-0.39101097 0.098073281 -0.0013432563
-0.35890719 0.095390327 -0.0017905359
-0.035594821 -0.085115477 0.005367252
-0.27104729 -0.063498691 0.0071495422
-0.060072415 -0.060631838 0.00062019628
-0.19130543 -0.050070882 0.0072070048
-0.18339545 -0.050684765 0.0051628556
-0.15956216 -0.059288919 0.0080953892
-0.1394923 -0.05256962 0.0040739574
-0.034832999 -0.058094375 0.0058954204
0.086702324 -0.051349606 0.0082667908
-0.30856699 -0.045735151 0.0086210426
-0.033728797 -0.048108801 0.0016053572
0.10466988 -0.049033459 0.0098238224
0.13895315 -0.045900982 0.0056315898
0.14655444 -0.044815563 0.0057154996
0.21319652 -0.044824086 0.0063477876
-0.33190882 -0.037943732 0.006235363
-0.30835125 -0.031910244 0.0093116257
0.33193472 -0.032521963 0.0023519571
0.34037846 -0.030786622 0.0035783891
-0.32122323 -0.028623588 0.0076570753
0.26836112 -0.023230707 0.0057458803
0.37280178 -0.022228476 0.0017760117
-0.30556321 -0.010823954 0.006943197
-0.24031879 -0.01514837 0.0067585446
-0.23786733 -0.014791291 0.0073760911
0.22791423 -0.018910209 0.00020597188
0.2954281 -0.01995201 0.0033474523
-0.30599129 -0.0088013215 0.0031380362
-0.21735089 -0.0020490859 0.0081640976
-0.20873918 -0.0010306651 0.0088988664
0.26507735 -0.0049713701 0.0043297387
0.2945295 -0.0046041859 0.0045724167
0.3579134 -0.005690577 0.0020734698
-0.31414869 0.0065661832 0.0029620891
-0.29089811 0.0010907156 0.0046002422
-0.25125933 0.0055490187 0.0023853097
-0.19843151 0.0012376818 0.0075675193
-0.1618394 0.0078020026 0.0033577983
-0.12222862 0.0016607177 0.007773119
-0.081282206 0.0065886653 0.0032242537
-0.069595523 0.0080738608 0.0003895557
0.35741276 0.0054365136 0.0093821688
0.37634262 0.00092983892 0.0051833875
-0.26521933 0.01435044 0.0041965977
-0.17793809 0.010775428 0.00012628426
-0.13392007 0.01241694 0.0050776848
-0.1234851 0.013213625 0.0044369213
-0.051897708 0.017002521 0.0078707365
-0.0033315888 0.017730672 0.0011518062
0.010674649 0.019541053 0.0046767592
0.13117477 0.018038791 0.0021586635
0.33044624 0.013352527 0.007575551
0.0049617523 0.020728588 0.0042591756
0.043542877 0.022048078 0.0079669356
0.10431592 0.027893616 0.0022069109
0.12114906 0.029509291 0.0028850553
0.055492967 0.034869887 0.0065214094
0.12974387 0.031070139 0.0012994721
0.16639286 0.032865081 0.0036508637
0.049360014 0.040428184 0.0083970567
0.056950387 0.042288288 0.0043075439
0.1079006 0.045900788 0.0095741283
0.13433465 0.040309615 0.008126501
0.1637162 0.044342361 0.0093917754
-0.31898606 0.062210433 0.00051415019
-0.3811416 0.077853382 0.00044073077
-0.36222944 0.082916811 0.0019413885
-0.37680227 0.10400857 0.0015092777
-0.054053281 -0.079619639 0.016389236
-0.041514512 -0.068427697 0.017390409
-0.13998145 -0.051660884 0.010066902
-0.11527424 -0.055583052 0.012336893
-0.04578058 -0.053811591 0.015465764
-0.017014034 -0.054773483 0.015470199
0.04543303 -0.050160646 0.016829092
0.1636388 -0.059133101 0.015153147
-0.29275745 -0.045344401 0.010624662
-0.28149578 -0.047705419 0.011578237
-0.26685226 -0.040889267 0.013202891
-0.2266798 -0.045748249 0.016814101
-0.2058531 -0.048594996 0.013303299
0.097362556 -0.048815746 0.012924826
0.14117581 -0.041329686 0.019955527
0.18132983 -0.041283295 0.017912202
0.27073646 -0.04305166 0.011643331
-0.25892451 -0.030790407 0.014446629
-0.24534029 -0.038814291 0.019004405
0.11837938 -0.037661914 0.01671977
0.23920035 -0.038873009 0.012194327
0.25104672 -0.035295047 0.014892643
0.31174517 -0.030347841 0.013501192
-0.30952415 -0.020271892 0.014237188
-0.27876201 -0.024700431 0.012217944
-0.26736495 -0.023698106 0.014596002
0.255739 -0.02398056 0.011954917
0.28426474 -0.029092077 0.018160015
0.32606095 -0.026498033 0.016422302
0.33103308 -0.025754392 0.016703898
-0.33997858 -0.016972091 0.011590527
-0.30760133 -0.01997607 0.013079714
-0.2875061 -0.013947204 0.012910631
-0.27240956 -0.012845018 0.011183815
-0.25709227 -0.015853703 0.013234007
-0.20056698 -0.010274348 0.018483257
-0.21817037 -0.0061759292 0.014946627
-0.18514727 -0.0027540615 0.01361306
0.23538318 -0.0094613573 0.016542487
0.37473342 -0.0037241944 0.011462185
-0.15248199 0.0048518567 0.014674213
-0.13520703 0.0062816213 0.017009817
0.23584065 0.008326605 0.013488786
0.24162292 0.0069363629 0.016496453
0.36177531 0.0033267392 0.010055328
-0.090900056 0.010824347 0.018671732
-0.055079538 0.015622452 0.012848427
-0.031700805 0.019796031 0.014868404
0.13503358 0.017553909 0.012134836
0.23262748 0.013377123 0.01346061
0.27881217 0.013428259 0.015443055
0.002379389 0.028263502 0.016345359
0.086570241 0.022414481 0.011505661
0.11382516 0.027611667 0.015389097
0.1880893 0.02702073 0.017490819
0.21408409 0.023941701 0.016556004
0.2571511 0.020258799 0.016038941
0.29846978 0.029897988 0.012751149
0.0046252399 0.031301524 0.012287342
0.026616171 0.035198987 0.011657951
0.045835555 0.036039766 0.014988912
0.051763527 0.032979939 0.013592244
0.14508346 0.030218538 0.018233966
0.17360209 0.031028926 0.011096121
0.28463665 0.032578558 0.014428047
0.27420592 0.043196484 0.018022275
-0.099564426 -0.050260991 0.028575655
-0.080240279 -0.050506856 0.028629506
-0.011101877 -0.051239476 0.020261085
0.055511601 -0.051010825 0.022266118
-0.22738421 -0.040522598 0.021118835
-0.17408335 -0.047362216 0.024154067
-0.1463621 -0.041716725 0.026243703
-0.086194694 -0.047379151 0.028571501
-0.064668305 -0.046925984 0.029284539
0.062661625 -0.046592634 0.020659123
0.12896422 -0.046126805 0.029144172
0.18280162 -0.043054365 0.025696237
-0.23442027 -0.034834225 0.023253214
0.088416226 -0.037658118 0.028933249
0.13606048 -0.038222034 0.024299648
0.19695956 -0.032098949 0.023324598
-0.33676401 -0.020329833 0.023346152
-0.3261461 -0.023976926 0.02746924
-0.27861363 -0.024424035 0.026838986
-0.14279445 -0.021061709 0.028400285
0.11757679 -0.02415229 0.027755108
0.24251199 -0.02190634 0.025108535
-0.29424691 -0.015816607 0.02371227
-0.23312932 -0.017324304 0.02666308
0.11685567 -0.012014023 0.025846561
0.2158224 -0.015277022 0.028830102
0.28665465 -0.014409074 0.025658101
0.33495525 -0.018446714 0.022271182
-0.14125697 -0.0048315707 0.021430798
-0.13965441 -0.0037834917 0.024117012
-0.1198269 -0.0048742541 0.027964897
-0.09550596 -0.00032911636 0.022615308
0.22220396 -0.0029580409 0.02970567
0.26561224 -0.0052482556 0.027790165
-0.13966566 0.0013742244 0.021210644
-0.12975058 0.0023221816 0.022059586
-0.10592197 0.00073425233 0.026642431
-0.068400837 0.0054038065 0.029291999
-0.039968207 0.0099517582 0.021129705
0.0014216509 0.0074557895 0.029232718
0.17958529 0.008191797 0.029944938
-0.038160529 0.016848177 0.025181146
-0.027457146 0.014982933 0.024851877
0.0021155439 0.010394208 0.02710899
0.045914084 0.014444138 0.024929587
0.13625647 0.014487475 0.027309632
0.15271787 0.011496546 0.028755825
0.20449789 0.014625954 0.02435023
0.25977832 0.018727258 0.021165866
0.030303156 0.027814692 0.020595491
0.044326007 0.029286036 0.027305482
0.063589744 0.02318855 0.024524279
0.090306066 0.021434108 0.023768418
0.13068731 0.029508714 0.025578069
0.17440924 0.020973306 0.024513625
0.18158317 0.027956001 0.026617114
0.045074213 0.030276788 0.020568796
0.14773971 0.034918986 0.024512693
0.26375785 0.032617792 0.02478547
0.27027628 0.041855179 0.021346062
0.01148111 -0.052027032 0.031305462
0.082672276 -0.053727772 0.039964408
0.091154411 -0.05143844 0.039248869
-0.16169667 -0.043647382 0.033213109
-0.092660114 -0.049315527 0.034428507
-0.028415265 -0.049624309 0.038032606
0.067407072 -0.047887109 0.038593002
0.14932582 -0.047961164 0.038598768
-0.11219111 -0.033253662 0.032014698
0.020372005 -0.039676528 0.030754359
0.074716285 -0.034213714 0.032248989
0.099476412 -0.03147405 0.032006875
-0.28494495 -0.025695065 0.030590022
-0.047888719 -0.024392871 0.038236983
0.05562035 -0.023301821 0.037244923
0.060757414 -0.023405628 0.03716471
0.10199366 -0.02423037 0.035195962
-0.28028217 -0.018675663 0.038210735
-0.16627221 -0.010688045 0.038132962
0.010056745 -0.018750217 0.038668431
0.1346058 -0.012742388 0.035037704
0.17473488 -0.019505316 0.031103078
-0.1349833 -0.0020102425 0.033717372
-0.028176818 -0.0024328341 0.034614533
-0.012227217 -0.0056674015 0.036391839
0.15087877 0.008710607 0.030440254
0.16910394 0.0069280243 0.030920163
-0.057589743 0.012561543 0.037834011
-0.0092861373 0.016010283 0.030458216
0.0076126978 0.016113967 0.033493742
-0.0079009626 0.020835832 0.030576168
0.04269265 0.02690213 0.038432401
0.096585639 0.021843219 0.032272421
0.10787803 0.031616975 0.039603308
0.12321957 0.031738535 0.037360646
0.070755467 -0.064528078 0.04737895
0.1131841 -0.061555892 0.046494197
-0.013213133 -0.057456575 0.042649876
0.050157774 -0.056136172 0.040618896
-0.13328952 -0.042692278 0.041661169
-0.063879892 -0.044473652 0.049154684
-0.036660753 -0.048916474 0.04106966
0.043544248 -0.048317753 0.043325514
0.094654143 -0.04549028 0.04407116
0.17286557 -0.036831319 0.044977225
-0.34212089 -0.027169039 0.043646768
-0.1627207 -0.024214635 0.042478643
0.11771032 -0.026399847 0.044205062
-0.16177021 -0.018767262 0.043123372
-0.1427552 -0.014001926 0.045155384
0.11708879 -0.015938031 0.048894815
-0.095659941 -0.00037062564 0.043633517
-0.069873191 0.0035533037 0.044254109
0.0095452275 0.011236669 0.049890071
0.14895149 0.015377965 0.044402521
0.070824921 0.028663103 0.048190303
0.083798975 0.021269724 0.045545671
0.1312743 0.025795866 0.041402373
0.14277682 0.028446034 0.045869805
0.17681912 0.026568146 0.046373475
0.0093252221 -0.046223514 0.055869844
0.11815134 -0.045892704 0.052640341
-0.33830291 -0.032909222 0.055621047
-0.32768619 -0.034959771 0.059664946
-0.11693876 -0.036384448 0.050017007
-0.076067999 -0.034576967 0.056166373
-0.065552369 -0.035433367 0.056750454
-0.055297911 -0.033589181 0.058817208
-0.048210397 -0.03403962 0.053950142
0.15443729 -0.031193186 0.051319383
0.16002792 -0.039036095 0.057890654
0.18568751 -0.034929793 0.055454805
-0.33875579 -0.029947372 0.054202475
-0.29444641 -0.026662027 0.059734959
-0.090124592 -0.029658623 0.05650124
-0.078007206 -0.020181086 0.058675461
0.12294811 -0.027166013 0.052960142
0.18351433 -0.022480261 0.057566911
-0.058546506 0.0097499909 0.05385242
-0.036334187 0.009720983 0.058211051
-0.022095893 0.0091957748 0.059656031
-0.016616343 0.0030469936 0.056985311
-0.0051725465 0.016553646 0.056444451
0.015770789 0.014503865 0.053297952
0.033424743 0.01606543 0.052536134
0.058325976 0.018222589 0.052946806
0.076133952 0.015150691 0.052626256
0.089993969 0.01926795 0.057838731
-0.34628719 -0.035076704 0.068837687
-0.011108815 -0.03484042 0.063181043
0.041934654 -0.034851469 0.06677483
0.072080523 -0.0300487 0.069186985
-0.033735178 -0.025095887 0.063606724
0.086217612 -0.025808003 0.069412872
0.19156978 -0.023802228 0.062226765
-0.062057149 -0.016964357 0.060848847
-0.014816092 -0.0051164571 0.063959047
-0.0021140072 -0.0064263837 0.069046512
0.13300474 -0.0031870243 0.067968428
0.18896721 -0.0060728863 0.060722373
-0.048044555 0.0077025509 0.067267582
-0.011901788 0.00071629195 0.061141804
0.038787819 0.0091999741 0.062256031
0.040906087 0.0085372198 0.067642823
0.091244265 0.0092664659 0.068029612
0.013879586 0.017932799 0.063947432
0.02633816 0.019197086 0.066235952
0.068449385 0.011873675 0.067116924
0.076662943 0.013947617 0.06439852
0.11616214 0.013809698 0.06658186
0.13191053 0.014774366 0.06780006
0.17571601 0.017460383 0.063339546
-0.35221577 -0.0378967 0.07624191
-0.31614152 -0.033672955 0.075160712
-0.29554197 -0.031397924 0.074044466
-0.038303375 -0.038624793 0.070387699
0.0049261842 -0.027919346 0.071038753
0.033946633 -0.028893169 0.07004936
0.070509635 -0.02324399 0.072767802
0.15380344 -0.021052292 0.07446456
-0.061517075 -0.011858784 0.07855811
-0.056828912 -0.017289609 0.071261697
-0.027471827 -0.01248293 0.074144036
0.0056188768 -0.016711637 0.071850315
0.06840492 -0.014133374 0.073432691
0.10165048 -0.01233147 0.071466573
0.12792 -0.011022468 0.075860351
-0.043326542 -0.0079684015 0.078820318
0.029091304 -0.0082560694 0.072793499
0.030902907 -0.0070891934 0.072957776
0.059077248 -0.0019374671 0.072322957
0.062107492 -0.0077834856 0.073834464
0.087503292 -0.009689413 0.074382685
0.12684532 -0.0069993977 0.076110706
0.15912989 -0.009186266 0.075611532
0.055202395 0.0079328455 0.076670356
0.085265219 0.0027825262 0.078300342
0.13389985 0.0014584893 0.072391838
-0.026759507 0.010500698 0.07550925
0.065293618 0.01021705 0.075744256
0.079119302 0.017807549 0.076209962
0.14404809 0.010959356 0.0721284
0.057336062 -0.026295561 0.080840498
0.082291871 -0.025572959 0.08667253
-0.021824762 0.0097994041 0.081087902
0.016790424 0.0039017997 0.084251814
0.063109905 0.0082408637 0.088314444
0.012273993 0.014398815 0.08039175
0.10047519 -0.016648028 0.096222818
-0.0025035304 -0.00045037101 0.099959053
0.11899639 -0.0033538288 0.091560945
-0.032687161 0.0059451801 0.092520893
0.045054041 0.0035004171 0.095425665
-0.35580552 -0.045982029 0.10210395
-0.064509146 -0.002277208 0.10858516
-0.057152215 -0.0017231628 0.10538302
-0.014108757 0.0051328228 0.10738154
0.017699892 0.0094117345 0.10785418
-0.32877055 -0.051215213 0.1120986
-0.064773083 -0.054647122 0.1191664
0.02100976 -0.049906727 0.11404008
-0.062100474 -0.0036867904 0.11994494
0.040439017 0.0096603725 0.11555556
0.051296677 0.011570999 0.11011869
-0.082230806 -0.053939451 0.12768757
0.010524075 -0.056519091 0.12308581
0.039076976 -0.054290608 0.12735465
-0.086986609 -0.043480426 0.12855756
-0.015130102 -0.028939612 0.12736772
0.015109285 -0.025647167 0.12501445
0.031754207 -0.023622373 0.12982659
0.041325495 -0.02822707 0.12659363
-0.063812166 -0.0065460545 0.1257669
-0.035503004 -0.007438093 0.12284774
-0.023777682 -0.00063655881 0.12863235
-0.015084457 -0.0055042999 0.12851524
-0.0055028358 -0.0070148711 0.12780218
0.025253935 0.006321663 0.12563168
-0.062100019 -0.040043656 0.13664156
-0.065148704 -0.037197076 0.13252124
-0.018543309 -0.035744589 0.13888365
-0.059839029 -0.0074868184 0.13851157
-0.0039816084 -0.0092526339 0.13772397
-0.053113401 -0.010611897 0.14082164
-0.039726492 -0.01319026 0.14911516
0.00085608009 -0.011321999 0.14747447
-0.041424941 -0.096525893 0.15772878
-0.038905874 -0.089984223 0.155728
-0.011924261 -0.018840773 0.1546459
-0.025217805 -0.0060770223 0.15385029
-0.030849095 -0.095829725 0.16543576
-0.044101235 -0.080581501 0.16222395
-0.05689868 -0.017453393 0.16739853
-0.047094736 -0.017528627 0.16837105
-0.035358936 -0.017181825 0.16663046
0.01454586 -0.018476941 0.16093954
-0.070934422 -0.019185401 0.17568874
-0.055235758 -0.019612087 0.1753915
-0.036286112 -0.011921799 0.17468397
-0.011425458 -0.018247001 0.17568099
-0.0065151965 -0.017406203 0.177544
0.0033946848 -0.015256052 0.1771723
-0.056835406 -0.056308873 0.18934494
-0.024204809 -0.050109193 0.18204305
-0.055981502 -0.047986537 0.1831221
-0.073227353 -0.018055392 0.18034673
-0.034414113 -0.013720329 0.1846301
-0.0067751948 -0.018043101 0.18234061
-0.082722291 -0.052122604 0.19025527
-0.072306216 -0.054244027 0.19145223
-0.047698535 -0.053610209 0.19707361
-0.020254057 -0.051965386 0.19707513
-0.018664848 -0.053091958 0.19921272
-0.051068746 -0.024566296 0.19610722
-0.026468216 -0.015432339 0.19830841
-0.054714713 -0.064617552 0.20864496
-0.058998451 -0.057287272 0.2023195
0.011519716 -0.052994728 0.2012701
-0.061515015 -0.043677106 0.20485309
-0.057845712 -0.044329718 0.2048353
-0.041767325 -0.045982931 0.20200901
-0.029092345 -0.034090851 0.20331371
-0.085552275 -0.025597379 0.20179313
-0.067955948 -0.023461293 0.20926973
-0.047384817 -0.027229607 0.20114443
-0.026249131 -0.024734488 0.20298886
-0.080062985 -0.053593837 0.21535388
0.0052083666 -0.052885957 0.21442538
0.022905122 -0.050343055 0.21749321
-0.075878918 -0.049221724 0.21888083
-0.077644475 -0.029501591 0.21566069
-0.064950459 -0.024314325 0.21534181
-0.053618342 -0.022860013 0.21592072
-0.070044085 -0.032854885 0.22896209
-0.049895346 -0.032347102 0.22976846
-0.066420771 -0.026179198 0.22321476
-0.044404969 -0.032325163 0.23315313
-0.056743324 -0.027968183 0.23808125
-0.12402304 -0.066312321 0.24455008
-0.10605127 -0.061104108 0.24397784
-0.051287159 -0.061219677 0.24286473
-0.10180767 -0.059751786 0.24245439
-0.057402931 -0.057134852 0.24910474
-0.046113923 -0.052231543 0.24958712
-0.0077556097 -0.053657703 0.24206658
-0.094029985 -0.047370572 0.24666274
-0.074284449 -0.045217298 0.24506736
-0.047037028 -0.047968924 0.2496542
-0.02691463 -0.04714267 0.24608105
-0.10817668 -0.03701834 0.24787576
-0.046732463 -0.035360757 0.2488912
-0.12202376 -0.072334006 0.254399
-0.11252069 -0.070390783 0.25242406
-0.12167551 -0.063305482 0.25049287
-0.11167585 -0.062750056 0.2505295
-0.055482231 -0.060663015 0.2511628
-0.12214692 -0.053520855 0.25885656
-0.074539885 -0.059367198 0.2501201
-0.064804055 -0.039723631 0.25889933
-0.096733466 -0.042540938 0.26742646
-0.079513825 -0.037276961 0.26747519
-0.11786816 -0.045027174 0.27944317
-0.083071463 -0.042948101 0.27024633
