# .PCD v0.7 - Point Cloud Data file format
VERSION 0.7
FIELDS x y z
SIZE 4 4 4
TYPE F F F
COUNT 1 1 1
WIDTH 788
HEIGHT 1
VIEWPOINT 0 0 0 1 0 0 0
POINTS 788
DATA ascii
-0.14875376 -0.033210993 -0.28292635
-0.13144663 -0.033392616 -0.28304258
-0.13747466 -0.029976198 -0.28726551
-0.14976466 -0.031781174 -0.27621555
-0.12979472 -0.033717945 -0.27739334
-0.14412487 -0.033855103 -0.26965216
-0.12610424 -0.03079108 -0.26510578
-0.14182325 -0.034090873 -0.25295383
-0.13334028 -0.032005358 -0.25247413
-0.11333396 -0.031492326 -0.25055984
-0.1322121 -0.033434235 -0.23774929
-0.12992135 -0.033627033 -0.23254701
-0.10339835 -0.033901826 -0.2374357
-0.11649922 -0.032617487 -0.2263023
-0.10961461 -0.032451622 -0.22266766
-0.12013294 -0.03682971 -0.21658033
-0.10673592 -0.035064645 -0.21462178
-0.096183009 -0.032672741 -0.21773444
-0.09271016 -0.038149238 -0.20043999
-0.082091488 -0.034704015 -0.20770451
-0.11917786 -0.036790997 -0.19683015
-0.078596391 -0.038583219 -0.19290538
-0.0971772 -0.034642942 -0.18040623
-0.081335559 -0.036428344 -0.18417522
-0.10894661 -0.036384571 -0.17964187
-0.074585497 -0.039441429 -0.17800006
-0.096203715 -0.039730445 -0.16776094
-0.080335073 -0.034376927 -0.1690962
-0.07788004 -0.034420606 -0.16711812
-0.090061285 -0.040535308 -0.15194467
-0.085646778 -0.046031591 -0.15209566
-0.078010239 -0.035193123 -0.15355116
-0.052054372 -0.03627257 -0.15205377
-0.082274981 -0.045736838 -0.1496537
-0.093760349 -0.038296819 -0.14211938
-0.087027162 -0.036790304 -0.14554869
-0.064755842 -0.041796647 -0.13709643
-0.081911944 -0.037164021 -0.13524289
-0.064204291 -0.035599906 -0.13647184
-0.084783256 -0.041954115 -0.12262098
-0.076398313 -0.045398198 -0.12403581
-0.068323642 -0.044210888 -0.12418742
-0.062554747 -0.036128163 -0.12612855
-0.053012557 -0.036021534 -0.12328208
-0.075042412 -0.042404465 -0.11520439
-0.065372027 -0.042842396 -0.11807285
-0.039111983 -0.036593266 -0.11672407
-0.076126188 -0.042230502 -0.10281613
-0.055335164 -0.043711342 -0.10384445
-0.034630559 -0.043627467 -0.10530114
-0.04839211 -0.036769394 -0.10507637
-0.071733154 -0.043041252 -0.09637019
-0.056642886 -0.044319652 -0.09272562
-0.030171514 -0.043956734 -0.099529952
-0.068799317 -0.03898165 -0.099465534
-0.078141019 -0.042434316 -0.084000714
-0.060963497 -0.044659514 -0.081738465
-0.04284076 -0.044846803 -0.083631165
-0.039792418 -0.045027263 -0.080407701
-0.062109333 -0.038716655 -0.080505297
-0.046062611 -0.03717491 -0.083702564
-0.39114821 0.067101285 -0.086549804
-0.38391125 0.068850182 -0.08856944
-0.37847692 0.066547245 -0.084320307
-0.073495917 -0.044364676 -0.076754287
-0.068765447 -0.044189956 -0.075267471
-0.053687628 -0.046702445 -0.071316265
-0.048888255 -0.044562567 -0.071424894
-0.017388105 -0.0454989 -0.071982972
-0.036710288 -0.036937244 -0.075392514
-0.38202444 0.067544542 -0.072858863
-0.37644747 0.066470556 -0.072575003
-0.058091894 -0.045524202 -0.06599731
-0.035768058 -0.046163391 -0.060113907
-0.041302618 -0.037288152 -0.064698264
-0.03278213 -0.036946129 -0.065514527
-0.014898103 -0.037141934 -0.063483857
-0.22331321 -0.01226938 -0.060474008
-0.19896005 -0.012592909 -0.060602099
-0.17164181 -0.011829047 -0.060253989
-0.23620258 -0.0092644813 -0.061067972
-0.38328779 0.067011908 -0.064947024
-0.37452918 0.069434896 -0.065503478
-0.066811427 -0.040151507 -0.058575556
-0.057441998 -0.045858804 -0.059319392
-0.045072149 -0.04654631 -0.053274281
-0.032351092 -0.046258107 -0.058421962
0.0039052635 -0.046293601 -0.054719694
-0.020004487 -0.036916327 -0.053929105
-0.0054293559 -0.037410758 -0.050809026
0.0046857428 -0.039227031 -0.054265127
-0.1916538 -0.020372504 -0.051088706
-0.24776883 -0.014943345 -0.055104494
-0.23219675 -0.012522469 -0.059711874
-0.2230624 -0.01716917 -0.055927157
-0.21839163 -0.019604243 -0.052349884
-0.14687499 -0.014188835 -0.05399638
-0.28266907 -0.0025766124 -0.057874992
-0.2728906 -0.002183523 -0.056436826
-0.26507419 -0.0019981365 -0.058368012
-0.25941107 -0.0083936946 -0.058256015
-0.23882201 0.0058993357 -0.058922097
-0.18911341 0.0067764353 -0.058796953
-0.22715789 0.010432811 -0.054817684
-0.36973813 0.066404611 -0.05029545
-0.073975608 -0.044415146 -0.047095034
-0.035841171 -0.045883399 -0.046283964
0.007180647 -0.046992749 -0.045299664
0.015971664 -0.041445121 -0.041189939
-0.04155346 -0.037763108 -0.04444766
-0.031345982 -0.037163392 -0.045070611
-0.024088219 -0.036939338 -0.047586329
0.0050616376 -0.038458671 -0.045671597
-0.18961628 -0.0205894 -0.049592655
-0.26551723 -0.013466192 -0.044336494
-0.24374525 -0.017687201 -0.042012591
-0.22736286 -0.019258542 -0.0411576
-0.16387492 -0.016622107 -0.045795009
-0.16294195 -0.0059745628 -0.047978815
-0.15813491 -0.0071366392 -0.044813599
-0.27122256 0.0075166989 -0.04737027
-0.26706278 0.0079964818 -0.047088865
-0.16137648 0.007088271 -0.043800481
-0.24712284 0.011280538 -0.046528019
-0.35516495 0.066474617 -0.045493983
-0.051150031 -0.063303009 -0.036079071
-0.046312544 -0.061744828 -0.038769599
-0.061239175 -0.059839103 -0.038769599
-0.048573136 -0.058124438 -0.037663646
-0.024736589 -0.047646932 -0.033614568
-0.016244315 -0.047763258 -0.031536736
-0.051525 -0.039588355 -0.036966972
-0.042419635 -0.037956052 -0.039299019
-0.19269574 -0.016127542 -0.035129897
-0.18431157 -0.015486137 -0.0349597
-0.16043171 -0.013275079 -0.03485664
-0.27436331 -0.0018065667 -0.036404695
-0.2642622 -0.0034347319 -0.036699418
-0.25953493 -0.0079733357 -0.034684151
-0.18150719 -0.0071137813 -0.035789579
-0.16229682 -0.0057643722 -0.03496391
-0.26325515 0.0015166631 -0.037042581
-0.24979311 0.0091116885 -0.039244838
-0.23742436 0.0091564106 -0.037234455
-0.18677317 0.0055896277 -0.033413332
-0.16666396 0.0065398877 -0.034116149
-0.24383409 0.010020037 -0.039691132
-0.35676467 0.066206187 -0.035596769
-0.34240353 0.069904819 -0.033601917
-0.36992067 0.070107915 -0.038946982
-0.045446701 -0.060502928 -0.026571613
-0.074343666 -0.051524408 -0.020936213
-0.051794499 -0.050650522 -0.026108785
-0.042356126 -0.058888018 -0.026842656
0.036635626 -0.052014764 -0.021412035
0.04744624 -0.052971609 -0.020134244
-0.10841703 -0.040052008 -0.023472304
-0.096210748 -0.043157049 -0.024376374
-0.07595513 -0.045161124 -0.023269072
-0.064723328 -0.046631478 -0.022235118
-0.0517761 -0.045572091 -0.025547169
-0.041974917 -0.044981059 -0.025424939
-0.033983335 -0.048198551 -0.023761436
-0.029637145 -0.047916003 -0.024621813
0.034516934 -0.047891416 -0.024633758
0.048717562 -0.041880164 -0.026075065
-0.18658954 -0.030897839 -0.022259422
-0.12875837 -0.039385311 -0.020767257
-0.10514418 -0.033352584 -0.023806376
-0.091573693 -0.031128921 -0.02491373
-0.064710811 -0.03386078 -0.025992015
-0.050836392 -0.039203875 -0.024783621
-0.045035735 -0.034486994 -0.026816335
-0.010900157 -0.034630451 -0.026075499
-0.0015993617 -0.030703099 -0.026075501
0.010097378 -0.030302264 -0.026075499
0.022393681 -0.037083086 -0.026075501
0.043149069 -0.031244058 -0.026075501
0.053422555 -0.038793188 -0.025883712
0.08604715 -0.032317784 -0.024259355
0.14323655 -0.032071188 -0.023404751
0.19205451 -0.032945007 -0.02302604
0.24322757 -0.034549471 -0.021728069
0.25002086 -0.033967197 -0.022061357
0.26659608 -0.035674654 -0.020474214
0.28949031 -0.032367438 -0.022397511
-0.21813089 -0.028752372 -0.021096706
-0.17417321 -0.026273685 -0.02465778
-0.13870603 -0.027298985 -0.025381373
-0.11371123 -0.02850694 -0.024880894
-0.09578564 -0.020273974 -0.026539154
-0.076122351 -0.024035186 -0.026043806
-0.041810527 -0.023459386 -0.026119526
-0.039436653 -0.025520058 -0.026075499
-0.019994367 -0.023054112 -0.026172915
0.050250292 -0.027888376 -0.026012765
0.10790851 -0.028779585 -0.024767922
0.11891195 -0.029781267 -0.024353134
0.1235101 -0.024430783 -0.025991837
0.16254105 -0.028335309 -0.024952102
0.19058147 -0.024577942 -0.025972459
0.20815375 -0.027712505 -0.025210103
0.26491445 -0.024337174 -0.025232099
0.27651232 -0.022279147 -0.025154419
0.28020653 -0.027635558 -0.024379861
0.32045126 -0.024027232 -0.022403659
-0.25154558 -0.011985234 -0.021473285
-0.20180036 -0.017333165 -0.025036326
-0.19751412 -0.018504824 -0.02520757
-0.18868273 -0.013007619 -0.024764774
-0.16954145 -0.01502113 -0.025464581
-0.13089696 -0.011201199 -0.025106136
-0.11186968 -0.010826557 -0.024950948
-0.10354487 -0.019624665 -0.026624691
-0.095259063 -0.019102467 -0.026567057
-0.073024631 -0.017290367 -0.026328526
-0.030840507 -0.01116294 -0.025090287
-0.017142395 -0.013674358 -0.025852382
0.012095381 -0.015941422 -0.026150793
0.045755219 -0.01085997 -0.024964869
0.083285891 -0.018675134 -0.026480906
0.10119342 -0.016989466 -0.026288889
0.12610027 -0.018832875 -0.026531514
0.15231048 -0.019142671 -0.026572362
0.17902644 -0.013403965 -0.025816832
0.19363198 -0.015216046 -0.026055405
0.22037187 -0.013920614 -0.025884798
0.23382705 -0.015827475 -0.026135713
0.26419181 -0.017660052 -0.02539927
0.29224455 -0.01725298 -0.024144262
-0.25439522 -0.0044985539 -0.020370891
-0.23950163 -0.0071483529 -0.022099305
-0.22140279 -0.0026772211 -0.022527985
-0.21194452 -0.0077942139 -0.020982716
-0.18942071 -0.007502215 -0.027382517
-0.16581886 -0.0044161854 -0.021375218
-0.15700233 -0.0027334716 -0.020195248
-0.13860522 -0.009069236 -0.024223166
-0.071950503 -0.0066438098 -0.02321836
-0.014622782 -0.0079320045 -0.023751836
-0.0098846145 -0.002330991 -0.020041894
0.0067099389 -0.0028173802 -0.020415332
0.036095329 -0.0028823141 -0.020465234
0.068534322 -0.0087648798 -0.02409702
0.091474615 -0.008824503 -0.024121635
0.17100477 -0.0074100103 -0.023535743
0.1829419 -0.0070143533 -0.023025714
0.19298685 -0.0093192859 -0.024326589
0.23882645 -0.0052424413 -0.022276176
0.24084403 -0.0049700448 -0.02189468
0.25590134 -0.0056914724 -0.021034844
0.27677855 -0.008318685 -0.020987459
0.28829926 -0.0093025602 -0.020402053
-0.38149816 0.069248483 -0.028787017
-0.34852716 0.06613262 -0.021716492
-0.33868971 0.067294464 -0.026099768
-0.34825924 0.070416175 -0.026793106
-0.098032244 -0.052818455 -0.01368391
-0.074181288 -0.053020716 -0.018706243
-0.023133483 -0.054954682 -0.014994742
-0.011119613 -0.055067264 -0.013654486
0.044873055 -0.053690985 -0.018893329
0.097191751 -0.051163204 -0.010809461
-0.17454596 -0.042086892 -0.010749856
-0.14473854 -0.041673683 -0.015805412
-0.13403596 -0.045210179 -0.01546705
-0.11570067 -0.048993755 -0.017270165
-0.060618162 -0.047227349 -0.018751457
0.016222607 -0.048525319 -0.017924443
0.10292795 -0.048849098 -0.017098203
0.12008618 -0.040612958 -0.019183692
0.14301172 -0.041893311 -0.014293944
0.16059104 -0.040580809 -0.016004412
0.18527432 -0.040951397 -0.015521493
0.24486253 -0.042547174 -0.013378615
0.25366667 -0.042028304 -0.013523309
0.31494546 -0.041693494 -0.014506817
0.33402252 -0.042320333 -0.011927926
0.35576379 -0.040139571 -0.012405844
-0.22589925 -0.030573212 -0.01876821
-0.1774404 -0.038870193 -0.015720325
-0.043107614 -0.038660593 -0.01642881
-0.0041205063 -0.036988605 -0.017999791
0.13319232 -0.038670141 -0.018494625
0.1604121 -0.037444457 -0.019573307
0.31402546 -0.037003543 -0.01971959
-0.29791516 -0.020505354 -0.013635735
-0.27035522 -0.020227598 -0.018455148
-0.26041511 -0.02406672 -0.018439768
-0.25489554 -0.025369326 -0.018716408
-0.24500743 -0.027568944 -0.018407978
0.35614854 -0.024780575 -0.015920896
-0.31091461 -0.016208872 -0.01307925
-0.28609174 -0.017103178 -0.017256204
-0.27056134 -0.014059218 -0.019725006
-0.2652353 -0.017756103 -0.019920148
0.32507062 -0.015453225 -0.01607985
0.339127 -0.015673311 -0.011560723
-0.32124603 -0.0060127382 -0.011700487
-0.31913993 -0.0044960543 -0.011430538
-0.24666016 -0.0060033584 -0.017397836
-0.23171577 -0.0025633462 -0.018573035
-0.22083588 -0.0030462015 -0.016449349
-0.014733139 -0.00030206036 -0.018244311
0.034806054 -0.0015494702 -0.019442275
0.15584928 -0.00049499946 -0.018495727
0.20985606 -0.0015367343 -0.019432565
0.26685032 -0.0019670434 -0.017491726
0.27288938 -0.0033816388 -0.017994247
0.28915989 -0.00019959625 -0.011059499
-0.2898902 0.00039631384 -0.012505928
-0.24509059 0.00053082837 -0.015746741
-0.19910263 0.00064536068 -0.016546335
-0.15996701 0.0033474676 -0.013357607
-0.14193119 0.0026366883 -0.014129708
-0.13654453 0.0032604386 -0.013601212
-0.12456383 0.0043336996 -0.011254634
-0.052618422 0.0031046637 -0.013804231
-0.015046526 0.0035787849 -0.013076847
0.017671632 0.00069740997 -0.016941601
0.055908069 0.0020261919 -0.015209829
0.068193145 0.0028928635 -0.014080267
0.096973769 0.0047396049 -0.010274819
0.10388818 0.0037157016 -0.012746374
0.12673959 0.0039960491 -0.012069705
0.14915976 0.0021773884 -0.015012829
0.24908142 0.0038305107 -0.01076287
0.25796831 0.0015424986 -0.01393878
-0.34476161 0.070715345 -0.014991288
0.29748857 -0.07215067 -0.0056222165
0.29551822 -0.063707002 -0.0044438699
-0.039501607 -0.055101797 -0.0065550734
-0.02413347 -0.055101804 -0.0012078618
0.026253588 -0.055101801 -0.004468814
0.068377361 -0.054003343 -0.0083056344
0.097444981 -0.051130369 -0.0074506048
0.29916859 -0.056063157 -0.00014504616
-0.21530007 -0.040638439 -0.006746666
-0.18203592 -0.042446975 -0.0088999597
-0.15167344 -0.045582432 -0.0019998471
-0.12924074 -0.047962733 -0.0073539978
0.11308851 -0.048401002 -0.0059264577
0.16570973 -0.045179434 -0.0068128491
0.18700683 -0.045712493 -0.0037982115
0.22089392 -0.045373589 -0.0063722483
0.24530822 -0.045093089 -0.0058770869
0.25289688 -0.045878038 -0.0025408461
-0.2539106 -0.035249215 -0.0063930289
-0.24515143 -0.035734072 -0.0082544386
0.39113253 -0.034512065 -0.0043662363
-0.30267504 -0.026536375 -0.002038379
-0.29940513 -0.024984954 -0.0086348644
-0.34381601 -0.016446555 -0.00094238034
-0.33708039 -0.017575126 -0.004696568
0.33379689 -0.012531172 -0.0034698048
-0.32355687 0.0023405936 -0.0019423291
-0.30788842 0.0048709251 -0.0048239348
-0.29860643 0.0025616221 -0.0049709929
-0.24359924 0.005055048 -0.0064966958
-0.2327919 0.003537653 -0.0073226034
-0.21076199 0.0026040138 -0.0040549221
-0.18779014 0.006422366 -0.0047520809
-0.16501191 0.0070451708 -2.1535796e-05
-0.12161151 0.0056992196 -0.0079581477
-0.069017291 0.0061728461 -0.0066469116
-0.032629348 0.0057044877 -0.0079452898
-0.028274782 0.0066896603 -0.002721386
-0.018191218 0.0064116833 -0.0048327949
-0.0084781125 0.0070236917 -0.0001842075
0.015454851 0.0068231192 -0.0017076813
0.032377094 0.0067725233 -0.0020919908
0.045348611 0.0065046991 -0.0041262847
0.059080295 0.0065534418 -0.0037560537
0.089514598 0.0064789513 -0.0043218522
0.095897362 0.007008953 -0.0002961565
0.11689529 0.0067400113 -0.0023389398
0.19966953 0.0068330853 -0.0016319829
0.20449407 0.0064613763 -0.0044553438
0.21535628 0.0050994651 -0.0094056558
0.2291422 0.0064311246 -0.0046851281
0.24562892 0.0064691631 -0.0010327364
0.25370273 0.005773556 -0.002070439
0.27309728 0.0043416442 -0.0027478447
-0.30459368 0.01775546 -0.0042888089
-0.27046582 0.017769836 -0.0046597579
-0.27552921 0.024187235 -0.003367757
-0.26638263 0.026264077 -0.00093905366
-0.30011001 0.03204599 -0.0040049958
-0.34360331 0.047789343 -0.0016456719
-0.35228404 0.053577811 -0.00079516188
-0.34406361 0.050344467 -0.0018474564
-0.33009553 0.055500742 -0.0029524784
-0.32402638 0.052278239 -0.0031094158
-0.30479407 0.053467475 -0.00035001314
-0.38255632 0.069474712 -0.0013886468
-0.36141744 0.065015323 -0.001433745
-0.35408652 0.066286877 -0.0060086288
-0.34590587 0.065270036 -0.0024824995
-0.33867812 0.0674363 -0.0014693912
-0.32525444 0.065094367 -0.0011499727
-0.36657742 0.070627339 -0.0070585203
-0.35184297 0.071015343 -0.0031660874
0.29319435 -0.06756451 0.0033752783
-0.091662645 -0.053501606 0.0033997009
-0.088245139 -0.053692453 0.00038954066
-0.076337203 -0.054357424 0.0067664925
-0.038447753 -0.055101801 0.0071072238
-0.020561401 -0.055101797 0.0092079472
-0.01252835 -0.055101797 0.0093655903
-0.0085436152 -0.055101801 0.0019983568
0.029857822 -0.055101801 0.0048296489
0.058420449 -0.054559369 0.007447822
0.29557326 -0.054733001 0.0050082807
-0.19128057 -0.043248147 0.0039930423
-0.17367677 -0.044049766 0.0048987009
-0.15479173 -0.04348477 0.0099610407
-0.13528948 -0.046531245 0.0016225444
0.13502504 -0.045753453 0.0034872962
0.14879426 -0.044388074 0.0091063771
0.15596889 -0.046051387 0.0012245501
0.16361928 -0.045800805 0.0031276478
0.17588988 -0.045757566 0.0034560584
0.20407429 -0.045491606 0.0054759597
0.24919674 -0.045558274 0.0049694492
0.27258396 -0.044983048 0.0074659744
0.30849928 -0.046014592 0.00061423209
0.32449931 -0.045465343 0.0019293434
0.33658946 -0.045097664 0.0014732216
0.36392772 -0.04323158 0.0024230259
-0.28319347 -0.030198121 0.0039332798
-0.25489706 -0.03617201 2.5335119e-05
-0.24342164 -0.035596836 0.0091846939
0.38504845 -0.038781218 0.002145729
-0.32525164 -0.020260219 0.0058522765
-0.31514135 -0.023087477 0.0047291932
-0.30221486 -0.026792403 0.00086493639
-0.29087776 -0.027279716 0.0077533596
-0.33107588 -0.019263949 0.0049723038
-0.32885087 -0.017056003 0.0084379138
0.33422178 -0.012724131 0.0035744442
-0.34381601 -0.0096583264 0.0028719015
-0.21935999 -0.0018822046 0.0056062699
-0.32391894 0.0033939558 0.0012770614
-0.29317278 0.0031503825 0.0054704691
-0.24316819 0.0062818541 0.0051985024
-0.2240935 0.0070464099 1.2048517e-05
-0.20327522 0.0067617428 0.0021757982
-0.16220418 0.0060037347 0.007141877
-0.090377621 0.0050771055 0.0094603244
-0.05547443 0.0066189254 0.0032588607
0.064733058 0.0068783024 0.0012888503
0.11133102 0.006009263 0.0068419166
0.13247439 0.0065616313 0.0036940195
0.1491888 0.0049965587 0.0096547864
0.15282716 0.0053320755 0.0088446606
0.16874003 0.0060547455 0.0070995484
0.26654735 0.0047240513 0.003287876
-0.30906144 0.017281942 0.0038084402
-0.2745946 0.015869267 0.0052793077
-0.26400614 0.015978914 0.0046581365
-0.25542164 0.011769303 0.0054666642
-0.23297736 0.013210553 0.0021548611
-0.31547198 0.024280462 0.0033733281
-0.32244298 0.049204707 0.0032682442
-0.31176686 0.041379653 0.0035598287
-0.30420893 0.044868048 0.0026250798
-0.35212895 0.051284298 0.00056198286
-0.32286909 0.059609998 0.0021558481
-0.31200424 0.055120405 0.0015911227
-0.30135545 0.050690554 0.00072937453
-0.34512606 0.067210384 0.0029513512
-0.38094819 0.070117757 0.00096864387
-0.35767993 0.0710181 0.0027349303
-0.33442971 0.071197823 0.0010830398
-0.029182754 -0.054831274 0.015198398
-0.012912028 -0.054715831 0.01576665
0.0054616267 -0.053458724 0.018950919
0.01921697 -0.053910762 0.018053461
0.077930972 -0.053294674 0.013837678
-0.17540225 -0.041801266 0.011327399
-0.12209009 -0.048572183 0.015401937
-0.053942662 -0.047897823 0.017092895
0.29504344 -0.043188635 0.012102871
0.31524169 -0.042249288 0.013573231
-0.24552259 -0.03133158 0.015246176
-0.21428454 -0.033495214 0.017796176
-0.16949001 -0.035333659 0.019883314
-0.049528215 -0.039213665 0.019869722
-0.013227642 -0.036983471 0.019425165
0.12741598 -0.037194923 0.019765001
0.13893281 -0.039003339 0.018060859
0.20448853 -0.037423335 0.01958986
0.35103011 -0.036111675 0.016729647
0.36589798 -0.034041341 0.014386663
-0.27538413 -0.024009537 0.015599448
0.35702989 -0.026517142 0.016492005
0.36095315 -0.02487969 0.014766037
-0.32882351 -0.01215975 0.010878667
-0.31866506 -0.014827914 0.012044678
-0.29614419 -0.012114555 0.016696952
0.34186697 -0.018905517 0.015448244
-0.32159063 -0.0036553461 0.010562837
-0.31073892 -0.0069500804 0.01387508
-0.28633296 -0.0014571224 0.014241283
-0.20413184 -0.0025746815 0.018681988
-0.19662878 -0.0027061759 0.017904993
0.038555823 -0.0010710524 0.019075593
0.24655691 -0.0021227882 0.019233931
-0.15652637 0.0041210428 0.011713218
-0.10025057 0.0047681434 0.010205787
-0.055969723 0.0020908986 0.014738549
-0.039213613 0.001351592 0.016089382
-0.0094864052 0.0046368483 0.010523097
0.0020181742 0.00090189511 0.016675467
0.025931532 0.0032728631 0.013429704
0.083925918 0.00055427669 0.017128512
0.097539477 0.00315991 0.013732602
0.11412051 0.0030948846 0.013817343
0.13938442 0.0042148149 0.011541883
0.1535212 0.0032553091 0.013285428
0.16830808 0.0022935255 0.014861706
0.21906823 0.0018474692 0.015443088
0.28694296 0.00011898918 0.011171437
-0.35569698 0.066201136 0.015866045
-0.34200993 0.066252977 0.017770892
-0.33591837 0.066768482 0.015846454
-0.34175211 0.070705622 0.015374259
-0.056130003 -0.066625871 0.028163791
-0.045506239 -0.063022159 0.026863877
-0.084029242 -0.05044502 0.020863403
-0.050292075 -0.05265839 0.026865812
-0.042170025 -0.058291111 0.027464883
-0.087343395 -0.049978174 0.021074418
-0.074238963 -0.045114528 0.026737679
-0.059403948 -0.040229477 0.026136944
-0.036127347 -0.048264112 0.022590753
-0.0053803246 -0.046636865 0.024438297
0.006416576 -0.041384816 0.025672201
0.011358121 -0.048402295 0.023983445
0.020012047 -0.048377521 0.020564945
-0.21271473 -0.031353716 0.020008819
-0.18247852 -0.031055622 0.022354394
-0.17058305 -0.034196191 0.020698499
-0.15507376 -0.032421824 0.022854574
-0.14436124 -0.03634645 0.02041618
-0.086637221 -0.035431273 0.024710866
-0.051203415 -0.039174497 0.026996266
-0.049879365 -0.038992457 0.02803191
-0.038393434 -0.038040832 0.023682155
-0.017734425 -0.038286567 0.025672197
0.0042738626 -0.037346873 0.026420493
0.011843048 -0.031522382 0.025672201
0.039473422 -0.036763892 0.025672197
0.059840627 -0.033280253 0.025219249
0.063192122 -0.031266294 0.025082897
0.19033693 -0.030143593 0.024203155
0.30860722 -0.031332757 0.022832097
0.31635797 -0.033705566 0.021626836
0.32153335 -0.031515297 0.02209324
-0.21596232 -0.028443085 0.021448275
-0.16745549 -0.022674801 0.025548657
-0.1155175 -0.023333853 0.026136512
-0.10048848 -0.028641373 0.024825361
-0.049119338 -0.020411413 0.02652115
-0.034885265 -0.028380333 0.025672197
0.028620254 -0.027756792 0.025672199
0.044073373 -0.020741202 0.026477743
0.063858762 -0.0289816 0.025055777
0.089518882 -0.025432108 0.025860351
0.10967731 -0.029509585 0.024465714
0.15586123 -0.023654824 0.026094267
0.18961191 -0.024316143 0.025989477
0.22040881 -0.027996339 0.02509254
0.24779996 -0.025546424 0.025587777
0.25382549 -0.026705127 0.024844354
0.2691642 -0.027647289 0.024554444
0.2997601 -0.024524175 0.024420025
0.30747414 -0.024829391 0.023909125
-0.2404505 -0.01194069 0.022134127
-0.16125187 -0.015923252 0.025771841
-0.11647511 -0.013363303 0.025811467
-0.090455383 -0.016335433 0.026202822
-0.070292659 -0.019429307 0.026610199
-0.062826492 -0.011765987 0.025340158
0.020379066 -0.019493341 0.026618624
0.030035902 -0.011194222 0.025103312
0.056089967 -0.015231015 0.025920603
0.088545829 -0.018519394 0.02649051
0.097801484 -0.01162151 0.025280287
0.12272914 -0.016819149 0.026266474
0.15759832 -0.015454246 0.026086766
0.18415624 -0.018064393 0.026430568
0.22594644 -0.019110724 0.026568294
-0.23497802 -0.0048928591 0.022648491
-0.21064855 -0.0077617755 0.021833602
-0.20770097 -0.0074671614 0.029831683
-0.18358609 -0.0086048776 0.022074077
-0.10310429 -0.0072263228 0.023459975
-0.06939736 -0.0044184104 0.021644145
0.047582529 -0.0053721215 0.022375867
0.076207839 -0.0062826015 0.023068938
0.090591773 -0.0095983297 0.024442419
0.10455616 -0.0048650941 0.021986857
0.11343195 -0.0029339211 0.020505009
0.125697 -0.0065383674 0.022716712
0.1305708 -0.0082392152 0.023879502
0.14588134 -0.0059897103 0.022520477
0.17307568 -0.0054508699 0.022373978
0.22966832 -0.0046531623 0.021824073
0.27148423 -0.0081789782 0.021380778
-0.37361082 0.067261741 0.027871745
-0.04643555 -0.068804607 0.031712674
-0.060869172 -0.054055076 0.032030523
-0.05329904 -0.054036573 0.033674799
-0.077618472 -0.042768802 0.038259342
-0.062872492 -0.040540539 0.031083385
-0.050442874 -0.047518484 0.031005276
-0.013559595 -0.047533631 0.035638765
-0.0094572324 -0.047424074 0.037595715
-0.012202741 -0.036944438 0.03006782
0.0086136684 -0.03818763 0.034815699
0.016496073 -0.039976891 0.036535688
-0.22521855 -0.018051779 0.038185973
-0.21965197 -0.010415246 0.031821311
-0.20141669 -0.018448683 0.037614822
-0.1962411 -0.012938591 0.032721654
-0.162949 -0.010898735 0.039965123
-0.15894648 -0.015962344 0.037908122
-0.28465816 -0.0034032129 0.034341976
-0.26318133 -0.0037312999 0.035596155
-0.25633126 -0.0036677786 0.035975099
-0.24921359 -0.0041268221 0.032029931
-0.2347438 -0.0037541117 0.031451769
-0.22137508 -0.0098512825 0.031622246
-0.21308178 -0.0056379447 0.030638462
-0.15646781 -0.0086573279 0.03596954
-0.14906481 -0.0014887293 0.034523524
-0.25208116 0.00042559957 0.032755122
-0.23446074 0.0073777251 0.035061046
-0.22077243 0.0085092103 0.035792731
-0.2159438 0.0048491852 0.032901116
-0.20295848 0.00082457252 0.031242291
-0.16016491 0.0034609307 0.039920487
-0.204604 0.010406467 0.038250234
-0.18830499 0.010763727 0.038728483
-0.35268599 0.070144705 0.037502326
-0.044870969 -0.067096435 0.04020125
-0.062446702 -0.056954026 0.04273437
-0.052864648 -0.052195799 0.045919005
-0.044212095 -0.053598218 0.044720355
-0.048403736 -0.049175061 0.045471035
-0.018906858 -0.046860982 0.047653709
-0.047615901 -0.038282104 0.043894023
-0.023798464 -0.036964078 0.045372132
0.0035906604 -0.038539723 0.049326524
-0.22243419 -0.020627158 0.046151385
-0.18403259 -0.020112544 0.042570766
-0.26207402 -0.013078014 0.04904335
-0.24370536 -0.017138828 0.040653862
-0.23272209 -0.019828515 0.047009423
-0.15865839 -0.014922937 0.047782198
-0.16215369 -0.0048185708 0.046105843
-0.27330244 0.0063639041 0.045648921
-0.26858953 0.0066125337 0.049028691
-0.25750503 0.0095291277 0.044224311
-0.16064422 0.0075336439 0.046509698
-0.21225083 0.012523882 0.043610636
-0.19509253 0.011587366 0.040660582
-0.17309004 0.012775769 0.045544837
-0.37276477 0.069951303 0.044941559
-0.36967713 0.0700792 0.040085584
-0.073091388 -0.041258715 0.056590639
-0.067231119 -0.0429129 0.055263482
-0.02237506 -0.046565536 0.05293094
-0.010053067 -0.046523366 0.053684182
-0.0042333738 -0.046401087 0.055868343
-0.022695282 -0.036902718 0.059579093
-0.27604857 -0.012161637 0.050621048
-0.26846865 -0.012072111 0.051238827
-0.21437158 -0.018484581 0.055001024
-0.28193074 -0.0041233697 0.059490789
-0.27008474 -0.0051223231 0.056366667
-0.25532931 -0.0023312033 0.058138713
-0.16249406 -0.0093374196 0.050110944
-0.1581125 -0.0018925661 0.050703686
-0.27092341 0.0044153999 0.052134279
-0.25340784 0.0016035364 0.059587665
-0.24733636 0.005959915 0.057880461
-0.16426271 0.005893195 0.05629319
-0.15588716 0.0074913725 0.057365771
-0.22131006 0.011951123 0.051663719
-0.18697971 0.011399331 0.052917738
-0.38970274 0.068502694 0.053078774
-0.37499666 0.069678262 0.055908635
-0.3662653 0.066377617 0.058743633
-0.066899642 -0.039916292 0.065484785
-0.050239634 -0.037967458 0.063454092
-0.27331981 -0.0030433121 0.0619822
-0.24406216 -0.0033682731 0.061637565
-0.23838532 -0.0089332266 0.061057203
-0.20967874 -0.0053150691 0.062505238
-0.15046711 -0.0064980146 0.060701393
-0.17753351 0.0018443804 0.06162161
-0.38764721 0.067613401 0.06288787
-0.074490301 -0.040957227 0.071650766
-0.012016161 -0.04546117 0.072657257
-0.0047897827 -0.040984124 0.076513402
-0.061162837 -0.038765699 0.075525261
-0.022611709 -0.036994506 0.073290952
-0.3921887 0.067696162 0.075492851
-0.37793818 0.067859679 0.073172346
-0.36802828 0.069256097 0.072557054
-0.075997368 -0.040682983 0.086451069
-0.067241453 -0.044121444 0.081777051
-0.050383821 -0.044507574 0.089690834
-0.032269549 -0.044777755 0.084864691
-0.016230082 -0.038333543 0.087525584
-0.3858926 0.06678012 0.081337318
-0.37376496 0.067338057 0.086204149
-0.078904018 -0.040931027 0.09531901
-0.06198702 -0.044002064 0.095400944
-0.057481911 -0.043975528 0.098975815
-0.037238915 -0.044168122 0.095754154
-0.013344117 -0.042612124 0.091002271
-0.073686384 -0.039972652 0.094328672
-0.031497739 -0.043592904 0.1059014
-0.042690888 -0.036719594 0.10432465
-0.072972283 -0.042646766 0.11369101
-0.063241765 -0.042799696 0.11967678
-0.055663314 -0.043034852 0.1155929
-0.044643309 -0.043237746 0.11206932
-0.067779243 -0.037340172 0.11570743
-0.072577707 -0.042279955 0.12782806
-0.064418778 -0.042526469 0.12442182
-0.059866454 -0.044601869 0.1200908
-0.034193128 -0.041356161 0.12585691
-0.077865399 -0.037552744 0.12620334
-0.065467812 -0.036482655 0.12350728
-0.038552001 -0.036885608 0.12336249
-0.092082508 -0.040252328 0.13921784
-0.065994769 -0.041773245 0.13750288
-0.085326582 -0.03790985 0.13311389
-0.073556237 -0.036455363 0.13264698
-0.063568264 -0.035475124 0.13874212
-0.039425336 -0.039963048 0.13575926
-0.058793135 -0.041410394 0.14380443
-0.0819318 -0.036252566 0.1445384
-0.061338484 -0.035168521 0.14785039
-0.053326305 -0.035686441 0.14581667
-0.08808434 -0.048782937 0.15253747
-0.096392795 -0.036995579 0.15654227
-0.086881742 -0.035456687 0.15926205
-0.073650435 -0.034749102 0.15837018
-0.061498038 -0.035048828 0.15465719
-0.052364502 -0.039791666 0.1568813
-0.091530591 -0.040078759 0.16543794
-0.080656052 -0.040214755 0.16456871
-0.070508264 -0.04001607 0.16801918
-0.090334073 -0.035238396 0.16568935
-0.082130969 -0.037387926 0.16606745
-0.072607145 -0.037123725 0.1696638
-0.06237825 -0.035407536 0.16861269
-0.088311978 -0.034547076 0.17236668
-0.068346635 -0.034617893 0.17166066
-0.11162499 -0.03561981 0.18973222
-0.092119031 -0.03383771 0.18641931
-0.082712062 -0.039029203 0.18515778
-0.10466912 -0.033886891 0.19801152
-0.080485977 -0.033746507 0.19109479
-0.11108209 -0.033802543 0.20617163
-0.095343545 -0.037938073 0.20410781
-0.12430651 -0.03579988 0.21298212
-0.13108875 -0.034399308 0.22791892
-0.10407481 -0.032241829 0.22640382
-0.13374659 -0.035071425 0.23576319
-0.11626355 -0.031899709 0.23752469
-0.098592997 -0.033357315 0.23412928
-0.13813125 -0.033406418 0.24612147
-0.12587118 -0.033265661 0.24454345
-0.1128251 -0.031603485 0.24407977
-0.13931271 -0.03445477 0.25874907
-0.12082575 -0.031171346 0.25477701
-0.10597628 -0.033743478 0.25006187
-0.13252497 -0.032508746 0.26741505
-0.11783136 -0.032490183 0.2631537
-0.14297484 -0.032344617 0.27624726
-0.15667853 -0.032034591 0.28781164
-0.13914187 -0.029883062 0.28969482
