# .PCD v0.7 - Point Cloud Data file format
VERSION 0.7
FIELDS x y z
SIZE 4 4 4
TYPE F F F
COUNT 1 1 1
WIDTH 854
HEIGHT 1
VIEWPOINT 0 0 0 1 0 0 0
POINTS 854
DATA ascii
-0.11819681 -0.056473978 -0.37158936
-0.11251039 -0.054567274 -0.3626155
-0.12652954 -0.05266507 -0.34667292
-0.1195532 -0.050257526 -0.33255184
-0.10415296 -0.041623954 -0.30169809
-0.0634569 -0.042519368 -0.2916376
-0.075787894 -0.038995627 -0.28932792
-0.074970715 -0.038239859 -0.27488676
-0.09698841 -0.038060442 -0.26806176
-0.066897057 -0.0374978 -0.26508689
-0.058454059 -0.035647519 -0.2553038
-0.037046921 -0.032676384 -0.25958657
-0.081841491 -0.033706665 -0.24504191
-0.069050521 -0.034212574 -0.24771678
-0.04634694 -0.028528867 -0.24006639
-0.033585865 -0.028564982 -0.24023637
-0.088477731 -0.030992806 -0.2306928
-0.079133131 -0.032457657 -0.23843798
-0.047991946 -0.031939734 -0.23569955
-0.026499819 -0.031559743 -0.23369038
-0.068366699 -0.028153135 -0.23829804
-0.022710053 -0.027112026 -0.23339808
-0.071568489 -0.02525996 -0.22468138
-0.053823054 -0.029998312 -0.22543457
-0.03918305 -0.025942996 -0.22789606
-0.085984677 -0.027654495 -0.21304202
-0.071724646 -0.027531082 -0.2123895
-0.069648087 -0.027827365 -0.21395604
-0.055801526 -0.025833335 -0.21590242
-0.049465384 -0.02405923 -0.21903017
-0.075941995 -0.044630691 -0.20285898
-0.053127974 -0.044674642 -0.20249501
-0.063396923 -0.037592858 -0.20323762
-0.055238701 -0.037048608 -0.20372681
-0.08563792 -0.025420208 -0.20575731
-0.057204228 -0.026103375 -0.20484073
-0.0320234 -0.022042794 -0.20953988
-0.086984836 -0.047743376 -0.19376624
-0.050223783 -0.049638063 -0.19614901
-0.047475211 -0.042979326 -0.19876465
-0.032740869 -0.042912707 -0.19498023
-0.028416689 -0.044439267 -0.19212225
-0.045761663 -0.035070833 -0.19447573
-0.035315752 -0.035644922 -0.19210277
-0.066200376 -0.023651559 -0.19782186
-0.038613163 -0.02588688 -0.19391906
-0.073889315 -0.01845463 -0.19265226
-0.064343423 -0.019001981 -0.19522837
-0.034788147 -0.019595535 -0.1980219
-0.076879129 -0.043483485 -0.18904001
-0.0646111 -0.043424368 -0.189366
-0.061964799 -0.036478858 -0.189366
-0.041412406 -0.037935939 -0.18819909
-0.047628548 -0.021453941 -0.18025762
0.0038331784 -0.021929843 -0.18277387
-0.067429215 -0.040182769 -0.17255697
-0.075603403 -0.034280229 -0.17625189
-0.066540696 -0.034476005 -0.172067
-0.036495622 -0.039865445 -0.17338426
-0.013236383 -0.039342716 -0.173499
-0.03195383 -0.02948931 -0.17337419
-0.025927434 -0.029641692 -0.17321995
-0.070953086 -0.018072695 -0.17159098
-0.041566219 -0.013945432 -0.17142984
-0.060331676 -0.042931806 -0.164768
-0.052420393 -0.041133732 -0.16856505
-0.033381253 -0.042120237 -0.16314387
-0.025862793 -0.040793389 -0.16926128
-0.028212473 -0.030126236 -0.16989052
-0.015670516 -0.032197643 -0.1652025
-0.069142804 -0.028436687 -0.1606746
-0.043131702 -0.027650684 -0.16448976
-0.030174056 -0.024345681 -0.16385704
-0.024799416 -0.027480349 -0.16709642
-0.019063815 -0.020657333 -0.16361602
-0.062500961 -0.01249458 -0.16460145
-0.054083131 -0.017695174 -0.16038375
-0.046119187 -0.019032996 -0.16329312
-0.022794943 -0.019868229 -0.16328806
0.021417521 -0.012093348 -0.16271305
-0.024904881 -0.040598165 -0.159113
-0.073017552 -0.031634025 -0.15689903
-0.067008071 -0.035068359 -0.15841199
-0.054360643 -0.038486697 -0.15869753
-0.043384209 -0.035755567 -0.15679911
-0.056037657 -0.029828627 -0.15603048
-0.0033258237 -0.016544271 -0.15429853
0.013284311 -0.010581484 -0.15559751
-0.049499832 -0.033868976 -0.14484189
-0.015570877 -0.034691371 -0.14336979
-0.052739359 -0.028512863 -0.14253899
-0.039951343 -0.02349529 -0.14234744
-0.0035129427 -0.023701515 -0.14237073
-0.010208249 -0.033680838 -0.13368118
-0.0049251714 -0.035938203 -0.13510518
0.0036301371 -0.031122234 -0.13754752
-0.015562247 -0.022743236 -0.13395754
0.0017250223 -0.02435171 -0.13857585
-0.050911151 -0.0181656 -0.13549849
-0.025396353 -0.018252503 -0.13265702
0.0044369847 -0.012867656 -0.13485904
-0.033488214 -0.0071965256 -0.13966629
0.045545299 -0.0091737527 -0.13549915
-0.041681521 -0.033192195 -0.12921
-0.0055899909 -0.033084705 -0.12774868
-0.055384636 -0.029436408 -0.12245516
-0.044738524 -0.025503498 -0.12774339
-0.038849507 -0.026012776 -0.1285059
-0.022548182 -0.028411109 -0.12937495
-0.011421679 -0.023985947 -0.12832613
-0.041964769 -0.010890012 -0.12440258
-0.0047291275 -0.010321912 -0.12139884
0.014232656 -0.010951206 -0.12472613
0.030476144 -0.011442381 -0.12732314
-0.031269103 -0.0043439991 -0.12624095
0.048511386 -0.0032997325 -0.12132613
0.053525165 -0.0059389593 -0.12945516
-0.048172556 -0.0092215342 -0.11558078
-0.010232449 -0.0017001443 -0.11379771
-0.0086947083 -0.0086229909 -0.11241608
0.028005132 -0.0096517336 -0.11785538
0.037089497 -0.0039134626 -0.11289915
0.00033902982 -0.032197498 -0.10234199
-0.015380619 -0.022881057 -0.109051
-0.0026844006 -0.023078635 -0.1069636
0.0082941474 -0.021817148 -0.10982125
0.014207533 -0.025434837 -0.10337615
-0.040906169 -0.017389126 -0.10965482
-0.037644669 -0.0180631 -0.10890964
-0.013533384 -0.016283162 -0.10692487
-0.0039968193 -0.017071851 -0.10801172
0.0079569779 -0.017909769 -0.1031095
0.016895132 -0.019153779 -0.10369401
-0.023393238 -0.0061558597 -0.10011996
-0.018454153 -0.00045256177 -0.107926
0.013733135 -0.0063114129 -0.10400799
0.020070031 -0.0066506257 -0.10016607
-0.024887344 -0.023446258 -0.095232502
-0.016889883 -0.026128501 -0.096110761
-0.0028709085 -0.02502561 -0.09635818
0.0054331385 -0.024065794 -0.092519097
0.014173342 -0.021928173 -0.093508348
-0.019019952 -0.018063102 -0.093286335
0.015066183 -0.016795054 -0.096283913
-0.0049616755 0.0032178678 -0.090651222
-0.051734403 -0.004331423 -0.089725107
-0.0044337884 -0.0038918843 -0.087401129
0.0088425726 -0.0030293025 -0.082840368
-0.04351458 0.0013944234 -0.089645728
-0.039352968 0.0034574242 -0.089523755
-0.026611663 0.0034120362 -0.08065781
0.028461486 0.0064604767 -0.080443807
0.03188308 0.0047774161 -0.082754672
0.044454928 0.0046863044 -0.082614735
0.064832643 0.0038886722 -0.08138977
0.080789462 0.001949779 -0.080764361
0.0014264063 -0.015937053 -0.074594922
-0.19888636 -0.0014765086 -0.072359294
-0.18208414 -0.0021678833 -0.07208854
-0.15125209 -0.0012685765 -0.073469639
-0.14390492 -0.00049198768 -0.074662276
-0.063550144 -0.0059475955 -0.075033352
-0.036986127 -0.0015698001 -0.075123489
-0.01450876 -0.0019395542 -0.077078506
0.0040693074 -0.0066712769 -0.072417229
0.019686198 -0.0050845305 -0.071424596
0.02704292 -0.0045220163 -0.073625207
0.040321767 -0.0022953199 -0.071892835
0.058846809 -0.00012288295 -0.075228892
0.067627907 -0.0022582284 -0.071949795
0.075053483 -0.00067106751 -0.074387006
-0.21691558 0.00578953 -0.076431133
-0.20715728 0.00073455053 -0.07441967
-0.18823379 0.00486658 -0.076254241
-0.16839525 0.0011235604 -0.077143326
-0.14516874 0.0078868046 -0.078253359
-0.1183973 0.00087463664 -0.076761045
-0.10358456 0.00018629991 -0.075703941
-0.04037638 0.0029169424 -0.079897478
-0.034418494 0.0039237081 -0.073361434
-0.016905274 0.0085813357 -0.077186748
0.0055233091 0.00486658 -0.07703466
0.017088499 0.00486658 -0.075881056
0.090445541 0.0090955552 -0.076397046
0.11444899 0.0095393844 -0.073186725
-0.15718302 0.011010701 -0.073455907
-0.005226016 0.01145599 -0.072772056
0.012458801 0.011335077 -0.072957754
0.064483434 0.013121588 -0.070214152
0.11270818 0.010001509 -0.073280387
-0.1628769 -0.01118702 -0.061939489
-0.085400417 -0.015437981 -0.065573588
0.019215873 -0.01547398 -0.067668542
0.022859143 -0.014972135 -0.063431829
-0.17509004 -0.0091687078 -0.062221795
-0.16445395 -0.0046773944 -0.068234608
-0.15681991 -0.0093723554 -0.061024405
-0.14406508 -0.0031483276 -0.060330808
-0.12942816 -0.0085328445 -0.063741244
-0.11193839 -0.0067709773 -0.062781177
-0.10891674 -0.0069805309 -0.061778206
-0.099317126 -0.0066188932 -0.06525299
-0.050575547 -0.0051319385 -0.063401312
-0.04685688 -0.0018477649 -0.068044215
0.073403746 -0.0053615198 -0.067183979
-0.23324336 0.0034367961 -0.064347573
-0.22408581 0.0065228166 -0.065752544
-0.12797078 0.00486658 -0.06302958
-0.015022933 0.00486658 -0.068292059
0.019964907 0.00486658 -0.062874213
0.1365485 0.00486658 -0.066283725
-0.12221856 0.016567744 -0.064921811
-0.028055113 0.019167848 -0.06092874
-0.01777848 0.019429212 -0.060527366
0.034065515 0.015360067 -0.066776462
0.10320233 0.017487319 -0.063509583
-0.043044806 -0.030085713 -0.055498511
-0.0698549 -0.021029389 -0.053031716
-0.012744102 -0.028046697 -0.058391929
-0.0057672509 -0.027633015 -0.055970479
0.017090369 -0.026949227 -0.052188195
-0.15023009 -0.017717149 -0.058370825
-0.13449821 -0.013008035 -0.055440977
-0.11538693 -0.017066164 -0.053613957
-0.085805386 -0.013024135 -0.053492717
-0.075999975 -0.016483096 -0.05950699
-0.039565098 -0.010167955 -0.059802577
-0.0025531114 -0.01149201 -0.054476816
0.016772371 -0.018277042 -0.059917182
-0.26029387 -0.0085367057 -0.057948999
-0.2114604 -0.0029060221 -0.056905486
-0.10542633 -0.0019972711 -0.059425205
-0.095734388 -0.0087893419 -0.057915851
-0.0044663469 -0.0077231969 -0.059797462
0.07483907 -0.0096259015 -0.055346813
0.13885334 -0.0023669354 -0.050364457
-0.25318429 0.0053314394 -0.05099348
-0.23883681 0.00486658 -0.058334567
-0.21208546 0.00486658 -0.054074205
-0.18925051 0.00486658 -0.051410653
-0.15874144 0.00486658 -0.055826858
-0.14744119 0.00486658 -0.054998808
-0.10407807 0.0018573133 -0.05435532
-0.058286831 0.00486658 -0.051371038
-0.042043336 0.00486658 -0.053126059
0.022227131 0.00486658 -0.056242824
0.15107748 0.0029660477 -0.053388588
-0.15498985 0.015477944 -0.05878824
-0.14576778 0.01769845 -0.050827745
-0.13418446 0.018540967 -0.054177567
-0.12165861 0.019909743 -0.054661162
-0.11633218 0.020231841 -0.056649495
-0.047875904 0.020341493 -0.059126355
-0.0017732754 0.02144398 -0.057433225
0.020008296 0.020809824 -0.05840712
0.039757606 0.020842312 -0.058357224
0.045602355 0.025335213 -0.051457345
0.085156336 0.020146897 -0.05942519
0.12278555 0.020884963 -0.056066532
-0.023360118 -0.034694396 -0.046987586
-0.0012669084 -0.033442903 -0.041014995
-0.2393983 -0.021542348 -0.047947723
-0.12179168 -0.02258528 -0.043802567
-0.074163549 -0.025092836 -0.047410585
-0.0060698371 -0.022574464 -0.044385009
0.021914573 -0.026697487 -0.046602096
-0.13459104 -0.018349087 -0.047238547
-0.12438768 -0.017690681 -0.048249688
-0.083182342 -0.0190334 -0.046187628
-0.065575585 -0.017666616 -0.045395046
-0.052284919 -0.017307371 -0.047514893
-0.031366758 -0.016988967 -0.046678044
0.0097256554 -0.01560589 -0.04939156
0.025121637 -0.01902323 -0.046203248
0.068215795 -0.01452492 -0.044801284
-0.26047814 -0.0031811078 -0.046935339
-0.2235357 -0.0038822812 -0.043603014
0.10592648 -0.0086712493 -0.046072572
0.11043713 -0.0092428531 -0.042833302
-0.26218879 0.0038622541 -0.043189667
-0.24489327 0.0044698822 -0.046403684
-0.20936957 0.00486658 -0.042411231
-0.19507208 0.00486658 -0.041403022
-0.17219192 0.00486658 -0.046713628
-0.16907199 0.0037161903 -0.043655463
-0.13205242 0.0037161899 -0.04542347
-0.076917477 0.00486658 -0.047365703
-0.024286909 0.00486658 -0.048396125
-0.011884589 0.00486658 -0.046862684
0.0078970715 0.00486658 -0.043791346
0.040874641 0.00486658 -0.046169426
0.091936693 0.00486658 -0.040598765
0.13396478 0.00486658 -0.048037119
0.16521007 0.0048665805 -0.044410404
-0.19284099 0.012485915 -0.049480379
0.17760314 0.013389387 -0.044440441
-0.1086024 0.022328872 -0.04835983
-0.084870666 0.025691736 -0.043998837
0.13400631 0.022789938 -0.049457833
-0.045834433 0.030491361 -0.041844785
-0.21283332 -0.022285298 -0.039291918
-0.15279508 -0.021226766 -0.034242507
-0.14905801 -0.020735912 -0.036907196
-0.13979889 -0.022285299 -0.034232687
-0.12839916 -0.023981579 -0.038588554
-0.10662835 -0.027891014 -0.032584708
-0.089351714 -0.023573318 -0.039215531
-0.04148332 -0.026049839 -0.035412259
-0.037107512 -0.025412455 -0.036391117
-0.017860308 -0.024843426 -0.035688628
0.0098153874 -0.025633028 -0.036052369
-0.27238283 -0.018174751 -0.033951208
-0.17452858 -0.015751556 -0.036173426
0.10529727 -0.014300719 -0.031300154
-0.26809222 -0.0031417899 -0.039796729
-0.25943321 -0.00020729669 -0.030718226
-0.22580145 -0.0065048691 -0.031643443
-0.27092615 0.0059408238 -0.032834306
-0.25693756 0.00486658 -0.036079116
-0.22376092 0.00486658 -0.030950032
-0.19845231 0.0048665795 -0.036241528
-0.18489331 0.00486658 -0.031098831
-0.17992802 0.0037161901 -0.032221083
-0.15408272 0.00486658 -0.034568813
-0.12102661 0.00486658 -0.035477336
-0.10733877 0.00486658 -0.030265873
-0.098195896 0.0037161899 -0.037060224
0.028192094 0.00486658 -0.033971824
0.06167268 0.00486658 -0.035890371
0.18572499 0.0048665795 -0.031343561
0.21477006 0.0040989132 -0.038741652
-0.22235385 0.010559078 -0.039438255
-0.18355176 0.015125583 -0.038698345
-0.17328788 0.017496141 -0.030529778
0.18980949 0.018083479 -0.034027476
-0.11791951 0.023316408 -0.034246031
-0.061704971 0.030043917 -0.032407504
-0.014245421 0.034923162 -0.036344871
0.056353521 0.036291804 -0.034631062
0.084103301 0.035960123 -0.035140418
0.13926443 0.034562126 -0.032983504
-0.085625671 -0.035125848 -0.02147394
-0.050539546 -0.034630287 -0.022234989
-0.14435691 -0.024973581 -0.024171758
-0.10832532 -0.022045109 -0.029201031
0.058070138 -0.021679487 -0.029580303
-0.26472467 -0.014869127 -0.02520111
-0.21025458 -0.012102722 -0.022177484
0.098787598 -0.018684929 -0.022084223
0.1181393 -0.016672354 -0.020093162
-0.22819635 -0.0088050673 -0.020832792
-0.069729701 -0.00042853813 -0.028055236
0.21898812 -0.00014939194 -0.02580926
-0.27369961 0.004509443 -0.025224902
-0.22428608 0.0040949322 -0.02583316
-0.21547824 0.0027683647 -0.025889702
-0.19876762 0.00486658 -0.021633519
-0.16984175 0.00486658 -0.020952258
-0.080738038 0.0032819414 -0.027432304
-0.049007017 0.00486658 -0.020330247
0.0013057366 0.00486658 -0.027212856
0.02360053 0.00486658 -0.021660861
0.13498832 0.0048665805 -0.02061817
0.14448619 0.00486658 -0.025220137
0.17175049 0.00486658 -0.028981142
0.19606678 0.00486658 -0.028932832
0.20014796 0.00486658 -0.020924063
0.21588247 0.00486658 -0.023090998
0.22890645 0.0023880955 -0.028804667
0.23247884 0.0029379157 -0.028912548
0.25724271 0.00486658 -0.021900604
-0.19599217 0.015322006 -0.027548563
-0.17294535 0.018396882 -0.024622761
-0.075178146 0.029417586 -0.026086023
-0.062392965 0.031212647 -0.023850715
0.008860819 0.038692724 -0.028702039
0.012068324 0.038935892 -0.029561959
0.070854291 0.041181322 -0.027122114
-0.071751542 -0.041058309 -0.012363268
0.00052322447 -0.036914337 -0.010835024
-0.15905753 -0.024753727 -0.013440848
-0.14784266 -0.026789164 -0.014381581
-0.18300112 -0.019623682 -0.014475502
-0.17652756 -0.015612202 -0.01779335
-0.14176883 -0.013603007 -0.016794585
-0.1021767 -0.016125239 -0.018192543
-0.078789428 -0.010245077 -0.015940674
0.16092931 -0.014308022 -0.010128491
-0.27228278 -0.00025415979 -0.019266371
-0.15586442 -0.007590021 -0.016056657
-0.12500946 -0.0010221625 -0.019501688
-0.10869661 -0.0094157364 -0.015809629
-0.090989769 -0.001375087 -0.019176712
0.24085711 -0.0015577174 -0.013738855
-0.24318352 0.0048665795 -0.017490458
-0.20959744 0.00486658 -0.01049541
0.094884545 0.00486658 -0.018058075
0.10086225 0.00486658 -0.017327754
0.15716001 0.00486658 -0.017713048
0.17001902 0.00486658 -0.012772017
0.2718994 0.0075727808 -0.015739653
-0.21765558 0.015276693 -0.010788931
-0.16169629 0.021106634 -0.014904452
0.21908495 0.024560357 -0.014932422
0.18141326 0.036328074 -0.014786229
0.19744261 0.031812161 -0.014244423
0.028815862 0.042287271 -0.019776324
0.03521999 0.044414278 -0.010236507
0.075414129 0.049055915 -0.010078257
-0.046466805 -0.043386981 -0.0087870518
-0.13166556 -0.032980181 -0.0031110684
-0.12390292 -0.033745982 -0.0062569892
-0.11538956 -0.03596149 -0.0043703923
-0.015307118 -0.039604206 -0.0096811326
0.0087284455 -0.036917612 -0.0077065397
-0.16586049 -0.025528638 -0.0050740023
-0.15364039 -0.028440686 -0.0034060732
0.073089756 -0.028091442 -0.0067713703
0.1222725 -0.021416875 -0.0058698207
0.16080824 -0.017952887 -0.00045504948
0.27218232 -5.0220639e-05 -0.0058484254
-0.29557294 0.0067461757 -0.0078903204
-0.13530549 0.00486658 -0.002741327
-0.11870511 0.0048665795 -0.006004029
-0.082859725 0.0048665805 -0.0067638177
-0.0051988699 0.00486658 -0.0062051062
0.062124413 0.00486658 -0.0049536461
0.14834604 0.00486658 -0.00078011886
0.15827993 0.00486658 -0.0021519675
0.17416605 0.00486658 -0.0092008887
0.20127027 0.00486658 -0.0028746137
0.22734952 0.00486658 -0.0027139115
0.3072173 0.0047537563 -0.0017402247
0.31161639 0.0047867065 -0.0037532034
-0.18294835 0.019654525 -0.0081161903
-0.1464667 0.023591246 -0.0098666139
-0.092850983 0.030187897 -0.0068776729
-0.052234475 0.0354289 -0.0029840663
0.03727686 0.046083547 -0.0014523035
0.044839643 0.04647937 -0.0038361794
0.17376137 0.043275006 -0.0091535309
0.18421665 0.041063994 -0.007896943
0.079803698 0.050622772 -0.00044475577
0.089750588 0.051547408 -0.0044165063
0.15077202 0.056591753 -0.0015199824
-0.01682587 -0.041777454 0.0043187211
-0.10208195 -0.03802263 0.0057750251
0.032546181 -0.034260314 0.0055943741
0.061959721 -0.030225346 0.0051698028
-0.17510039 -0.023558382 0.0045469841
-0.23833559 -0.010889983 0.0039589941
0.24655123 -0.002959413 0.0076976377
0.25960341 -0.00063454732 0.0089367991
-0.31039852 0.0046998123 0.0071465252
-0.30421427 0.00486658 0.0058551785
-0.29176629 0.0082840985 0.00019310146
-0.20839003 0.00486658 0.0066865911
-0.18991207 0.00486658 0.007828298
-0.14250411 0.00486658 0.0023101729
-0.10419083 0.00486658 0.0076543777
-0.093634792 0.00486658 0.0062741125
-0.0026405733 0.00486658 0.0032673955
0.17922372 0.00486658 0.002216948
0.21686633 0.00486658 0.0025015099
0.26577491 0.00486658 0.0068370732
0.31358406 0.0046470538 0.0024846629
-0.25556746 0.012293749 0.0010399383
-0.22523312 0.01443401 0.0089972606
-0.17878287 0.019610647 0.0099481428
0.27544689 0.016644496 0.0030892547
-0.15516357 0.023250975 0.0044690538
-0.11181688 0.028352186 0.0037567453
-0.053620867 0.034098547 0.0093207331
0.035510272 0.044550333 0.0080779931
0.15477833 0.049946185 0.0087156091
0.17110443 0.049658671 0.0023551811
0.12162822 0.055471268 0.00054407364
-0.0092371739 -0.037132062 0.013838341
0.0077238511 -0.035188768 0.012569181
0.02422386 -0.033582553 0.010575119
0.032955259 -0.031087322 0.013915263
-0.19389656 -0.020180106 0.018793572
-0.16425893 -0.022855908 0.014265857
-0.15522748 -0.015099108 0.013550808
-0.10873675 -0.011993661 0.01198967
0.10766426 -0.018391702 0.0193741
-0.26669309 -0.0027702788 0.011855141
-0.22744456 -0.0086199492 0.018956732
-0.21730621 -0.0092758425 0.011562976
-0.20848365 -0.0039300974 0.013082025
-0.19402161 -0.0054160571 0.012343561
-0.13110712 -0.0020543665 0.014323631
-0.10604312 -0.0044430387 0.012827112
-0.084892876 -0.0073851803 0.011861726
0.1889759 -0.0097035207 0.011611924
-0.27575266 0.0074203657 0.016146254
-0.22242489 0.00486658 0.018824188
-0.21626353 0.00486658 0.012344538
-0.13875151 0.0048665805 0.019681945
-0.11733262 0.00026357526 0.016686751
-0.072196394 0.00486658 0.010272776
0.073563784 0.00486658 0.011659689
0.1136125 0.0048665805 0.013738193
0.17780241 0.0048665805 0.012582579
0.23057115 0.00486658 0.019375859
0.26451835 0.00057146 0.010286492
-0.24768385 0.011311183 0.012209666
-0.15552528 0.021444254 0.014909621
0.20422313 0.026707055 0.018004425
0.23291582 0.020351497 0.014723441
-0.033830695 0.035460744 0.014713923
-0.029443067 0.03549166 0.017513046
-0.0052994937 0.038642827 0.015283604
0.0047454424 0.039220914 0.018691305
-0.06805025 -0.035013422 0.021533564
-0.04506534 -0.031322088 0.02721289
0.0049946727 -0.030155361 0.027055638
-0.16396792 -0.021927647 0.02390334
-0.14701222 -0.022051614 0.028678706
-0.13539016 -0.024916567 0.026991202
-0.26398677 -0.01865913 0.024043258
-0.25634921 -0.005644361 0.022768181
-0.24725485 0.0095188245 0.023102673
-0.23468041 0.00486658 0.029920248
-0.19603242 0.00486658 0.023488764
-0.16828606 0.00486658 0.02831465
-0.15739863 0.00486658 0.029748021
-0.12955 0.0032817135 0.023202926
0.0055914856 0.00486658 0.02714207
0.22661227 0.00486658 0.022341514
0.25621814 0.0036927774 0.02178685
-0.17229614 0.017730143 0.025479615
-0.15566963 0.019691026 0.025181502
-0.10085423 0.026206026 0.02390155
0.0052579567 0.037595056 0.028656263
0.10431071 0.039609477 0.029437035
0.11351284 0.039410952 0.029742485
0.16527878 0.035959776 0.0230636
0.057274938 0.041518465 0.026499875
0.061945826 0.042328168 0.025254089
0.076349534 0.044238277 0.022315264
-0.1149511 -0.024636665 0.037498791
-0.10675554 -0.022285299 0.035746902
-0.088818252 -0.026031395 0.035352919
-0.031507801 -0.024593342 0.036397934
-0.016913513 -0.028874245 0.030979037
-0.16569361 -0.014877108 0.039988469
-0.23486012 -0.0012259509 0.038657688
-0.21986672 -0.0058908844 0.033238634
0.13859586 -0.0095945681 0.031093527
0.17549624 -0.0015900354 0.038421903
-0.26694146 0.00486658 0.035506252
-0.24915828 0.00486658 0.038248781
-0.23252824 0.0065841656 0.03279043
-0.1935809 0.00486658 0.038317066
-0.16685167 0.0037161899 0.034015995
-0.12496758 0.00486658 0.039550029
-0.041672733 0.00486658 0.038442131
0.0014527887 0.00486658 0.03983207
0.017766535 0.00486658 0.034402877
0.10234508 0.00486658 0.032911632
0.12917288 0.00486658 0.035349146
0.22848752 0.00486658 0.034228448
-0.21208557 0.011994578 0.032361664
-0.17260411 0.016245471 0.03405185
0.1924333 0.014763238 0.037027873
-0.016321365 0.034085035 0.034751073
0.031282783 0.034621768 0.03711091
0.12471231 0.0367072 0.033902485
0.13247296 0.036413658 0.034354113
0.14826187 0.030101527 0.037470762
-0.054351382 -0.033364017 0.043994822
-0.24375716 -0.020801056 0.046113566
-0.19870645 -0.022285301 0.041865829
-0.17277837 -0.021685049 0.046904534
-0.1355015 -0.022285299 0.040645659
-0.10345726 -0.021598998 0.047153864
-0.099242851 -0.024123479 0.04602468
0.020478647 -0.028339691 0.046045724
-0.12786248 -0.017585838 0.047180045
-0.00653623 -0.014953838 0.049716037
0.031982534 -0.017144792 0.049025461
-0.25616765 -0.0049083764 0.047903474
0.15011497 -0.0033064391 0.043504611
-0.24595076 0.0031031952 0.045605671
-0.23746416 0.00486658 0.045272611
-0.17457947 0.00486658 0.041354287
-0.16338368 0.0037161899 0.040587462
-0.14706498 0.0035443844 0.048815187
-0.13995263 0.0037161901 0.040267862
-0.096404165 0.003282056 0.046367854
-0.079178289 0.0021274907 0.049768541
-0.069729701 5.7375059e-05 0.040250536
-0.015613258 0.0048665805 0.048699882
0.077293821 0.0048665795 0.044332013
0.12215776 0.00486658 0.046152484
0.16275989 0.00486658 0.046621874
0.19123316 0.0048025278 0.049505353
0.18496132 0.012129401 0.04311863
-0.075543791 0.026119389 0.04161609
-0.052677546 0.027033146 0.04878648
0.12505656 0.02836803 0.046732776
0.14399612 0.026394276 0.043221604
-0.0065864231 -0.032154374 0.05261017
0.01359154 -0.030096522 0.051077366
-0.064943358 -0.024606936 0.05808983
-0.02810535 -0.028794844 0.057504602
0.0030740027 -0.026594268 0.057574891
0.01996075 -0.021129848 0.056098145
0.022619085 -0.021581167 0.05331137
-0.26473847 -0.015002342 0.051308662
-0.20351963 -0.012976954 0.057318322
-0.19008358 -0.018297637 0.053609084
-0.134234 -0.010894124 0.058642466
-0.12834838 -0.015064498 0.052226115
-0.094061479 -0.014443019 0.056589544
-0.08768563 -0.013878 0.050599974
-0.07554239 -0.017811254 0.054056883
-0.069516242 -0.013493944 0.051785856
-0.014719988 -0.01069583 0.058947556
0.0094444752 -0.012853864 0.056497488
0.012140961 -0.015565966 0.054359145
0.025271479 -0.018162005 0.050772931
0.037787311 -0.01565969 0.051310379
0.043894075 -0.011625458 0.057517271
-0.21531466 -0.0075801928 0.057743292
-0.20329654 -0.0067390059 0.057610475
-0.18599986 -0.0068965396 0.05289105
-0.16033539 -0.0037516097 0.056403395
-0.13195615 -0.0090475678 0.057974983
-0.23294245 0.00041903034 0.052644473
-0.20507795 0.0028700561 0.053670742
-0.044539854 0.00486658 0.056040421
-0.024321366 0.00486658 0.050489537
0.05432554 0.00486658 0.059494894
0.10093168 0.00486658 0.051778778
0.11536321 0.00486658 0.051376708
0.15962334 0.0018185447 0.053574234
-0.13393173 0.017147228 0.055001598
0.14613453 0.011106056 0.059168976
-0.035531305 0.024419539 0.052807719
0.05565742 0.023533475 0.054171041
0.070947237 0.021953251 0.05660231
-0.02559719 -0.02314168 0.065314084
0.018415958 -0.020571329 0.061879564
0.023028729 -0.014568106 0.064409502
-0.11874176 -0.0054495167 0.067019306
-0.10310707 -0.0076385811 0.066930853
-0.087138206 -0.0093220798 0.069106549
-0.052816816 -0.0043942099 0.064248174
-0.034928188 -0.0074911979 0.063878059
-0.027286679 -0.0071817869 0.064354107
-0.002466226 -0.004770285 0.065930784
0.025943469 -0.007067936 0.069415793
0.078535199 -0.0069512366 0.061033282
-0.22427219 0.0054040109 0.063061006
-0.21597055 0.0058850488 0.065857925
-0.19836104 0.0088787135 0.060119189
-0.18678989 0.0090282895 0.067098744
-0.12500523 0.00486658 0.060260389
-0.10466167 0.0048665795 0.061213348
-0.087247208 0.00486658 0.060343027
-0.064308435 0.00486658 0.061373066
0.0035626553 0.00486658 0.069682531
0.10826911 0.00486658 0.069054842
0.12631613 0.00486658 0.064020164
-0.098129943 0.019240996 0.060775224
0.1187285 0.015920399 0.064928792
0.12128609 0.017675921 0.061983462
-0.019118097 -0.018153524 0.072090134
0.0038408251 -0.015805313 0.074621856
0.01269637 -0.016788138 0.073270202
-0.11951356 -0.0021712747 0.072063066
-0.080171824 -0.0030164076 0.070762783
-0.063619301 -0.00062828418 0.074437045
-0.058479365 -0.00092805526 0.073975831
-0.049828235 -0.0016975243 0.072791956
-0.011299498 -0.002032696 0.078515932
-0.0034946981 -0.0047626668 0.071805045
0.0083293198 -0.0041703968 0.077443689
0.022037882 -0.0079728169 0.075277649
-0.18570237 0.004848477 0.076496229
-0.17082348 0.0096894978 0.07403931
-0.15529676 0.0087640034 0.076894775
-0.14834432 0.0098084658 0.075287804
-0.13134664 0.0028756934 0.074539304
-0.129289 0.0017505774 0.07809706
-0.11123428 0.00486658 0.071193025
-0.054608874 0.002656399 0.079490714
-0.042021602 0.0011340756 0.079865865
-0.035559677 0.0043967897 0.075064756
-0.029937074 0.0028235982 0.07974796
-0.010242485 0.0021699353 0.078742266
-0.002406016 0.0071793292 0.079332888
0.00986824 0.0015849822 0.075919949
0.017997976 1.8929131e-07 0.07326977
0.073274381 0.00486658 0.073302217
0.080592006 0.0086173723 0.077120379
0.1152956 0.002989945 0.073588774
-0.034184285 0.011856193 0.072137259
0.042120043 0.01020187 0.074682534
-0.15124545 0.0044999821 0.082327172
-0.13079044 0.00486658 0.080670565
-0.050781924 0.0035293447 0.080833793
-0.03802149 0.0047650468 0.083369069
0.059282001 0.0041007046 0.08171504
-0.033064041 -0.026939906 0.095232502
-0.009485567 -0.021074707 0.095232502
0.0046752226 -0.027230788 0.094418794
0.015426151 -0.028877167 0.096764326
-0.021569889 -0.018528797 0.095232502
-0.0028419513 -0.019382801 0.096202679
0.0023556836 -0.019344039 0.099205941
-0.046938874 -0.0056705647 0.096805602
0.073160216 0.0029771854 0.091783598
-0.027835522 -0.029411765 0.1027848
-0.010685103 -0.028889265 0.10710779
-0.0064001814 -0.028753486 0.10776339
-0.014245078 -0.013871575 0.10363078
0.0063850787 -0.012135012 0.10058579
0.012425059 -0.013780784 0.10222727
-0.049222615 -0.0021888164 0.10107417
-0.0293003 -0.0068201413 0.10578784
-0.0077347071 -0.004847744 0.10021932
0.00029189512 -0.0087779602 0.10269638
0.016075291 -0.0075044846 0.10650216
0.038475908 -0.0073701614 0.10579194
0.068100527 -0.0017389583 0.10327183
-0.039396603 -0.027678473 0.11097065
0.011708835 -0.018885102 0.111411
-0.044894472 -0.0093194451 0.11609846
-0.013269346 -0.0090251379 0.11454237
0.022059888 -0.009880363 0.11906423
0.057311878 -0.0057525565 0.11463255
-0.032265536 -0.031395167 0.12904701
0.001854708 -0.03281628 0.127251
-0.052777305 -0.026642803 0.12904701
-0.041252784 -0.028042749 0.12904701
-0.060753576 -0.0094600394 0.12695117
-0.046999179 -0.0038343929 0.12384216
0.049251772 -0.0031272015 0.12051378
0.053538032 -0.0066081719 0.12346694
-0.0574212 -0.033599216 0.13550785
-0.045710456 -0.035636224 0.13307142
-0.012410722 -0.032041144 0.13292597
-0.0084939934 -0.0319089 0.13833991
0.0017661641 -0.032495588 0.137706
-0.0574212 -0.02530737 0.1323218
-0.044555508 -0.021285357 0.13538399
-0.029152554 -0.022568811 0.13976739
-0.019573018 -0.029036677 0.133891
-0.0089533385 -0.025877699 0.13315561
-0.050385524 -0.01253733 0.13311249
-0.017625274 -0.01813028 0.13959628
0.017761419 -0.013313082 0.13721415
0.020254377 -0.013142066 0.13630994
0.041166492 -0.011344785 0.13530537
-0.042844333 -0.0065056495 0.13641438
-0.039144389 -0.0064448966 0.13612844
0.00082375668 -0.0056511848 0.13239285
0.045914695 -0.0088563543 0.13670528
-0.038004056 -0.032393627 0.14409217
-0.054026648 -0.024886273 0.14469862
-0.02719702 -0.025900699 0.142865
-0.0069181197 -0.027381163 0.14048024
-0.023669232 -0.014788497 0.14501518
0.035551518 -0.012927126 0.14570811
-0.028269142 -0.0082006762 0.14439198
0.039616331 -0.008630503 0.14641497
-0.071005188 -0.039540607 0.1560578
-0.05674566 -0.030713528 0.15841198
-0.062140986 -0.017416175 0.15890859
-0.034285329 -0.011447677 0.15967393
-0.02561556 -0.014986902 0.15686734
-0.019221384 -0.01035711 0.15454119
-0.0026539257 -0.011470479 0.15978125
0.0078091063 -0.0095886011 0.15092424
-0.036849063 -0.041596368 0.16476899
-0.025469333 -0.041064762 0.16310522
-0.028401708 -0.031002194 0.163256
-0.055659089 -0.027001476 0.16695635
-0.045154978 -0.026134759 0.16702639
-0.035324067 -0.028342493 0.16915908
-0.028812069 -0.027138146 0.16913524
-0.015659861 -0.020879712 0.16551253
-0.054058265 -0.017870363 0.16131003
-0.04397428 -0.017249078 0.16218111
-0.025920995 -0.015056228 0.16246438
-0.011481302 -0.016758682 0.16632095
0.02644217 -0.01219094 0.16317208
0.03287689 -0.012243036 0.16228452
-0.066350281 -0.021356106 0.17974034
-0.062460843 -0.01999397 0.17253825
-0.043040536 -0.015032056 0.17654374
0.025892768 -0.014760783 0.17147617
-0.02825411 -0.039190721 0.18632701
-0.056463089 -0.021473667 0.18036191
-0.036186133 -0.022942586 0.18812858
-0.012608077 -0.021794518 0.18205835
-0.074192703 -0.04850547 0.19669703
-0.043152533 -0.047681306 0.19872394
-0.037895948 -0.045693699 0.19999276
-0.025878865 -0.047349442 0.19087468
-0.088473998 -0.035227429 0.1940494
-0.071113691 -0.030058701 0.19611901
-0.058644757 -0.030058701 0.19553454
-0.046301942 -0.032262731 0.19446921
-0.028144453 -0.039763913 0.197502
-0.068054534 -0.027670864 0.19446099
-0.059775196 -0.023260955 0.19459817
-0.0066412836 -0.023411987 0.19061047
-0.042616479 -0.01981038 0.19903284
-0.035190269 -0.018731365 0.19395447
0.0061918786 -0.017906399 0.19007179
-0.084083088 -0.043299958 0.20253301
-0.070405349 -0.045021027 0.20253301
-0.060674686 -0.04239158 0.202859
-0.030852271 -0.047247261 0.20116517
-0.072447889 -0.038780302 0.20285898
-0.067715101 -0.035294842 0.20189056
-0.047537148 -0.036917865 0.20061409
-0.034208942 -0.036009073 0.2027313
-0.025863312 -0.037866559 0.205219
-0.005025873 -0.022701284 0.20757063
0.0024228774 -0.022331513 0.20647767
-0.047078513 -0.028700905 0.21857476
-0.0027955994 -0.022483181 0.21161231
-0.052051097 -0.03053863 0.22829141
-0.034480609 -0.030607605 0.22865613
-0.053030085 -0.024795998 0.22249754
-0.035578273 -0.025937354 0.22786932
-0.082677558 -0.032552734 0.23894066
-0.02638001 -0.031035557 0.23091884
-0.060285967 -0.026961861 0.23269112
-0.047625214 -0.028225286 0.23863742
-0.093254074 -0.030429684 0.240538
-0.077349469 -0.033981565 0.24649534
-0.052989595 -0.03025659 0.24819769
-0.031135561 -0.034096755 0.24819031
-0.076761 -0.029663438 0.24540605
-0.020982021 -0.029151201 0.24136215
-0.046384342 -0.03082756 0.25088495
-0.10152529 -0.035695307 0.26336873
-0.071844019 -0.033835571 0.26504213
-0.045966797 -0.034354195 0.26748303
-0.1061445 -0.038970739 0.27627808
-0.09594883 -0.038989097 0.27297187
-0.062950082 -0.03917896 0.27397573
-0.04674495 -0.038735759 0.27498066
-0.059361666 -0.042047676 0.28914362
-0.10583504 -0.042179856 0.30431432
-0.069224961 -0.044859599 0.3040112
-0.1164583 -0.050677065 0.33477008
-0.090514824 -0.051487662 0.34493402
