# .PCD v0.7 - Point Cloud Data file format
VERSION 0.7
FIELDS x y z
SIZE 4 4 4
TYPE F F F
COUNT 1 1 1
WIDTH 841
HEIGHT 1
VIEWPOINT 0 0 0 1 0 0 0
POINTS 841
DATA ascii
-0.081033774 -0.02969338 -0.29582199
-0.061607376 -0.029106595 -0.29668599
-0.06298922 -0.031587899 -0.28592363
-0.072443865 -0.031697597 -0.27121454
-0.068091743 -0.032884933 -0.27041528
-0.041500807 -0.033369742 -0.27228147
-0.062399734 -0.029832158 -0.27678674
-0.070464157 -0.033402227 -0.26198298
-0.055333056 -0.034006268 -0.26535922
-0.046616796 -0.031940129 -0.2632443
-0.058028303 -0.034420341 -0.25142282
-0.03612721 -0.03648391 -0.25202489
-0.027438931 -0.033110611 -0.25793517
-0.048268177 -0.036449853 -0.2442528
-0.035150375 -0.035240758 -0.24257645
-0.048567206 -0.034800783 -0.23501985
-0.034379531 -0.038099222 -0.23745205
-0.051328644 -0.036946557 -0.22297716
-0.044775099 -0.038052771 -0.22145021
-0.032211509 -0.034186203 -0.22932683
-0.0090716481 -0.036365844 -0.22596225
-0.062788725 -0.04505932 -0.21367605
-0.045916587 -0.045754705 -0.21156389
-0.028656445 -0.040219635 -0.21925396
-0.02490152 -0.036268633 -0.210985
-0.0030606936 -0.038552664 -0.21445899
-0.041777391 -0.041124206 -0.20046279
-0.027230699 -0.042924356 -0.19047251
0.0058929455 -0.039049603 -0.1989913
-0.034448728 -0.04030136 -0.18959004
-0.027691141 -0.040793069 -0.18202496
0.00095123425 -0.045197979 -0.18228173
0.0035557281 -0.040137745 -0.17333254
-0.032865517 -0.043618452 -0.16743034
-0.0052707507 -0.047316235 -0.16235989
0.017759193 -0.041464616 -0.16752928
0.024826754 -0.043979026 -0.16593085
-0.015782 -0.047220368 -0.15346391
-0.0011127163 -0.048675243 -0.15116093
-0.030961953 -0.053235736 -0.14184766
-0.020631269 -0.050520431 -0.1409663
-0.016314751 -0.055634722 -0.14218698
0.016910039 -0.050189465 -0.14547798
-0.025075378 -0.046863422 -0.14819276
0.0084300647 -0.043421879 -0.14384311
0.02678182 -0.0436459 -0.14032656
0.034581982 -0.045836426 -0.14374852
0.040847816 -0.045487482 -0.14027035
-0.02272556 -0.04793467 -0.13664405
0.014832788 -0.044195198 -0.13515858
-0.0092595955 -0.048078571 -0.12203664
0.0095295832 -0.046534795 -0.12142164
0.024800885 -0.045004122 -0.12754792
0.092813246 -0.090896539 -0.1160323
0.10102262 -0.092486359 -0.11495855
0.10343657 -0.086680889 -0.11842108
0.12055154 -0.081307039 -0.11610486
0.082312062 -0.075352363 -0.11734986
0.091056049 -0.079310939 -0.11951162
0.078126803 -0.069413126 -0.11325707
0.11228925 -0.064650387 -0.11110869
0.046955984 -0.052399464 -0.11422919
0.05043098 -0.051485509 -0.11732196
-0.0079876296 -0.049350675 -0.11225401
0.0070420415 -0.047410503 -0.11482765
-0.36604744 -0.011794399 -0.11628614
0.11583956 -0.093637064 -0.10620643
0.041160125 -0.08381103 -0.10562968
0.043073468 -0.074204542 -0.10282869
0.052369736 -0.07173308 -0.10009421
0.061940208 -0.070970193 -0.10139757
0.048191696 -0.061517976 -0.10309769
0.082472548 -0.066389211 -0.10209239
0.097383007 -0.061394017 -0.10160492
0.0026885243 -0.053865451 -0.10453574
0.025534263 -0.05836419 -0.10325894
0.034681082 -0.059226312 -0.10328579
0.074019805 -0.056662809 -0.10363786
0.094813406 -0.057778899 -0.10357589
0.023795988 -0.046966486 -0.10485789
0.032981724 -0.046298102 -0.10944914
0.062761985 -0.049406905 -0.10602405
-0.37698591 -0.010953497 -0.10952129
-0.36206922 -0.010147359 -0.10953894
0.073034912 -0.092619725 -0.095232479
0.090183482 -0.09838181 -0.097097933
0.10391311 -0.098709524 -0.097838469
0.11568345 -0.091657944 -0.091908574
0.048540026 -0.085649237 -0.098369643
0.057624776 -0.089285538 -0.099434406
0.089499898 -0.08476375 -0.097665489
0.111473 -0.083825096 -0.099745527
0.05766052 -0.072550833 -0.095821805
0.073964044 -0.073115557 -0.090693109
0.089499898 -0.076798677 -0.094575584
0.11147301 -0.073756017 -0.099111363
0.042428218 -0.064483739 -0.098722652
0.050856411 -0.062488254 -0.098240517
0.097071417 -0.063088834 -0.099933267
0.11862533 -0.069996402 -0.090144992
-0.012460519 -0.05456572 -0.096791372
-0.0089717796 -0.054263208 -0.099545047
0.0017813831 -0.055934627 -0.09096837
0.018579617 -0.056130156 -0.097481705
0.041280057 -0.056164429 -0.097902834
0.06996984 -0.050581619 -0.094088651
0.077492014 -0.056528255 -0.098383784
0.023850188 -0.048242778 -0.09208551
0.034997303 -0.047055282 -0.095701903
0.058628507 -0.047970362 -0.095244169
0.065855712 -0.049032159 -0.092232421
0.10891717 -0.085273691 -0.08256384
0.11817136 -0.08668872 -0.087730169
0.07361643 -0.07807941 -0.088687606
0.09979488 -0.071614176 -0.084088638
0.11973036 -0.074666515 -0.085899934
0.12084925 -0.077839158 -0.086346611
-0.011427045 -0.065815598 -0.084246755
0.0015786432 -0.062758379 -0.080449402
0.012476003 -0.061254222 -0.083779544
0.10044795 -0.0674918 -0.086933859
-0.013897172 -0.054212503 -0.087872826
-8.5446052e-05 -0.052027863 -0.088358477
0.054309841 -0.056696605 -0.085253708
0.075751223 -0.054468326 -0.08205846
0.02112552 -0.049174491 -0.085136853
0.034531809 -0.047626294 -0.089053474
0.053014036 -0.047511995 -0.087409921
0.070410326 -0.049458243 -0.080840148
-0.37486881 -0.013260231 -0.086090036
-0.35403639 -0.01489957 -0.087374538
-0.3421157 -0.012806887 -0.088574693
0.0085331686 -0.10650319 -0.074540198
-0.0022021153 -0.095395595 -0.072285935
0.0076389182 -0.099325448 -0.0738592
0.0070200465 -0.0894861 -0.076569289
0.0076792291 -0.072792828 -0.073725417
0.011092666 -0.077054471 -0.074197695
-0.00043663906 -0.064459741 -0.072309814
0.0077448348 -0.052352309 -0.078804627
0.011682827 -0.058715288 -0.075797454
-0.37168711 -0.01471846 -0.071507156
-0.36488917 -0.013541155 -0.076832063
-0.35527208 -0.012991857 -0.077806108
-0.34467864 -0.015175554 -0.075843126
-0.0025905694 -0.098467633 -0.068702877
0.0020463266 -0.095664352 -0.067591198
0.015067628 -0.092501864 -0.068072721
0.0077365558 -0.089203671 -0.067591198
0.0094529372 -0.074763857 -0.06269078
0.0072086868 -0.063628562 -0.065542474
0.03482328 -0.062223591 -0.061064459
-0.014046033 -0.059270505 -0.067960106
0.0093507068 -0.053981677 -0.067364961
0.033842616 -0.051235616 -0.060296066
-0.35522389 -0.016927693 -0.063844673
-0.34125185 -0.014323976 -0.060135886
-0.0020694679 -0.10097086 -0.059201874
0.011038261 -0.10680944 -0.053027783
0.0063245129 -0.095619261 -0.054064892
0.0085395873 -0.083117664 -0.059104778
0.0075987931 -0.073423833 -0.053927816
0.016322501 -0.061782766 -0.058351979
0.07153935 -0.06060835 -0.054209467
-0.015243016 -0.059247792 -0.059035353
0.0066355397 -0.056430284 -0.05514171
0.028792361 -0.053289697 -0.052728232
0.036710404 -0.051477566 -0.056050166
0.09193527 -0.057904452 -0.050350152
0.067695908 -0.049173664 -0.057241276
0.07173726 -0.049413115 -0.052893799
-0.36509427 -0.016797293 -0.052241832
-0.34253156 -0.01440087 -0.059705433
0.0081560574 -0.06459254 -0.042330001
0.02363633 -0.064287089 -0.044507563
0.073076159 -0.062781386 -0.043299031
0.0073586283 -0.058152359 -0.043994889
0.014291042 -0.056196302 -0.049144708
-0.34719113 -0.018932788 -0.044988833
0.029282954 -0.074784756 -0.030101471
-0.043870833 -0.061732151 -0.03179004
-0.02656207 -0.062192343 -0.033501714
-0.0027808528 -0.064429924 -0.034397893
0.017273117 -0.062936455 -0.0381823
0.067838058 -0.062891424 -0.034423195
-0.14240223 -0.053090297 -0.031225005
-0.049033795 -0.055950053 -0.031753786
-0.033858567 -0.059826426 -0.033276785
0.015608004 -0.054929823 -0.034421664
0.028416779 -0.051272132 -0.034423199
0.055938754 -0.053773612 -0.034494549
0.065343723 -0.050423224 -0.034707021
0.080560818 -0.059864435 -0.034423199
0.099854976 -0.057872586 -0.0381823
0.12596795 -0.05301214 -0.031699892
0.13945588 -0.050987996 -0.031961814
0.23658255 -0.054313034 -0.030451989
0.25515389 -0.052811958 -0.031457245
0.27053767 -0.052482408 -0.031243049
0.28879201 -0.050276056 -0.03203088
-0.16037819 -0.044924874 -0.033142854
-0.13046189 -0.042371545 -0.033653416
-0.12226737 -0.040000595 -0.034127723
-0.062677726 -0.044600353 -0.033207752
-0.057437278 -0.04060002 -0.034007877
-0.040069748 -0.047610644 -0.03191366
-0.017718803 -0.043561708 -0.0334155
0.0059820563 -0.046650365 -0.032797743
0.012872432 -0.047088198 -0.032710172
0.078835443 -0.044241667 -0.03327952
0.081443727 -0.049354758 -0.032256708
0.10609439 -0.046712745 -0.033524945
0.1204794 -0.047342263 -0.031221606
0.17636983 -0.041820362 -0.03387285
0.2264383 -0.041816968 -0.033819586
0.24893126 -0.040067278 -0.034168653
-0.184329 -0.03196542 -0.031787053
-0.13362455 -0.032246046 -0.032831587
-0.084825486 -0.03964946 -0.034197971
-0.047511391 -0.03596944 -0.033576351
-0.03657819 -0.035921648 -0.03356678
-0.028243791 -0.038124632 -0.034007363
-0.019763639 -0.036179218 -0.033618152
-0.0043266704 -0.03724435 -0.03383125
0.062801659 -0.037533022 -0.033889003
0.09486042 -0.031697173 -0.032721583
0.10408513 -0.039978705 -0.034132145
0.14584285 -0.030395297 -0.0325219
0.20971027 -0.033303503 -0.033123784
-0.12202331 -0.028792255 -0.032140791
-0.063338988 -0.026243322 -0.031630963
0.18263225 -0.024626445 -0.030668156
0.19587043 -0.027909899 -0.030677229
0.20428972 -0.0290005 -0.032263301
0.22598401 -0.026159411 -0.03159304
0.23172966 -0.026273556 -0.031717781
-0.31165719 -0.017333489 -0.032046936
-0.3097299 -0.017512333 -0.033932034
-0.013411128 -0.077386007 -0.022989919
0.053892493 -0.076770633 -0.024129748
0.075692952 -0.076691836 -0.026188724
0.083246127 -0.076610908 -0.026448842
-0.17580093 -0.063714311 -0.021934444
-0.16353135 -0.062134203 -0.025127593
-0.096137851 -0.065075137 -0.021951569
-0.06426774 -0.065992974 -0.021579783
-0.057256982 -0.0628535 -0.024666663
-0.040190831 -0.068267077 -0.029447965
0.059569437 -0.06367664 -0.023865582
0.062241629 -0.065313026 -0.021458846
0.14946277 -0.060898036 -0.026019171
0.22878745 -0.061716296 -0.025494104
0.3078388 -0.065194443 -0.021062935
0.31119421 -0.064082831 -0.022390028
-0.22720781 -0.056772023 -0.021354858
-0.20120247 -0.057939786 -0.024468787
-0.18628383 -0.054143701 -0.028332397
-0.11621449 -0.053989589 -0.025387065
-0.070606865 -0.056219887 -0.026666287
-0.0019173201 -0.05621849 -0.029123571
0.04233171 -0.058800023 -0.027393764
0.056634456 -0.056819413 -0.028681826
0.13195184 -0.053417042 -0.029882569
0.14546074 -0.05883652 -0.027397703
0.33137831 -0.05681777 -0.025710464
-0.25039563 -0.043654673 -0.025797373
-0.23119988 -0.041549508 -0.0287324
0.33021015 -0.046931393 -0.029153092
0.35879672 -0.046132568 -0.020895446
-0.23431088 -0.038450677 -0.029003577
0.32680148 -0.032994129 -0.028850649
-0.34212467 -0.020907031 -0.025302064
-0.28352368 -0.021757651 -0.022007605
-0.20708153 -0.021908663 -0.027372528
-0.09517657 -0.020688377 -0.02791224
-0.068090536 -0.022942778 -0.029421981
-0.023437185 -0.020975959 -0.028104838
-0.013538616 -0.020705286 -0.027923565
0.21409333 -0.028592184 -0.029683851
0.24614298 -0.021627104 -0.026936239
0.27240506 -0.024036145 -0.027466798
0.28328499 -0.024836857 -0.027757458
0.32614499 -0.020085476 -0.021062579
-0.33648363 -0.017593421 -0.024579501
-0.19813396 -0.016445424 -0.02327917
-0.1889649 -0.017860238 -0.022462273
-0.17047712 -0.016429985 -0.02480346
-0.12990268 -0.01602599 -0.024789874
-0.11791334 -0.01387145 -0.022305707
-0.10637456 -0.014493519 -0.023234613
-0.066513687 -0.0161791 -0.024892585
-0.042382795 -0.017769087 -0.025957324
0.014206488 -0.01327704 -0.021418102
0.025437865 -0.018162763 -0.026220866
0.034442626 -0.014116285 -0.022671308
0.044757426 -0.01777932 -0.025964066
0.085633278 -0.013145917 -0.021222305
0.17805132 -0.01637838 -0.025177822
0.18906023 -0.017644975 -0.026020754
0.21485063 -0.019360317 -0.025218623
0.24896717 -0.016422631 -0.024807818
0.25114581 -0.016578889 -0.025311362
0.29666847 -0.014947848 -0.022758765
-0.11779417 -0.070332862 -0.014183414
-0.074725613 -0.070584334 -0.013811862
-0.065118901 -0.070450075 -0.014256312
-0.014856682 -0.077694722 -0.013471964
0.0036373516 -0.07764934 -0.017373798
0.038692608 -0.0715627 -0.010371173
0.05204596 -0.077982545 -0.010011229
0.066908538 -0.077960804 -0.010389372
0.094026573 -0.077338599 -0.019937573
0.10736147 -0.076507732 -0.013863126
0.13141082 -0.070866331 -0.010329392
0.23628977 -0.071345687 -0.011446181
-0.18202454 -0.066885673 -0.016169528
-0.062105808 -0.067584291 -0.018244363
-0.052491453 -0.067757532 -0.017988408
0.031100733 -0.069465108 -0.015465495
0.1851851 -0.067186207 -0.018700412
0.2695213 -0.069545977 -0.015291896
0.31410903 -0.068731554 -0.015155313
0.3349241 -0.064552896 -0.019274943
0.3489984 -0.063147612 -0.017491397
0.35151947 -0.062632747 -0.017212087
-0.25847071 -0.056547001 -0.011025401
-0.10871588 -0.059083764 -0.019812973
0.37269437 -0.049156692 -0.014655094
-0.30812842 -0.036461934 -0.016206011
0.35563904 -0.030988395 -0.011714584
-0.34150335 -0.025633857 -0.012573931
-0.31182152 -0.027580528 -0.018282168
-0.30344927 -0.025563724 -0.019830037
-0.1795381 -0.021233488 -0.018472265
0.33615223 -0.02310089 -0.019147392
0.34673533 -0.025703426 -0.015745848
-0.35774076 -0.019192856 -0.017972758
-0.34879929 -0.01926055 -0.011894626
-0.32648841 -0.017991375 -0.018621569
-0.23198196 -0.010824392 -0.016363744
-0.20888603 -0.011396881 -0.017546769
-0.18487974 -0.019322064 -0.019295713
-0.17929137 -0.013295656 -0.018571002
-0.16716728 -0.013908363 -0.017965913
0.051478706 -0.010044005 -0.016590364
0.10319842 -0.011999438 -0.019510321
0.14159971 -0.010705523 -0.017733
0.28699911 -0.011460474 -0.018644024
0.2924757 -0.010582068 -0.016697276
0.33332154 -0.018214282 -0.014266427
-0.29807097 -0.0099636437 -0.010915607
-0.22953899 -0.0085947532 -0.013060013
-0.096520998 -0.0090857698 -0.015159477
-0.08728791 -0.0094027882 -0.015632864
-0.042573459 -0.007432091 -0.011755718
0.1235076 -0.008792053 -0.014720882
0.15976016 -0.0073649683 -0.01212343
0.16199934 -0.0078748185 -0.013587475
0.26444462 -0.0078545511 -0.013557105
0.30134198 -0.0099432142 -0.014614125
0.29568473 -0.10193862 -0.0052941213
0.29344356 -0.085160501 -0.00082370051
-0.14348084 -0.072354764 -0.0062936195
-0.086505271 -0.072572514 -0.00516875
-0.077623248 -0.073144719 -0.0022099335
-0.043625809 -0.071812958 -0.0090963226
-0.03467536 -0.074911043 -0.0024233775
0.0030966755 -0.076244049 -0.0056488826
0.033916369 -0.078195281 -0.004218068
0.054592043 -0.072462864 -0.0056363042
0.060325637 -0.075431302 -0.0058162035
0.095274158 -0.07778839 -0.0073740091
0.10410598 -0.077110887 -0.0059501603
0.14085245 -0.072246507 -0.0070415474
0.16858906 -0.073388562 -0.0013766012
0.18884294 -0.072801262 -0.0041737845
0.19753443 -0.072757326 -0.004414185
0.20840336 -0.071626931 -0.0099668819
0.21638009 -0.07335709 -0.0017700949
0.26374859 -0.072219208 -0.00699664
0.27780908 -0.073324062 -0.0014866716
0.28313848 -0.072542526 -0.0053801574
0.31747583 -0.072174862 -0.005144137
-0.20800903 -0.067638978 -0.0080765225
-0.10359432 -0.062937438 -0.0038970513
0.36146301 -0.067394197 -0.0042290613
0.37269634 -0.064134263 -0.004254146
0.38078672 -0.060505576 -0.0022070939
-0.29020113 -0.050490312 -0.0029486665
-0.12161463 -0.050335228 -0.0082986718
-0.2968626 -0.049219288 -0.00026648943
0.37724796 -0.043955095 -0.0088396445
-0.33074754 -0.038919412 -0.0024535391
-0.3637712 -0.025525538 -0.0063603707
-0.18306118 -0.016331065 -0.0050848722
-0.17867225 -0.01339701 -0.0093790162
-0.28350013 -0.0096286852 -0.0037040222
-0.2700986 -0.0012765897 -0.0027838054
-0.26700127 -0.0059788148 -0.0025630433
-0.22504586 -0.0071554375 -0.0093090404
-0.21219388 -0.0056669815 -0.0014480756
-0.18575974 -0.0065494613 -0.0059659816
-0.12769988 -0.0068273484 -0.008739938
-0.047562703 -0.0064479327 -0.0068478417
-0.034974225 -0.0059931274 -0.0045797834
-0.025051275 -0.0060666995 -0.0049466761
0.13977578 -0.005316902 -0.0015712908
0.17682578 -0.0060312003 -0.0054548462
0.18472122 -0.0067886049 -0.0092417244
0.32194924 -0.0099739777 -0.00096007588
-0.29816058 0.0090693068 -0.0033920337
-0.27769294 0.0094012022 -0.0024266241
-0.26891887 0.008147642 -0.0019295353
-0.25989139 0.0035296134 -0.0016183961
-0.31948832 0.018391198 -0.0028707809
-0.30526578 0.016694549 -0.0032511486
-0.27933061 0.015547112 -0.0022263508
-0.35360223 0.028622864 -0.00022247179
-0.34113005 0.027316716 -0.0012315748
-0.31156394 0.028957725 -0.0030095775
-0.29624325 0.031483062 -0.0022492793
-0.34159881 0.049210951 -0.0015106368
-0.32750547 0.063380584 -0.0023273008
-0.31318116 0.064998217 -0.0013568264
-0.35064963 0.071122408 -0.001191309
-0.34057865 0.08368317 -0.0019345963
-0.33820882 0.085279837 -0.001867909
-0.36739874 0.10324557 -0.00053681975
0.29569259 -0.094500385 0.0012653536
0.30118981 -0.099928208 0.0056229401
0.29689577 -0.086029232 0.0011285574
-0.19375622 -0.070210159 0.0019174521
-0.17601617 -0.070994578 0.006777891
-0.16329099 -0.071975805 0.0081922049
-0.11596229 -0.072159581 0.0073039755
-0.098225564 -0.071862467 0.0088403244
-0.068062417 -0.073461011 0.00057406467
-0.043634478 -0.075292826 0.0084713688
0.012837638 -0.072056815 0.0078345276
0.022432916 -0.072882235 0.0035656602
0.036726512 -0.072273597 0.0067133657
0.049879674 -0.078299522 0.00099293503
0.050779901 -0.078184485 0.0043053715
0.061532285 -0.073003352 0.0028040649
0.083912276 -0.078320965 0.00024372785
0.13282904 -0.072984777 0.0032576446
0.21918324 -0.07356634 0.0006118032
0.24392724 -0.072476618 0.0059850123
0.26110297 -0.072623819 0.0050407872
0.29643118 -0.072910048 0.0059298342
0.31329453 -0.073021196 0.0024189528
0.33920941 -0.071546838 0.00021544335
-0.098673239 -0.066640288 0.0057893004
0.38409269 -0.058003537 0.0035730628
0.37787122 -0.040904094 0.00037954451
-0.34790701 -0.032529399 0.0059824092
-0.37036121 -0.024546126 0.0060967244
-0.3651123 -0.028929003 0.0028947995
-0.17529589 -0.022872675 0.0028094035
-0.37247774 -0.013674831 0.0026452215
-0.19188894 -0.01681377 0.0011724075
-0.18185914 -0.012875288 0.0043435413
-0.31330913 -0.0096956091 0.0073812976
-0.30361733 -0.0079090027 0.0044539683
-0.29452321 -0.0062332507 0.0034368827
-0.2829228 -0.0060534095 0.0015122037
-0.27733475 -0.0073911231 0.0089692287
-0.24679315 -0.0054912847 0.0011232275
-0.23765191 -0.0055404971 0.0010870062
-0.22528681 -0.0072353343 0.0038145445
-0.21289058 -0.006750945 0.0042447825
-0.19414875 -0.006101849 0.0036009795
-0.15280548 -0.0061315377 0.0052700196
-0.13084492 -0.0061526587 0.0053753462
-0.049125619 -0.0050988211 0.00011998818
-0.030912545 -0.005220416 0.00072636927
-0.024872366 -0.0056955041 0.0030955728
-0.0050736032 -0.0060439389 0.0048331725
0.08987397 -0.0056116646 0.0026774751
0.19434693 -0.0062967725 0.006782657
0.24235252 -0.0068157851 0.0093776193
0.25331423 -0.0062076896 0.0063372562
0.26240408 -0.0057965051 0.0042814119
-0.31484899 0.011609418 0.0022728145
-0.30641198 0.019453194 0.00050551933
-0.35511553 0.022147097 4.7951296e-05
-0.31794751 0.024684513 0.0028062819
-0.29130405 0.031486582 0.0017485269
-0.31675762 0.04571826 0.002546997
-0.30508333 0.049093202 0.0015923523
-0.34463295 0.051630408 0.0012494781
-0.33269286 0.050289594 0.002188026
-0.31600454 0.057390429 0.001845069
-0.33314148 0.06495399 0.0021825146
-0.36723489 0.071314462 9.8629884e-05
-0.34951684 0.097512186 0.0015644502
-0.35507572 0.10763974 0.00076804037
-0.34590691 0.10677222 0.00070818816
-0.15365936 -0.070168458 0.014426314
-0.11769191 -0.071055353 0.013013861
-0.053425431 -0.071622886 0.019675434
-0.047548987 -0.074018471 0.016008215
-0.031624783 -0.071075551 0.012909366
-0.0082684113 -0.077563658 0.019261794
0.0065651196 -0.077555053 0.01929846
0.028249528 -0.07760375 0.018082971
0.050806616 -0.07789062 0.011926727
0.073385067 -0.077608854 0.017678253
0.099365145 -0.076961502 0.018469863
0.12099025 -0.072410651 0.018270871
0.15149504 -0.07146506 0.010528814
0.2118405 -0.071284853 0.011614944
0.24523073 -0.07111112 0.012536836
0.29537597 -0.071859822 0.010192078
-0.12118852 -0.068949327 0.016227558
-0.086153999 -0.067298844 0.018666107
-0.063847773 -0.067090139 0.018974466
-0.04687814 -0.068838932 0.016390666
0.061591495 -0.066721126 0.01943795
0.13000111 -0.069908768 0.014724949
0.14462459 -0.067948714 0.017470695
0.17466266 -0.068749987 0.016348885
0.29265863 -0.067503572 0.018378211
0.33094299 -0.068973809 0.013261238
0.36188388 -0.059561007 0.016231135
0.37058729 -0.058159884 0.013579907
-0.28322959 -0.046695441 0.015666658
-0.14425533 -0.037201706 0.010467885
-0.35333741 -0.023238663 0.013050491
-0.31134337 -0.023394128 0.018005995
-0.30649212 -0.028377585 0.019257553
-0.17977531 -0.021148618 0.011493889
-0.1689796 -0.025497973 0.016393475
-0.34864676 -0.018677793 0.017132008
-0.31661621 -0.015090615 0.012833879
-0.29586107 -0.016698254 0.018052772
-0.18755552 -0.01836453 0.015230794
-0.17174426 -0.014665712 0.011119435
-0.11250818 -0.012144517 0.01972696
-0.085729577 -0.010606485 0.017430289
-0.041491367 -0.01174492 0.019130258
0.19047362 -0.011182662 0.018541772
-0.2506502 -0.0078185378 0.011228694
-0.22664039 -0.0091268271 0.013899187
-0.21032003 -0.0092417365 0.014296874
-0.17570509 -0.0075615454 0.011619849
-0.13744484 -0.0082113892 0.013853806
-0.081021957 -0.0088168401 0.014757898
-0.058370378 -0.0092039183 0.015335903
0.088904053 -0.0072832182 0.011013306
0.12757696 -0.0079374919 0.013469962
0.19386882 -0.0098094121 0.016484994
0.20878078 -0.0097165797 0.01634597
0.235589 -0.0073283482 0.011940336
0.011511946 -0.076359764 0.027149543
0.078216381 -0.076623805 0.02639927
0.10578339 -0.076254964 0.022218818
0.11713997 -0.07276009 0.021529624
-0.11313763 -0.065880276 0.020762008
-0.0921866 -0.060509391 0.02624133
-0.071154736 -0.061633036 0.025486529
-0.065380841 -0.063130885 0.023496289
-0.005934007 -0.065823019 0.020846602
0.13239524 -0.062373966 0.024936398
0.14121164 -0.060784113 0.026065137
0.18510845 -0.063467279 0.024184799
0.19877182 -0.063406758 0.024339216
0.21403897 -0.063950673 0.023512257
0.26255131 -0.06614688 0.020382898
0.32826146 -0.063872777 0.021227153
-0.22387663 -0.05835196 0.020623496
-0.19750375 -0.052430212 0.028487675
-0.12122011 -0.050602201 0.02762958
-0.10451651 -0.058457151 0.027619945
-0.087647244 -0.059247129 0.027089253
0.032182824 -0.056186892 0.029145194
0.045932066 -0.059073135 0.027212828
0.2281597 -0.05774935 0.028150726
0.27992383 -0.059241794 0.027151251
0.30919525 -0.059128907 0.026350312
0.32200032 -0.051658746 0.029464746
0.34082514 -0.058525629 0.022645527
-0.24876674 -0.041884333 0.026400698
-0.23786846 -0.04565895 0.027175948
-0.22331347 -0.042406082 0.029437156
-0.13676256 -0.04124153 0.029551318
0.33543774 -0.043321189 0.028918196
0.34676826 -0.047390729 0.025392544
-0.28104517 -0.037646741 0.022277126
-0.24070591 -0.032238994 0.028698852
-0.32749137 -0.021914976 0.020169117
-0.2634756 -0.027714979 0.025416808
-0.25766191 -0.027546052 0.025988732
-0.23486306 -0.023820933 0.027439935
-0.16786349 -0.025961813 0.027268903
-0.11698551 -0.020734491 0.027943101
-0.089388691 -0.020079259 0.027504321
0.20175698 -0.024874667 0.024832729
0.21254534 -0.020967776 0.028233025
0.22586934 -0.024832552 0.027204258
0.24761349 -0.024989143 0.022757554
0.26662961 -0.026713304 0.023900939
0.27760828 -0.026197296 0.024409134
0.28188607 -0.023949889 0.027875379
-0.22643632 -0.018933458 0.024650943
-0.17784686 -0.019218462 0.026406989
-0.12893519 -0.012884776 0.020832354
-0.11762179 -0.019550297 0.027150063
-0.10492127 -0.014206042 0.022805337
0.12411775 -0.014144145 0.022567477
0.13639358 -0.014684895 0.023631729
0.15950848 -0.013049631 0.021337979
0.16912526 -0.014951423 0.024186438
0.18423627 -0.015849888 0.024262482
0.23440048 -0.015594697 0.024655975
0.24006549 -0.017534647 0.025947483
0.25535628 -0.019744745 0.025749397
0.2696586 -0.014660573 0.023750877
0.29036525 -0.014566742 0.022910817
0.093089186 -0.074661776 0.030245051
-0.0056525227 -0.061465498 0.036501639
0.0037643178 -0.062812164 0.0345659
0.020254476 -0.063176349 0.035496958
0.056130163 -0.069608226 0.034171395
0.064884424 -0.065814443 0.0359056
0.075493716 -0.069089867 0.034423199
0.095033325 -0.069615692 0.034164947
-0.10483861 -0.053713769 0.03080621
-0.0097788256 -0.056515984 0.034410153
0.0028091152 -0.052653488 0.031518437
0.025311848 -0.058685642 0.035012465
0.067284644 -0.058921751 0.0345659
0.078823425 -0.055677786 0.0345659
0.084013693 -0.051273577 0.0345659
0.10528099 -0.055821195 0.0345659
0.11702 -0.057060506 0.032615591
-0.20279571 -0.044599999 0.030776415
-0.17199928 -0.046566904 0.032247748
-0.16331403 -0.041851819 0.033756446
-0.11269957 -0.048933301 0.032341063
-0.083361357 -0.045233898 0.033080984
-0.022457801 -0.049723189 0.03438786
0.00011638273 -0.045385249 0.033050776
0.015115846 -0.047356218 0.033519216
0.022510128 -0.049800161 0.032167755
0.10173137 -0.041474383 0.033833023
0.11071942 -0.044241283 0.033279665
0.12441968 -0.046910748 0.032745771
0.13052106 -0.044517249 0.033236817
0.1723164 -0.040444132 0.034117997
0.31714755 -0.046940267 0.030959472
-0.22192681 -0.039998721 0.030071551
-0.17414117 -0.034716934 0.032815255
-0.16167998 -0.036508881 0.033684239
-0.14562888 -0.034260534 0.033234574
-0.13212684 -0.036695197 0.033721384
-0.12730016 -0.038350675 0.034052588
-0.11060168 -0.034870714 0.033356365
-0.079369932 -0.039556798 0.034216508
-0.053034686 -0.035582434 0.033498995
-0.011719083 -0.037575487 0.033897497
-0.0057673426 -0.034291625 0.033240538
0.013415007 -0.038019393 0.033986308
0.07112281 -0.030612506 0.032504816
0.21552883 -0.03259879 0.032982823
0.25128922 -0.033060305 0.033075068
0.31456769 -0.031940442 0.030823328
-0.19879732 -0.02974689 0.030760597
-0.18880521 -0.025959114 0.030394865
-0.061149467 -0.028073754 0.03199685
-0.055005308 -0.028390206 0.032060213
-0.03885977 -0.025617393 0.031213123
-0.029910024 -0.029974196 0.032377206
-0.0060126968 -0.026179213 0.031589359
0.041368917 -0.024226272 0.030281514
0.072300896 -0.028981134 0.032178529
0.19026381 -0.029151667 0.032293431
0.20298898 -0.026200943 0.030905552
0.21172965 -0.026008576 0.030783905
-0.34087163 -0.017202295 0.0359056
-0.30753571 -0.019037638 0.037293952
-0.012410965 -0.063628107 0.043742746
0.0094584245 -0.063900381 0.041643839
0.079056814 -0.061868489 0.042657726
0.088066608 -0.060452186 0.041874781
0.01766742 -0.056448061 0.044346571
0.039584961 -0.052164666 0.049097329
0.049191158 -0.051575713 0.043363884
0.050532032 -0.05127985 0.043859631
0.092565171 -0.058424264 0.047378711
0.070568584 -0.049633928 0.048884802
-0.3512691 -0.018467102 0.048207395
-0.33266824 -0.019113319 0.048990037
-0.00091694552 -0.092657909 0.054064356
0.0070725442 -0.096754968 0.0597401
0.010246196 -0.095340326 0.059740104
0.010249461 -0.08869148 0.057405803
0.0056195031 -0.079590291 0.055986568
0.0086015342 -0.062855445 0.051195983
0.014818563 -0.063002273 0.051038109
0.034064271 -0.06305477 0.054140493
0.045648586 -0.063438609 0.054512277
0.058041066 -0.062865309 0.054779537
0.093040958 -0.052860998 0.053021234
0.072567865 -0.049463816 0.051973343
-0.35711199 -0.015474618 0.05317238
-0.33970389 -0.015069322 0.051798109
0.0060256044 -0.1075768 0.068333611
0.0070211506 -0.095056102 0.064091921
0.0088467682 -0.079773851 0.061680846
0.031179456 -0.061648313 0.063114703
-0.0068889805 -0.059456587 0.069357038
0.0017044409 -0.055241026 0.067133009
0.075349204 -0.057020172 0.067220144
0.08042334 -0.05735983 0.061703268
-0.35365534 -0.014388779 0.062520944
-0.0013652011 -0.10269167 0.071607836
0.0078108623 -0.098819569 0.072800502
0.01026586 -0.098944999 0.0738592
0.007055128 -0.081854776 0.075346433
0.010683689 -0.089928396 0.076740861
-0.0012846668 -0.064554438 0.072337024
0.0082402304 -0.06565322 0.072411202
0.07392966 -0.049810231 0.072546832
-0.3684994 -0.015158074 0.070139602
0.095598564 -0.094195291 0.088484198
0.085709251 -0.086955309 0.087507881
0.096358329 -0.077623866 0.082299039
-0.019191016 -0.064891547 0.084266879
-0.012171923 -0.057376463 0.080556981
0.012250613 -0.05782409 0.081082322
0.051504422 -0.056397878 0.088799044
0.062645011 -0.054683499 0.089766718
0.060347509 -0.047943883 0.082251444
-0.35209125 -0.015516911 0.080966465
-0.33801907 -0.013331959 0.080928139
0.071087472 -0.091963723 0.099635407
0.082105979 -0.093450144 0.095386334
0.11287401 -0.097368315 0.093843088
0.051186837 -0.086098269 0.099983409
0.111473 -0.085711822 0.096543618
0.042371184 -0.075690009 0.096484952
0.052975211 -0.078903928 0.092634484
0.070869938 -0.075259164 0.090182729
0.089499898 -0.079795107 0.093723536
0.072534598 -0.068975613 0.096471861
0.085691616 -0.061298557 0.098451763
0.095919728 -0.061800599 0.096936852
0.12057147 -0.066332646 0.096578285
-0.013186399 -0.052381661 0.098444231
0.0018341141 -0.050996535 0.092755049
0.049072456 -0.055125386 0.098198108
0.064882331 -0.053126443 0.098613694
0.081405297 -0.054603193 0.099328086
0.013066446 -0.049024932 0.093833588
0.032503396 -0.047245622 0.094770521
0.059334904 -0.048138093 0.09864372
0.11484717 -0.097623169 0.10588758
0.043052163 -0.077989429 0.10676058
0.056585908 -0.079483718 0.10971861
0.062054895 -0.07200712 0.10643579
0.11429211 -0.0799082 0.10372199
0.04965331 -0.064412899 0.10305078
0.072305098 -0.068508543 0.10707188
-0.018068925 -0.051746197 0.10598488
-0.0068826415 -0.053929519 0.1017358
0.0038185767 -0.058467396 0.10361294
0.024323635 -0.056016594 0.10393655
0.039811976 -0.055120535 0.1037195
0.042000443 -0.054794006 0.1034513
0.069659367 -0.054298908 0.10364205
0.081554726 -0.054459281 0.100576
0.09702538 -0.056496833 0.10344508
0.012260824 -0.047935385 0.10510949
0.028885197 -0.046343558 0.10862377
-0.35728052 -0.010741915 0.10347345
0.11340974 -0.096120663 0.11027846
0.080992773 -0.081814751 0.11469278
0.11483396 -0.085528515 0.11649124
0.091634579 -0.071099497 0.11726271
0.094504088 -0.068729416 0.11560196
-0.0036435653 -0.04854963 0.11290488
0.0084200073 -0.047297269 0.1147726
0.015723605 -0.046633393 0.1151159
0.030029818 -0.045923024 0.11625892
-0.016783999 -0.049570255 0.12489089
0.0094209593 -0.045750093 0.126894
0.019374531 -0.045712955 0.12115618
0.039429478 -0.045705907 0.12630978
-0.023925656 -0.047584977 0.13593861
-0.0047105933 -0.046095673 0.13279083
0.044347771 -0.046169065 0.13372807
-0.035618078 -0.051270247 0.14446819
-0.018942215 -0.055880126 0.14500517
-0.0016182475 -0.053775374 0.14497368
-0.02457824 -0.046873655 0.14908224
0.020334128 -0.042862486 0.14769721
0.032864273 -0.047742136 0.14882436
0.040658917 -0.045460157 0.14030558
-0.0014157454 -0.043067656 0.15134075
-0.021462588 -0.043256447 0.16174373
-0.017931007 -0.046028621 0.16470385
0.0021899994 -0.044185769 0.16669413
-0.036482804 -0.042472742 0.17732309
0.015712215 -0.040822223 0.17954218
-0.025761917 -0.043242805 0.18831702
-0.0038256813 -0.038920477 0.18478505
-0.033729039 -0.041614294 0.19945411
-0.015587165 -0.043347288 0.19679806
-0.0075484165 -0.043997474 0.19394031
-0.0070047975 -0.037800435 0.19532281
0.0086994953 -0.039530307 0.19309832
-0.038512412 -0.040544342 0.2078741
-0.041014478 -0.038617082 0.20501849
-0.024220696 -0.03707213 0.20545547
-0.00057626702 -0.037796494 0.20722324
0.0027400311 -0.039987415 0.2070092
-0.059210304 -0.040037483 0.2132906
-0.041653458 -0.041952051 0.21047375
-0.024524018 -0.043975919 0.21350202
-0.0049462039 -0.040011331 0.21391942
-0.016613379 -0.035557352 0.21642658
-0.049139597 -0.036064349 0.22716632
-0.015967658 -0.035057291 0.22517782
-0.054252394 -0.035483882 0.23441245
-0.048999619 -0.037290156 0.23545769
-0.035600081 -0.038022202 0.2371531
-0.014612984 -0.035642821 0.23629184
-0.064391881 -0.035480611 0.24223004
-0.059444111 -0.033980675 0.24772999
-0.042290293 -0.032086987 0.24938361
-0.035381734 -0.032880738 0.2416091
-0.027319156 -0.037437037 0.24159907
-0.066578612 -0.033024073 0.25871673
-0.043339018 -0.036153857 0.25063202
-0.035605919 -0.035596374 0.25658694
-0.028718974 -0.036009889 0.25020999
-0.05068225 -0.030614551 0.26422647
-0.041881599 -0.034411885 0.26678821
-0.049764201 -0.031826224 0.28562525
-0.078079358 -0.032351121 0.29668599
