# .PCD v0.7 - Point Cloud Data file format
VERSION 0.7
FIELDS x y z
SIZE 4 4 4
TYPE F F F
COUNT 1 1 1
WIDTH 870
HEIGHT 1
VIEWPOINT 0 0 0 1 0 0 0
POINTS 870
DATA ascii
-0.06075244 -0.031274568 -0.31329471
-0.052037798 -0.035062365 -0.31652606
-0.065613143 -0.033871248 -0.2932722
-0.035675891 -0.034490839 -0.29382122
-0.052917905 -0.043542072 -0.27680123
-0.045440957 -0.043459684 -0.27810705
-0.054845251 -0.035836082 -0.27078706
-0.037363127 -0.044290535 -0.26492703
-0.062201861 -0.039983202 -0.26608667
-0.033700112 -0.031997632 -0.26656002
-0.047579333 -0.044701744 -0.2584044
-0.013779152 -0.044863276 -0.25453222
-0.023949748 -0.034084667 -0.25410846
-0.02766289 -0.045348536 -0.24814269
-0.01841305 -0.045519371 -0.24543124
-0.024623303 -0.033001468 -0.24982998
-0.0051220045 -0.037805546 -0.2408314
-0.04282169 -0.034309819 -0.23122534
-0.034891367 -0.033676099 -0.23858719
-0.011763682 -0.046867713 -0.22404289
-0.0080760829 -0.047097012 -0.22040462
-0.018123524 -0.034537893 -0.22422424
-0.0016870332 -0.035863612 -0.22483644
-0.013136299 -0.047685668 -0.21106756
0.0024053245 -0.035686009 -0.21187606
-0.0082287733 -0.048004746 -0.20600575
0.0084672952 -0.048327856 -0.20087886
-0.025276123 -0.035602573 -0.20647961
0.0036718124 -0.03567709 -0.2079172
0.0083118193 -0.049068172 -0.18913549
-0.0082805902 -0.050037466 -0.17375916
0.0015863329 -0.049746901 -0.17836839
0.015403839 -0.049964223 -0.17492068
0.032084111 -0.049876556 -0.1717276
-0.023303311 -0.037961502 -0.17056352
-0.0017689629 -0.037524682 -0.17444302
-0.012077301 -0.050652564 -0.16400145
-0.0041471496 -0.03789236 -0.16831563
-0.022840025 -0.040456425 -0.1558869
0.029811181 -0.040181167 -0.1576255
-0.017451892 -0.038446616 -0.15907902
0.03139095 -0.038988959 -0.15003662
-0.02330186 -0.050463196 -0.14548239
0.0024323263 -0.051939759 -0.14358146
0.01616486 -0.051835053 -0.14524224
-0.011126691 -0.039460219 -0.14218566
-0.0024835356 -0.052229743 -0.13898139
0.0055790469 -0.052449416 -0.13549633
0.047682937 -0.052901451 -0.13077384
-0.018968662 -0.048223607 -0.13204835
-0.0040938193 -0.040372875 -0.12697469
0.047424462 -0.040701132 -0.12506926
0.045263838 -0.090398148 -0.11101983
0.074952312 -0.083641104 -0.11491957
-0.0035065317 -0.056305051 -0.1109069
0.018587813 -0.054826431 -0.11953718
0.052388512 -0.056458004 -0.11001241
0.0082254866 -0.04117823 -0.11355188
0.046288114 -0.041040484 -0.11584786
-0.32238263 -0.010398732 -0.11074896
-0.32598001 -0.0097511699 -0.11266077
0.039918102 -0.10098448 -0.10161097
0.081910707 -0.097687222 -0.10409205
0.032936443 -0.07933069 -0.10891109
0.079342 -0.076091915 -0.10405374
0.095884807 -0.075727746 -0.1085367
0.061848264 -0.066876948 -0.10323773
0.084804177 -0.064842783 -0.10267773
-0.0070828199 -0.044793013 -0.1002036
0.034302525 -0.041906327 -0.1014165
-0.35169867 -0.015056872 -0.10204355
-0.34236425 -0.010337682 -0.10165301
-0.35362026 -0.0094467876 -0.10616626
-0.33013248 -0.0099527007 -0.10743152
0.056978039 -0.10438522 -0.099838093
0.081279814 -0.1008608 -0.098750561
0.079342 -0.094963498 -0.095462203
0.079342 -0.073624164 -0.092691153
0.095521599 -0.066306517 -0.093607031
0.0033346014 -0.058217973 -0.099740975
0.023514388 -0.059192836 -0.094050303
0.062096477 -0.058305033 -0.099232033
-0.0155281 -0.048599392 -0.096512675
0.035697337 -0.042399373 -0.093198732
-0.31187743 -0.021793583 -0.093588918
-0.33873397 -0.011121328 -0.090718813
-0.33761418 -0.008772945 -0.092304766
0.075730875 -0.10537419 -0.083612129
0.085965671 -0.097814873 -0.081852168
0.015437597 -0.086474456 -0.084033601
0.084828503 -0.070194192 -0.084895357
0.075357169 -0.053702615 -0.086977832
0.032723956 -0.042843215 -0.085801333
-0.34956032 -0.011674915 -0.083455056
0.094277658 -0.10317022 -0.078348011
0.029352248 -0.095241711 -0.079786673
0.072223783 -0.093243435 -0.0723157
0.028716821 -0.088835627 -0.076958276
0.044812903 -0.086234622 -0.07390257
0.044278868 -0.075800143 -0.076426849
0.084190041 -0.07592494 -0.07872092
0.07035888 -0.061726421 -0.079261065
0.080022059 -0.055574421 -0.077496365
0.024552546 -0.043348681 -0.077376902
0.042609088 -0.043568183 -0.073718175
0.052047331 -0.04324903 -0.079037316
-0.34413022 -0.01269078 -0.070958897
0.019271513 -0.064867079 -0.060929157
0.024796175 -0.063582808 -0.06842564
-0.013098825 -0.046546742 -0.065918505
0.010490786 -0.044234172 -0.062618762
0.067527518 -0.044295166 -0.061601244
-0.29179436 -0.024539277 -0.068300001
-0.33924705 -0.0086534284 -0.064925209
0.0548876 -0.065078616 -0.059694268
0.081788242 -0.06656532 -0.05101642
-0.33028486 -0.024655493 -0.054879833
-0.31208825 -0.025276899 -0.051363841
-0.29536882 -0.025276899 -0.052863009
-0.34337693 -0.014241306 -0.053639688
-0.32511973 -0.0098333219 -0.054741584
-0.0056356797 -0.068350457 -0.040596105
0.01506339 -0.068243541 -0.041220225
0.026383881 -0.045023724 -0.049459368
0.066854425 -0.048332896 -0.047616661
-0.3308152 -0.024621684 -0.0433544
-0.3029992 -0.025276899 -0.04075966
-0.29306233 -0.025276899 -0.040447295
-0.34153122 -0.011593414 -0.041097816
-0.33032191 -0.015544963 -0.040278513
-0.27878335 -0.017411681 -0.047865041
0.0044464739 -0.082611069 -0.031793043
-0.0159554 -0.074978039 -0.032885998
0.007706969 -0.079605848 -0.034115646
0.038122848 -0.064572483 -0.0373527
0.06717331 -0.063508436 -0.03805238
0.074688584 -0.061332975 -0.0373527
0.15430096 -0.060181707 -0.033715591
0.19182086 -0.06150566 -0.032653876
-0.25948682 -0.054937109 -0.030894861
-0.23280422 -0.051328823 -0.0363236
-0.20966206 -0.054246534 -0.035434451
-0.15032341 -0.057383597 -0.033296764
-0.13580979 -0.055592351 -0.034589499
-0.1229024 -0.059101343 -0.031849086
-0.09829925 -0.057067823 -0.033532742
-0.0036356377 -0.053479724 -0.037453294
0.0087451972 -0.058806345 -0.032109112
0.016192928 -0.051803205 -0.037621032
0.026444653 -0.050248943 -0.0373527
0.063375026 -0.054318964 -0.035296537
0.070413783 -0.059366483 -0.031615376
0.14393976 -0.054819614 -0.036280535
0.2382776 -0.050903201 -0.038001865
0.31019199 -0.05109565 -0.032095693
-0.24668989 -0.046097431 -0.033749141
-0.14067088 -0.048944592 -0.037869073
-0.11905131 -0.047721434 -0.038271461
-0.091617055 -0.049710613 -0.037613228
-0.089355521 -0.046871807 -0.038503684
-0.023527319 -0.045925476 -0.038732424
-0.013956851 -0.049819399 -0.033679016
0.0082708001 -0.049605958 -0.037651498
0.035637096 -0.049819402 -0.038300902
0.077814527 -0.045344919 -0.038872756
0.083463036 -0.049819395 -0.036723509
0.14633256 -0.044889167 -0.039167449
0.15509358 -0.046406224 -0.038934581
0.21526843 -0.045861423 -0.038894717
0.2240319 -0.043551885 -0.038559102
0.23449337 -0.044947289 -0.038955573
0.24440274 -0.04624676 -0.038959056
-0.19127671 -0.035680648 -0.039158203
-0.1478028 -0.034253087 -0.038970284
-0.13634034 -0.03034506 -0.038455844
-0.092733428 -0.035694435 -0.039160021
0.1113935 -0.034673311 -0.038559102
0.13528202 -0.036793169 -0.039304603
0.18885067 -0.033669379 -0.039289638
0.19227526 -0.033521142 -0.03927334
0.20359039 -0.0381773 -0.039785199
0.23344868 -0.030136183 -0.038901176
0.26555756 -0.035852365 -0.039529555
0.27636504 -0.033345517 -0.03888445
0.29698747 -0.03783039 -0.03754919
0.30686015 -0.037223335 -0.035450734
-0.31021768 -0.025276899 -0.032949559
-0.30276901 -0.021567024 -0.037090473
-0.2926299 -0.020000819 -0.036055371
-0.16608974 -0.02394776 -0.036596537
-0.13037533 -0.025249721 -0.037135955
0.066312492 -0.025637751 -0.037296481
0.16464904 -0.024541853 -0.036842495
0.19006184 -0.022960883 -0.033915486
0.20211065 -0.02488197 -0.036983464
0.22616772 -0.02666764 -0.037596762
-0.31528705 -0.016029844 -0.035523206
-0.30051255 -0.0160856 -0.034022503
-0.11754024 -0.018870054 -0.034493089
-0.059990279 -0.016430695 -0.033002026
-0.032078207 -0.015230369 -0.032081079
0.057560805 -0.019225234 -0.034640122
0.064082466 -0.018588796 -0.034376569
0.085442699 -0.017247783 -0.033375584
0.10790015 -0.014982196 -0.031890564
-0.0017413078 -0.085569568 -0.028321562
0.12912312 -0.072702661 -0.020895455
0.15205665 -0.073125266 -0.020319574
0.16199416 -0.07091251 -0.023334902
0.17182198 -0.070092835 -0.024451876
0.18159151 -0.072407424 -0.021297773
0.24889266 -0.070023365 -0.024546543
-0.19802104 -0.061162286 -0.029798649
-0.17041484 -0.067637175 -0.021677634
-0.15288647 -0.067613229 -0.021706678
-0.057752553 -0.06888561 -0.020172575
-0.0159554 -0.065683112 -0.028908744
0.02245653 -0.065371826 -0.024492722
0.04782429 -0.061911784 -0.028910844
0.077930056 -0.060981564 -0.02998608
0.094126046 -0.067924164 -0.021329714
0.10060456 -0.06816905 -0.021032816
0.15823103 -0.067945242 -0.027378416
0.17410667 -0.06500598 -0.029846877
0.18512481 -0.069996834 -0.024582695
0.21270719 -0.066713348 -0.022812497
0.23467839 -0.065833271 -0.023963148
0.24179575 -0.06978257 -0.02487468
0.27204517 -0.062454361 -0.02824872
0.101661 -0.053414743 -0.027118757
0.27885899 -0.054077145 -0.022010164
0.31137431 -0.057077613 -0.02879332
0.32381278 -0.05015672 -0.028085427
0.33193767 -0.044078469 -0.02696564
-0.32438365 -0.033730716 -0.020447724
0.33765233 -0.03505611 -0.025395231
-0.30267841 -0.025276899 -0.023566537
-0.26354408 -0.021847479 -0.028361017
-0.11156569 -0.020752419 -0.029860402
0.33586854 -0.026465639 -0.023598615
-0.33858895 -0.01299796 -0.027926719
-0.29737699 -0.012978975 -0.026790263
-0.28168872 -0.017863475 -0.026942078
-0.066421524 -0.010937529 -0.027654599
-0.025040992 -0.014787124 -0.029769894
0.23742731 -0.010163585 -0.028192898
0.28278446 -0.012066352 -0.029488519
0.31349242 -0.016487671 -0.024561178
-0.2194944 -0.0083405497 -0.026218917
-0.17999226 -0.0042812754 -0.020929025
-0.095482066 -0.00595228 -0.023106562
-0.072084717 -0.0067149592 -0.024100512
-0.048145007 -0.0098066144 -0.027919449
0.024232045 -0.0051649222 -0.022080442
0.038353477 -0.0053470968 -0.02231786
0.069728307 -0.0072183833 -0.024756595
0.092683651 -0.007461058 -0.025072861
0.044917021 -0.087493077 -0.016976554
0.074881829 -0.087401569 -0.018550562
0.101661 -0.084358878 -0.01345129
-0.16216898 -0.073894635 -0.014250943
-0.14399515 -0.075068951 -0.011157264
0.043461312 -0.071434498 -0.017197235
0.076122873 -0.075275302 -0.010265601
0.11331587 -0.075767688 -0.014490348
0.13429245 -0.070525557 -0.018240778
0.16688079 -0.074602634 -0.01748264
0.17531784 -0.073854633 -0.011413966
0.18933623 -0.075475365 -0.015241124
0.22556171 -0.072312444 -0.016176283
0.24464315 -0.07081788 -0.01790598
0.26770312 -0.071618497 -0.015810687
-0.22025414 -0.065837488 -0.019137371
-0.14054789 -0.069774501 -0.019118879
-0.0159554 -0.065544248 -0.0112
0.030194789 -0.069094554 -0.019922834
0.31810206 -0.066348419 -0.016398527
-0.0159554 -0.058540478 -0.013449746
-0.32220364 -0.040202353 -0.013119921
0.086273611 -0.049819399 -0.014592224
0.091916509 -0.049819399 -0.013512038
0.34805822 -0.045007005 -0.019941725
-0.35661268 -0.031455621 -0.014565453
-0.32575795 -0.039063085 -0.013875572
-0.35791358 -0.025008427 -0.014472781
-0.34278414 -0.02765286 -0.017264389
-0.32676795 -0.022116624 -0.019235879
0.35018122 -0.023553416 -0.013375931
-0.3698616 -0.014246971 -0.010908917
-0.32935071 -0.006360813 -0.019610822
-0.19691038 -0.0025995106 -0.018307816
-0.16924706 -0.001985586 -0.016825229
-0.11082929 -0.0010653837 -0.013651871
-0.076052159 -0.00015117456 -0.012396697
0.08742062 -0.0013141382 -0.015204116
0.1844072 -0.0031930655 -0.019510381
0.23465912 -0.0014361152 -0.015498336
0.052320614 0.00026308073 -0.011396303
0.091546997 0.0002558321 -0.011413802
0.039975252 -0.086322799 -0.0042347899
0.055682655 -0.085231997 -0.0025256264
0.072805762 -0.088280708 -0.0042347899
0.097616062 -0.087938033 -0.0093225054
-0.18889195 -0.071320407 -0.0093133654
-0.16437541 -0.074874885 -0.0033432865
-0.157479 -0.075167522 -0.00028191524
-0.12278543 -0.074570179 -0.00085559202
-0.10826236 -0.073668852 -0.00085559196
-0.083792254 -0.075939879 -0.0068172761
-0.071465395 -0.07644406 -0.00085559208
-0.067245491 -0.076052696 -0.0060929377
0.014660657 -0.075531676 -0.009069534
0.021106435 -0.074605003 -0.0021872926
0.041186165 -0.07613606 -0.0054974747
0.093036294 -0.076579377 -0.00069320807
0.10437677 -0.076347128 -0.0037525215
0.13177139 -0.076607019 -0.0001064884
0.14672975 -0.078149959 -0.0054654838
0.15959072 -0.076609209 -3.7408532e-05
0.18195011 -0.071626797 -0.0097498307
0.19917853 -0.077609047 -0.0097610895
0.21412867 -0.074062519 -0.0028584898
0.2233673 -0.075137272 -0.0030043146
0.25027788 -0.071775764 -0.0080119353
0.26750377 -0.077740498 -0.0091910278
0.27463928 -0.071626797 -0.0055322433
-0.23601741 -0.062667951 -0.0099515356
-0.19435525 -0.065254897 -0.00085559202
-0.13511708 -0.060879398 -0.00085559202
-0.031275257 -0.065197453 -0.00085559202
-0.021865025 -0.063075855 -0.00085559202
-0.0020054518 -0.064572439 -0.0042347899
0.013708459 -0.068367675 -0.0042347899
0.025858693 -0.068332016 -0.00085559196
0.0391693 -0.064729646 -0.00085559202
0.078012079 -0.069495343 -0.00085559196
-0.28774419 -0.050208971 -0.0078486241
-0.2778362 -0.050274391 -0.00085559202
-0.24378088 -0.05578636 -0.00085559208
-0.20917937 -0.052334797 -0.00085559202
-0.1876229 -0.052032057 -0.00085559202
-0.12603933 -0.057055678 -0.00085559202
-0.031325061 -0.055212095 -0.00085559202
0.0036429474 -0.050991092 -0.0042347899
0.063381992 -0.055908814 -0.0042347899
0.099395648 -0.055716295 -0.00085559202
0.35760593 -0.05184669 -0.0071014343
-0.31434691 -0.040448744 -0.00085559196
-0.30928463 -0.044122584 -0.00095590961
-0.29087937 -0.043832496 -0.00085559202
-0.28296298 -0.042152807 -0.00085559196
-0.21482472 -0.041085128 -0.00085559196
-0.18478175 -0.048532523 -0.00085559202
-0.14142025 -0.049838722 -0.00085559196
-0.13673595 -0.049548697 -0.00085559202
-0.099424496 -0.048687655 -0.00085559196
0.038514525 -0.04396547 -0.00085559202
0.065183729 -0.044064216 -0.00085559208
0.075891599 -0.046363816 -0.0044683656
0.080530055 -0.049819399 -0.00065067323
0.36460027 -0.040364306 -0.0097089987
-0.34749621 -0.033935122 -0.0022949025
-0.33767167 -0.033940502 -0.0094322478
-0.27446279 -0.032373261 -0.00085559202
-0.25054839 -0.036814265 -0.00085559202
-0.12801239 -0.039272901 -0.00085559202
-0.10846327 -0.036438998 -0.00085559202
-0.099966586 -0.03682141 -0.00085559202
0.34770399 -0.0339281 -0.0035180566
-0.25658044 -0.020985201 -0.00085559202
-0.24773338 -0.024973288 -0.00085559208
-0.19794551 -0.024313992 -0.00085559202
-0.1794084 -0.029850919 -0.00085559208
-0.036067143 -0.021686137 -0.00085559208
-0.014619552 -0.025619943 -0.00085559202
0.0069039604 -0.021076679 -0.00085559196
0.047715623 -0.021169666 -0.00085559196
0.36102599 -0.027676838 -0.0072383434
-0.32078081 -0.015126306 -0.00085559196
-0.14286126 -0.018373299 -0.00085559196
-0.11748405 -0.014338292 -0.00085559202
-0.035701174 -0.015945647 -0.00085559202
0.028361879 -0.011949833 -0.00085559208
0.049623013 -0.011887292 -0.00085559208
0.079147458 -0.011705322 -0.00085559208
0.084393501 -0.011639704 -0.00085559202
0.3090561 -0.0118829 -0.0097092111
0.35077143 -0.019972499 -0.00036829535
-0.36149967 -0.0070928801 -0.0022020116
-0.35653487 -0.0071099494 -0.00085559208
-0.33609399 -0.0068415096 -0.0011208027
-0.28053999 -0.0066265631 -0.0071163401
-0.27826089 -0.0042465352 -0.0011448585
-0.26771566 -0.0045271846 -0.0012316492
-0.25906044 -0.0063376594 -0.0011227321
-0.23065434 -0.0034733824 -0.00046684575
-0.21406774 -0.0050331065 -0.0044210954
-0.20461294 -0.00148309 -0.0024551158
-0.18068041 -0.0084898388 -0.00085559202
-0.17481196 -0.0039427988 -0.0032639185
-0.167944 -0.00148309 -0.005104071
-0.13699299 -0.0089047793 -0.00085559208
-0.12214313 -0.0054443981 -0.00085559202
-0.057573311 -0.0086606909 -0.00085559202
-0.006270797 -0.0076885875 -0.00085559208
0.032655451 -0.0029527235 -0.00085559202
-0.33838779 0.00324121 -0.0024182624
-0.32474309 0.00031012075 -0.0071039889
-0.079690263 0.0011177515 -0.0081704725
0.057675127 0.0018156774 -0.0038410474
0.099875942 0.0020074947 -0.0024185055
0.13954084 0.0021217333 -0.0015602417
0.20841536 0.0015656021 -0.0056956364
0.28159085 0.0011096383 -0.00497388
-0.32829756 0.017601054 -2.1756427e-05
-0.30410707 0.015783638 -3.5735735e-05
-0.29403138 0.013736189 -4.1471652e-05
-0.31837645 0.021647088 -0.0034835171
-0.29244938 0.020382669 -4.2396459e-05
-0.28215128 0.023690498 -0.0069128261
-0.25255084 0.023383383 -0.0069177719
-0.34253109 0.035256423 -1.357108e-05
-0.33872005 0.033184621 -1.5772766e-05
-0.34392142 0.046815075 -1.2738131e-05
-0.31875068 0.044067107 -2.7201466e-05
-0.28549093 0.045401465 -4.6450688e-05
-0.33174062 0.059062265 -0.0061074602
-0.29955846 0.069011703 -3.8237544e-05
-0.35556161 0.075892262 -0.0050548473
-0.34630123 0.073103607 -1.1294503e-05
-0.31277999 0.072992131 -3.0545307e-05
-0.30902109 0.074727021 -3.2781874e-05
-0.3529855 0.081522658 -0.0052796034
-0.30556288 0.082400732 -3.4887122e-05
-0.32267281 0.095943138 -2.4895005e-05
-0.010925917 -0.084094837 0.0042351899
0.0039249538 -0.080733351 0.0042351899
0.038451258 -0.088240862 0.0041137422
0.054760326 -0.088165157 0.0054159369
0.067944318 -0.087633669 0.0036074226
-0.19104517 -0.070988677 0.0097666867
-0.1706558 -0.074007876 0.0095703164
-0.16594429 -0.074658319 0.0097878594
-0.13601089 -0.073085584 0.00085557799
-0.11732253 -0.076239161 0.0014969824
-0.10736659 -0.0754833 0.0093022157
-0.096234769 -0.076151647 0.0053861993
-0.043419346 -0.07509996 0.0023341388
-0.011209524 -0.073592082 0.002545384
0.014096382 -0.075185075 0.00085557799
0.024902001 -0.074438453 0.00085557799
0.042338684 -0.070276774 0.00085557799
0.073906161 -0.076478891 0.0022885923
0.1103823 -0.071626797 0.0043976153
0.14054063 -0.071626797 0.0079486677
0.17923765 -0.07614436 0.0054381895
0.18916669 -0.07733839 0.0036768168
0.20440464 -0.07661628 0.00019735126
0.2114422 -0.075567231 0.0088990135
0.22580242 -0.071626797 0.0056852456
0.24592933 -0.072592556 0.0017325309
0.25819519 -0.078433298 0.0035358942
-0.14448209 -0.060856167 0.00085557799
0.0079206852 -0.064374566 0.0042351899
0.051029727 -0.067291655 0.0042351899
0.091612332 -0.064991936 0.00085557799
0.27885899 -0.06426011 0.0039735814
0.339966 -0.061000731 0.0098114172
-0.053102247 -0.052509531 0.00085557799
-0.003072707 -0.053217333 0.00085557799
0.0071923863 -0.055823997 0.0042351899
0.089445747 -0.051614657 0.00085557799
0.10009986 -0.059460782 0.0042351899
-0.27093151 -0.043160375 0.00085557799
-0.2299871 -0.041064344 0.00085557805
-0.16209479 -0.041817788 0.00085557799
-0.15323539 -0.047514945 0.00085557799
-0.020685725 -0.044217676 0.00085557799
-0.015917003 -0.049819399 0.0042887987
0.019848807 -0.04103931 0.00085557799
0.041508891 -0.049819395 0.0097733093
0.34770399 -0.042076595 0.0034911977
0.36793429 -0.045242403 0.00084888976
-0.32408324 -0.039599881 0.0046146051
-0.2807484 -0.034683146 0.00085557799
-0.26289827 -0.031008821 0.00085557799
-0.22107434 -0.038810771 0.00085557799
-0.20449674 -0.036350373 0.00085557799
-0.15651172 -0.039269548 0.00085557799
-0.11989941 -0.03857464 0.00085557799
-0.064325526 -0.034144007 0.00085557799
-0.02322278 -0.03202527 0.00085557799
0.34770399 -0.03271243 0.0033026759
-0.33609399 -0.022519484 0.0053136819
-0.24335419 -0.029235849 0.00085557799
-0.17219286 -0.026712598 0.00085557799
-0.14572385 -0.020106714 0.00085557799
0.044015698 -0.021295406 0.00085557799
0.35480696 -0.02300993 0.0081219506
-0.28463858 -0.01409168 0.00085557799
-0.26735505 -0.013645363 0.00085557793
-0.2109099 -0.017425394 0.00085557799
-0.15690689 -0.012030791 0.00085557799
-0.047539607 -0.015623963 0.00085557799
-0.012873124 -0.011310211 0.00085557799
-0.0070536816 -0.018622605 0.00085557799
0.025482083 -0.012630781 0.00085557799
0.040139489 -0.017553531 0.00085557799
-0.3710106 -0.0096805478 0.0076620043
-0.30601412 -0.0039900001 0.00044603777
-0.29002512 -0.0072044129 0.00085557799
-0.24153191 -0.00148309 0.0012397156
-0.22803305 -0.001588471 0.0068454342
-0.21181978 -0.00148309 0.0014167398
-0.19433647 -0.002844078 0.00085557799
-0.15550971 -0.0098772813 0.00085557799
-0.12249014 -0.0038807215 0.00085557799
-0.11288869 -0.001271294 0.0021983557
-0.1084572 -0.0093736183 0.00085557799
-0.085731767 -0.0019564456 0.00085557799
-0.061118431 -0.0042591961 0.00085557799
-0.0016661194 -0.0069601838 0.00085557799
-0.33708113 0.003548627 0.0065195132
-0.2585935 0.0066431412 6.2170278e-05
-0.24422061 0.006543634 0.0047486103
-0.092962213 0.00047282368 0.0035344942
-0.045493305 0.0016108487 0.0052602002
-0.028410496 0.0020931049 0.0017836399
0.0052269725 0.00091777928 0.0098161902
0.061286218 0.0024081655 0.0005520542
0.086751647 0.0017714282 0.0041693491
0.15617943 0.0016774194 0.0048665642
0.17505032 0.0013033818 0.0074829753
0.26126754 0.0012676877 0.0079053324
-0.31544533 0.016366726 0.0023461797
-0.30593899 0.01230819 3.5002224e-05
-0.31397396 0.02299772 3.0346611e-05
-0.30324227 0.02384695 0.0034712336
-0.28162262 0.024103444 4.8879145e-05
-0.26351786 0.021827795 5.929442e-05
-0.32785493 0.036755987 0.0066835592
-0.29970121 0.030501904 3.8511556e-05
-0.34465456 0.046356115 1.2493778e-05
-0.3357223 0.04180352 0.0065790853
-0.30649358 0.042123634 0.0065719583
-0.35178792 0.053980302 0.0036718491
-0.33700591 0.051676542 1.690616e-05
-0.31330723 0.054165971 3.0678595e-05
-0.27483746 0.051432017 0.0057113203
-0.35502365 0.066232264 0.0050910548
-0.34732142 0.069099478 0.005748569
-0.324875 0.065477669 0.0029890812
-0.30549729 0.062661774 0.0059915353
-0.29365849 0.06654308 4.1932315e-05
-0.28631347 0.064682446 0.0019365383
-0.34924686 0.07984224 9.879549e-06
-0.32445711 0.083884776 2.4228504e-05
-0.31426799 0.08688806 0.0025771747
-0.32303047 0.090295106 0.0048902314
-0.36065716 0.10097324 0.0043621985
-0.34269124 0.10442524 1.3680502e-05
-0.32404965 0.10478373 2.446466e-05
0.056557417 -0.087414578 0.018327029
0.092146613 -0.087426826 0.018116264
0.101661 -0.080395184 0.016430242
-0.15369853 -0.075057387 0.011202937
-0.081495851 -0.074401781 0.013554564
-0.039874807 -0.071212016 0.017447433
-0.012324616 -0.071484871 0.017134286
0.061482124 -0.072495744 0.015985847
0.11464019 -0.07522431 0.010486713
0.157043 -0.075698666 0.012629019
0.21629652 -0.071626797 0.010980818
0.23206842 -0.075172931 0.010710014
0.2651937 -0.073976047 0.013158439
0.28378159 -0.073143058 0.018039327
-0.12650801 -0.069680795 0.019229421
0.3139919 -0.066629052 0.018329903
-0.0159554 -0.051792774 0.012810518
0.0010293515 -0.049819395 0.010207562
0.015099224 -0.049819399 0.011134599
0.038218159 -0.049819399 0.012134816
0.078199796 -0.049819399 0.01609399
-0.3624059 -0.027390091 0.013044575
-0.35440776 -0.026050778 0.015128196
0.35469079 -0.027010346 0.013081377
0.30921215 -0.019972499 0.010620989
0.33901364 -0.019972499 0.013204264
-0.3581208 -0.0070928796 0.011007282
-0.32428506 -0.00495695 0.012006056
-0.22253114 -0.0019469397 0.016732484
-0.092758805 -0.0017876979 0.016314737
0.035075963 -0.00021757756 0.012557229
0.069802105 -0.0023783769 0.017558068
0.1263113 -0.0037101756 0.019995697
0.22998369 -0.0014821917 0.015373377
-0.045351822 0.00033121571 0.011232319
0.0098904166 -0.086625397 0.026531881
0.010198414 -0.08506234 0.029037856
0.101661 -0.084233284 0.022845032
0.24844976 -0.071018063 0.023270648
-0.16564961 -0.061475545 0.029443176
-0.14647174 -0.063396603 0.027042396
-0.12083166 -0.061325576 0.029626211
-0.11186828 -0.066239715 0.023402885
-0.081516124 -0.063535385 0.026859479
-0.0006613282 -0.064351164 0.025799023
0.0691671 -0.061035223 0.029930495
0.10747173 -0.061481483 0.029435994
0.13809985 -0.06650617 0.023070712
0.14008532 -0.066696189 0.02283382
0.16292867 -0.068258412 0.020924807
0.26187325 -0.061885063 0.028943602
0.27885899 -0.060606621 0.025514958
0.31420934 -0.06164721 0.024449438
0.101661 -0.050276004 0.027157703
0.30508214 -0.059113964 0.029144084
0.3124935 -0.054987639 0.029909335
0.012329449 -0.049819399 0.02104036
0.094948396 -0.049819399 0.025309214
0.10058791 -0.049819399 0.025129182
-0.29564908 -0.037380852 0.024955258
-0.27433643 -0.033073392 0.02793801
0.34002146 -0.030162353 0.023512939
-0.31910047 -0.021793295 0.02131936
-0.33899197 -0.011575565 0.029731281
-0.2877562 -0.016396277 0.026094753
-0.063104227 -0.01057705 0.028510666
0.019544765 -0.010360856 0.028344773
0.16072121 -0.010514547 0.028462704
-0.24663086 -0.0070585147 0.024548585
-0.19842315 -0.0067023914 0.024071146
-0.13223559 -0.0040142136 0.020512935
-0.051748436 -0.0037542144 0.02013731
-0.013122991 -0.0047550863 0.021417461
-0.00078049302 -0.0092617478 0.027419699
0.010085225 -0.0082157198 0.026056591
0.026374146 -0.007065529 0.024549671
0.19526771 -0.0082792258 0.02613925
0.22655612 -0.0062417872 0.023412613
0.23453692 -0.0068186438 0.02419812
0.077728331 -0.081056781 0.033100314
-0.0159554 -0.074300274 0.030735448
0.0035559684 -0.079484195 0.034181941
0.014270415 -0.073548794 0.036565922
-0.013865864 -0.067051597 0.037366763
0.0012723708 -0.060913041 0.0373527
0.011245589 -0.068708904 0.038504068
0.023826055 -0.068625286 0.038992312
0.036771163 -0.060480528 0.034345627
0.046400525 -0.061339408 0.034298792
0.078526646 -0.064687431 0.0373527
0.16544309 -0.06206698 0.032139309
0.23866412 -0.06396845 0.030743891
0.28678638 -0.060741507 0.031765103
-0.22962731 -0.054907888 0.035019632
-0.20824611 -0.057004213 0.033580668
-0.06513571 -0.057665657 0.033086382
0.0078386366 -0.059048608 0.031895965
0.014896321 -0.054850306 0.035055786
0.029421404 -0.052800372 0.03754279
0.045117263 -0.05833501 0.037865769
0.052399099 -0.057204716 0.037927378
0.060524296 -0.055172086 0.034853756
0.08235684 -0.055718694 0.038180813
0.101661 -0.053751498 0.031936709
0.11049075 -0.051252417 0.036963403
0.12222607 -0.052390754 0.036430899
0.17124009 -0.05186715 0.036703393
0.20533431 -0.055324778 0.035691332
0.22070517 -0.052782662 0.037112005
0.257411 -0.057349972 0.033322286
0.26402599 -0.050595038 0.037240498
-0.24888863 -0.049204178 0.033287093
-0.23610681 -0.040389426 0.03574672
-0.20362364 -0.041817635 0.039371539
-0.026470266 -0.041518908 0.039394036
-0.0066528944 -0.049819399 0.038151
0.017419104 -0.049819399 0.034351446
0.025992192 -0.040290058 0.039478447
0.031827059 -0.049819402 0.03317371
0.046362374 -0.043891404 0.039122291
0.055783838 -0.04198382 0.039359018
0.079146199 -0.042227622 0.039340656
0.087474674 -0.049819399 0.031085145
0.097090624 -0.049991939 0.037494689
0.16501245 -0.047756433 0.038260289
0.17889236 -0.044221915 0.039116472
0.18441217 -0.045632184 0.038559601
0.19405806 -0.041876949 0.039367042
0.22292314 -0.048932478 0.03787319
0.23357826 -0.046279557 0.039050624
0.24682036 -0.04266981 0.03944749
0.28484693 -0.04913222 0.037757322
0.31455982 -0.047253385 0.032380991
-0.16925472 -0.037879873 0.039448101
-0.10940351 -0.038748804 0.039470013
-0.070751816 -0.033069678 0.038814716
-0.042691801 -0.036609083 0.039280768
0.01735279 -0.034439705 0.038995121
0.041279878 -0.035858646 0.039181959
0.058444336 -0.037248261 0.039338164
0.1023763 -0.033263441 0.038840272
0.11153454 -0.034129601 0.038559601
0.12122548 -0.033908203 0.039324448
0.15297025 -0.032224417 0.038559601
0.17002068 -0.036029942 0.039650194
0.19698374 -0.035221539 0.039098088
0.21610175 -0.030225415 0.038759172
0.2239829 -0.035539802 0.038559601
0.25013867 -0.035802767 0.039174378
0.26667032 -0.03079889 0.038515761
-0.32217994 -0.025097806 0.038488492
-0.2853274 -0.025198599 0.032273978
-0.22714953 -0.023873599 0.036565967
-0.2156807 -0.027192507 0.037785031
-0.20358109 -0.028120257 0.038162995
-0.16088553 -0.029217655 0.038307499
-0.088621899 -0.026732825 0.037750296
-0.052888852 -0.02255265 0.036018796
0.0031612739 -0.027564798 0.038089857
0.056580283 -0.02496475 0.037017912
0.08931724 -0.028994961 0.038278196
0.10527686 -0.026789907 0.037773926
0.1248347 -0.025268145 0.03715764
0.18775004 -0.022682084 0.036160465
0.23521128 -0.028081834 0.038157947
0.2644718 -0.021661749 0.035649668
0.27805066 -0.022598509 0.036037706
0.28346622 -0.021814194 0.035687678
0.31290397 -0.029281741 0.032937907
-0.32914078 -0.016619256 0.03243969
-0.28920972 -0.016066365 0.035164922
-0.20581174 -0.017099654 0.033515751
-0.16951893 -0.015963992 0.032644421
-0.087788559 -0.019435382 0.03472754
-0.067167915 -0.016907282 0.033368155
-0.022342581 -0.019943617 0.03493803
0.12601811 -0.017080376 0.033500962
0.15676548 -0.01960407 0.034797307
-0.33169159 -0.0092499182 0.033395752
-0.004359819 -0.067875162 0.043370411
0.095376737 -0.055373933 0.045938183
-0.012274607 -0.047495093 0.042354923
0.002374134 -0.048216823 0.041266415
0.026851006 -0.047738187 0.047610059
0.037310377 -0.046628889 0.043877665
0.052246403 -0.04834082 0.047617134
0.067166746 -0.048159648 0.047627561
-0.30766168 -0.025276899 0.044878308
-0.31544411 -0.015129324 0.044432901
-0.34064522 -0.008551091 0.044238679
0.032952473 -0.065684609 0.05615712
0.076280057 -0.066438802 0.051755518
-0.012333586 -0.046971902 0.051672153
0.015974991 -0.044659752 0.055525795
0.03633482 -0.04489179 0.051658209
0.077993393 -0.044952691 0.050643347
-0.31426936 -0.025276899 0.058499508
-0.2983321 -0.025276899 0.055329584
-0.31478027 -0.014212588 0.053944863
0.00032999553 -0.064076826 0.065541469
0.043665051 -0.063831754 0.066972353
-0.0155281 -0.054998912 0.062133044
0.00076609198 -0.044385806 0.060092121
0.052502461 -0.04403872 0.065875769
0.085575536 -0.048559539 0.066179276
-0.31600922 -0.010747512 0.068039492
-0.29386282 -0.01346299 0.066911019
-0.33732346 -0.0087942258 0.067505762
0.039254688 -0.091643609 0.079815522
0.071363471 -0.088059247 0.074773878
0.080889866 -0.087280713 0.079822138
0.068448849 -0.063090742 0.071297899
0.081590615 -0.057162568 0.074299909
-0.0075782691 -0.043458879 0.078162014
0.022622358 -0.043572277 0.073651336
0.070890188 -0.044143103 0.076592393
0.080122352 -0.045935795 0.070283234
-0.29792866 -0.024673739 0.075452097
-0.33918428 -0.012330987 0.07528609
-0.3353461 -0.0089416644 0.074472263
0.072327629 -0.10065307 0.082088888
0.017841138 -0.090322673 0.083609089
0.087265491 -0.097949497 0.086851709
0.017459823 -0.071972825 0.089540958
0.053629499 -0.071328998 0.08478418
0.053688318 -0.065134637 0.081879623
0.014949084 -0.043131143 0.081003517
0.058322035 -0.043190066 0.080020308
-0.34122333 -0.011315139 0.088115975
0.013539949 -0.072653584 0.096983582
0.055953465 -0.063622445 0.098473839
0.084426165 -0.067285798 0.097624809
0.0076560085 -0.05850371 0.098072387
-0.32193142 -0.010501895 0.099315315
0.025229294 -0.096882284 0.10544996
0.0093018934 -0.085808948 0.1076772
0.016096499 -0.087431803 0.1072873
0.014760263 -0.076101005 0.10348176
0.025840258 -0.068813778 0.10081318
0.068191737 -0.064847574 0.10636076
0.014010526 -0.057455204 0.10419252
0.045019086 -0.057294391 0.10513037
0.011330256 -0.041916709 0.10124428
0.037740052 -0.041673247 0.10530236
0.068431288 -0.04635784 0.10085852
-0.34239382 -0.009801589 0.10975306
0.097591013 -0.092006713 0.11131347
0.039977714 -0.088445142 0.1140895
0.057549335 -0.089870572 0.11615743
0.074085735 -0.085555434 0.1185441
0.091540895 -0.088953331 0.11245394
0.095273197 -0.071227953 0.11036845
-0.0048556561 -0.055014342 0.1184407
0.03846319 -0.055148967 0.11765403
0.05260339 -0.05594844 0.11298685
0.024130074 -0.041042559 0.11581352
0.032203712 -0.040985193 0.11676946
-0.34526509 -0.017352421 0.11688393
-0.33330154 -0.019134156 0.11037911
-0.015711643 -0.053387068 0.12793939
0.017778702 -0.040630974 0.12267287
-0.33334073 -0.0095963413 0.12257677
-0.019170159 -0.052253619 0.13860285
-0.0093895551 -0.052745208 0.1316859
0.048687011 -0.043049544 0.13706921
0.03718318 -0.039672256 0.1386494
0.0057751955 -0.051877029 0.14457586
-0.0243809 -0.044676416 0.14882877
0.032916773 -0.03937076 0.14452364
-0.011179378 -0.05152737 0.15012304
0.0050357361 -0.05143033 0.15166293
0.027782673 -0.051298894 0.15374601
0.043030217 -0.044607632 0.15076171
-0.0073163873 -0.038824979 0.15277271
0.0022317504 -0.050506644 0.16631506
0.034878276 -0.047445931 0.1663959
-0.024496347 -0.038853083 0.16748457
-0.0040927888 -0.038216386 0.16291554
0.010220366 -0.038159449 0.1638632
-0.011558564 -0.050062701 0.17335831
-0.015016791 -0.049153276 0.18778627
0.012414685 -0.044904631 0.18728459
-0.025946826 -0.048716478 0.19471498
0.005174295 -0.048699524 0.19498135
-0.027583545 -0.037694961 0.19181554
0.018532479 -0.039923817 0.19586575
0.00052556535 -0.047781926 0.20953812
0.014672301 -0.048121508 0.20414993
-0.045286115 -0.041297883 0.21364199
-0.01637548 -0.034956492 0.21724707
-0.0041471827 -0.035245277 0.21243457
0.006388824 -0.038395997 0.21653473
-0.0502728 -0.043701794 0.22910279
-0.034113906 -0.034339804 0.22752593
-0.053626992 -0.037677497 0.23992701
-0.049369924 -0.036056709 0.23577659
-0.031813018 -0.033604562 0.23977901
-0.03050261 -0.033424087 0.24278647
-0.043584645 -0.044758223 0.25750792
-0.02153049 -0.045135159 0.25152719
-0.021610241 -0.033565346 0.25282249
-0.063021973 -0.039726958 0.2686297
-0.042756364 -0.032007053 0.26640433
-0.03354685 -0.03215348 0.2676841
-0.04994069 -0.030685278 0.28843358
-0.071237676 -0.038261294 0.29410142
-0.058987826 -0.03195345 0.3080593
-0.045647606 -0.036878325 0.31257829
