# .PCD v0.7 - Point Cloud Data file format
VERSION 0.7
FIELDS x y z
SIZE 4 4 4
TYPE F F F
COUNT 1 1 1
WIDTH 844
HEIGHT 1
VIEWPOINT 0 0 0 1 0 0 0
POINTS 844
DATA ascii
-0.060293522 -0.042659007 -0.32336608
-0.051479187 -0.03862001 -0.32995501
-0.061554171 -0.040349644 -0.31583413
-0.054764815 -0.043511525 -0.31532753
-0.042864464 -0.038783357 -0.31844765
-0.056427717 -0.0406259 -0.3068265
-0.029774237 -0.040853612 -0.30701584
-0.060456291 -0.042430811 -0.29927924
-0.039223142 -0.040030375 -0.29815218
-0.058668375 -0.043570537 -0.28848344
-0.039717734 -0.041120898 -0.28494573
-0.051989436 -0.044050105 -0.27530217
-0.044294644 -0.044505894 -0.2721377
-0.03282446 -0.046672732 -0.27780744
-0.048726533 -0.04563985 -0.26595438
-0.033153247 -0.04714473 -0.26808181
-0.038568497 -0.044202313 -0.25594506
-0.0054176152 -0.044968672 -0.25430143
-0.032293521 -0.046240538 -0.24468026
-0.021658365 -0.044035777 -0.24063742
0.0048108147 -0.047837447 -0.24147028
-0.034418531 -0.046824697 -0.23008196
-0.025276829 -0.048816405 -0.23587343
0.0068955692 -0.04631006 -0.23400097
-0.050489947 -0.053892583 -0.2218731
-0.030869845 -0.046390653 -0.22894332
-0.023291843 -0.049598157 -0.22204243
-0.0088450313 -0.045019485 -0.22094324
0.00056628126 -0.044608008 -0.22365044
0.0078860112 -0.051504437 -0.21565297
0.017849984 -0.05089587 -0.21510515
-0.021020934 -0.047091294 -0.21085027
-0.014539521 -0.045648467 -0.21826613
0.00027806498 -0.044927977 -0.21844296
-0.014793826 -0.051186576 -0.20151995
-0.0040277955 -0.052113138 -0.20062079
-0.019476574 -0.047032423 -0.20933565
0.0014219098 -0.045488033 -0.20932792
-0.0077950032 -0.051959038 -0.19640623
0.018790768 -0.053365521 -0.19171222
0.028602898 -0.052359428 -0.1950528
-0.0092792902 -0.047243938 -0.19716151
0.034076717 -0.052231688 -0.185729
-0.012975974 -0.050679155 -0.17243639
-0.0085389875 -0.049042009 -0.17959066
0.037871934 -0.04817031 -0.17679401
0.0095235584 -0.059792034 -0.16015071
0.031728655 -0.055735957 -0.16121924
0.044591211 -0.048960947 -0.16382182
0.020156303 -0.061516572 -0.15370378
-0.023202004 -0.058559839 -0.15464541
-0.010367134 -0.053923849 -0.15577962
-0.0042564617 -0.054043703 -0.15654406
0.014813023 -0.051704131 -0.15350786
-0.010630815 -0.054188479 -0.14253552
0.0032486359 -0.053662818 -0.14563125
0.11305879 -0.090790212 -0.13026723
0.11899302 -0.083832368 -0.13198258
0.12108052 -0.082649015 -0.13210887
0.017936228 -0.051210895 -0.13499942
0.022429362 -0.050747711 -0.13684458
0.034036037 -0.049815863 -0.13889179
0.084358901 -0.094887853 -0.12109593
0.10847244 -0.099731304 -0.12149824
0.11611184 -0.093356699 -0.12841244
0.078560621 -0.083446227 -0.12405847
0.08360137 -0.074884042 -0.12581544
0.10769179 -0.071648896 -0.12968005
0.11651351 -0.066119462 -0.12494483
-0.0038635898 -0.055009089 -0.12684074
0.010613426 -0.056720044 -0.12290217
0.031510904 -0.051648173 -0.12066668
0.04843951 -0.050436933 -0.1287837
0.051600963 -0.058622941 -0.12408141
0.066996858 -0.057153631 -0.12304525
-0.35137549 -0.013710469 -0.12339228
-0.34103 -0.012123728 -0.12255413
0.062413182 -0.085288569 -0.11509307
0.13569658 -0.084247403 -0.11002453
0.065955505 -0.060298994 -0.11058956
0.087220639 -0.066723466 -0.1129991
0.017530896 -0.052977927 -0.11609349
0.02214903 -0.055350538 -0.11647847
0.038377017 -0.05204314 -0.11146699
0.057067577 -0.059924621 -0.11349542
0.063093483 -0.059141908 -0.11392046
0.071363449 -0.052085266 -0.11207424
-0.34719339 -0.013199282 -0.11553325
0.11472212 -0.10142159 -0.10304498
0.085931674 -0.095083505 -0.10239233
0.062442146 -0.081059873 -0.10134901
0.13254264 -0.085170552 -0.10419212
0.13146907 -0.075715274 -0.10619329
0.035395976 -0.060547277 -0.10453776
0.047217455 -0.065294705 -0.1084284
0.053800214 -0.068896145 -0.10858274
0.081828609 -0.067240745 -0.10534731
0.095792107 -0.066623136 -0.107038
0.12021565 -0.060344353 -0.10855223
-0.0025744045 -0.057668068 -0.10369049
0.0034888466 -0.056344684 -0.10301375
0.012692555 -0.054926161 -0.10295468
0.061179779 -0.051756352 -0.10737056
-0.34507591 -0.016168751 -0.10186376
-0.32152182 -0.013542196 -0.10213056
0.081762515 -0.094156072 -0.099423751
0.096648023 -0.095495999 -0.095747605
0.10952076 -0.092406549 -0.092471123
0.12900172 -0.091011882 -0.092069976
0.142094 -0.09042041 -0.096172817
0.08441212 -0.082475379 -0.094387464
0.08399944 -0.076885894 -0.094014347
0.091100752 -0.074141212 -0.093401477
0.10307278 -0.070940703 -0.09234298
0.13558722 -0.079962254 -0.095433533
-0.015000511 -0.066213429 -0.092301138
0.026900524 -0.065023549 -0.096157059
0.039548684 -0.066034652 -0.092953309
0.046662755 -0.061842337 -0.098610274
0.068679251 -0.062532127 -0.093256176
0.078806914 -0.060940638 -0.099208824
0.13435002 -0.065521985 -0.098399222
0.0056848708 -0.058042243 -0.093177542
0.041922931 -0.052926909 -0.098808631
0.068972811 -0.052230753 -0.099679701
-0.30478632 -0.016456485 -0.091351807
0.011488275 -0.099515818 -0.083473995
0.011957358 -0.070161611 -0.089450389
0.023013644 -0.06862554 -0.085236356
0.035004582 -0.069938466 -0.089040212
0.0036637769 -0.059678406 -0.088893987
0.078207426 -0.053212851 -0.08375819
0.086597949 -0.055044688 -0.087760665
-0.32209334 -0.020140015 -0.082354963
-0.32053545 -0.019905448 -0.0847698
-0.30544019 -0.018941585 -0.089178577
0.014745465 -0.10268734 -0.074425429
0.021117684 -0.10408273 -0.07118053
0.031060912 -0.10357869 -0.076604262
0.0085355397 -0.097912595 -0.076751769
0.017995793 -0.097154185 -0.074933693
0.020242529 -0.09093602 -0.07734815
0.0015232104 -0.061137743 -0.072940417
0.050063711 -0.065090589 -0.071858257
0.0006805521 -0.059354533 -0.078046873
0.042573545 -0.05535496 -0.071262099
0.058073115 -0.053675212 -0.076262534
0.079794914 -0.053755052 -0.074968152
-0.30124778 -0.021330453 -0.070957839
-0.30335662 -0.016103361 -0.072603159
0.0080843223 -0.10642103 -0.061432127
0.012729422 -0.10190362 -0.063557297
0.0099756578 -0.09942814 -0.068704396
0.014245085 -0.097953677 -0.062308401
0.026222834 -0.099736318 -0.068704396
0.023033628 -0.063385516 -0.067757607
0.045500025 -0.065384202 -0.065672398
0.066141322 -0.066134311 -0.065296337
0.08474116 -0.065943629 -0.066776417
0.096799344 -0.064608991 -0.067604758
0.017108208 -0.058037795 -0.0685139
0.073594615 -0.054405458 -0.064423904
0.098213717 -0.057262994 -0.067404181
-0.3093186 -0.022244763 -0.064850934
-0.29243681 -0.020968262 -0.069021642
-0.3370536 -0.019748129 -0.065457731
-0.00054970745 -0.062243849 -0.052029356
0.018772142 -0.064271286 -0.055758946
0.050421447 -0.066987589 -0.053916045
0.092905775 -0.067386352 -0.05557815
0.02656647 -0.058692828 -0.050409228
0.10521359 -0.056994818 -0.053734001
-0.28309733 -0.02358952 -0.050378509
-0.29698509 -0.017513271 -0.055978335
-0.28305081 -0.018413924 -0.055043932
0.0039397022 -0.061847772 -0.049984261
0.067164451 -0.069138482 -0.042009875
0.049088527 -0.057217464 -0.044800658
0.057342574 -0.056477845 -0.045701612
0.075435199 -0.055361461 -0.048925415
-0.28077921 -0.024182441 -0.045386445
-0.31615907 -0.019214021 -0.043458313
-0.30773976 -0.018742055 -0.043323483
-0.29214862 -0.018450703 -0.044990912
-0.28804514 -0.018865462 -0.040323779
-0.015066958 -0.082055137 -0.032567278
0.037677884 -0.081311926 -0.034284536
0.053874791 -0.082717247 -0.031037398
0.062760606 -0.082823567 -0.030791741
0.099340871 -0.083078839 -0.030201906
-0.020493219 -0.073192395 -0.037756756
-0.0060356674 -0.074181408 -0.037748419
0.097376987 -0.078034423 -0.036674336
0.10482149 -0.071739629 -0.038002521
0.11365832 -0.071916915 -0.037984014
0.1297482 -0.074005783 -0.030868184
-0.12638149 -0.060424242 -0.032893736
-0.11040491 -0.065777004 -0.030156355
-0.094875544 -0.064968422 -0.031067025
-0.025168641 -0.064480141 -0.03836396
0.11814648 -0.069419123 -0.038236313
0.1303592 -0.065733492 -0.035180144
0.14516196 -0.065907955 -0.030439276
0.25906494 -0.060130224 -0.033615861
-0.20039369 -0.050453722 -0.033574682
-0.16869283 -0.055192005 -0.033799581
-0.10221304 -0.055855758 -0.036320921
0.089186266 -0.053400308 -0.038251929
0.1128951 -0.055144832 -0.038974352
0.1435499 -0.054199494 -0.037037287
0.15632074 -0.051245559 -0.037624769
0.16520549 -0.058802776 -0.03518682
0.21974885 -0.056641191 -0.036551673
0.24155864 -0.057593361 -0.03599491
0.28600255 -0.056901045 -0.032891683
-0.20378442 -0.042302057 -0.036817893
-0.19613501 -0.04400669 -0.0375471
-0.17113258 -0.041529913 -0.03949593
-0.15277755 -0.049269281 -0.037730802
-0.11407743 -0.043624602 -0.039140638
-0.044989381 -0.04887398 -0.038096551
-0.0319966 -0.049236279 -0.038024489
-0.018179877 -0.048664637 -0.038138192
0.047731511 -0.043951426 -0.039075933
0.12890941 -0.04457064 -0.038952418
0.1744554 -0.042367145 -0.039390732
0.20753336 -0.048590779 -0.038152881
0.22207043 -0.048383746 -0.03819406
0.24565595 -0.047432072 -0.038383342
-0.24269208 -0.038257755 -0.030302156
-0.21148323 -0.033109877 -0.035641
-0.17061256 -0.030389179 -0.037280209
-0.1429617 -0.03750715 -0.038695809
-0.052718446 -0.030498199 -0.037301883
-0.013694109 -0.035109069 -0.03821877
0.019518677 -0.031803086 -0.037561409
0.029977668 -0.034808923 -0.038159072
0.061829384 -0.033973336 -0.037992984
0.078859232 -0.035491101 -0.038294822
0.09599562 -0.03077081 -0.037356015
0.17201404 -0.038096473 -0.038812988
0.20654696 -0.038032703 -0.038800307
0.21277411 -0.035458937 -0.038288362
0.22854412 -0.037768573 -0.038747769
0.24366064 -0.039213467 -0.039035168
0.29916173 -0.038482521 -0.031724378
0.30047393 -0.034673341 -0.030116318
-0.32059035 -0.020310875 -0.035906132
-0.3163161 -0.024540298 -0.03562931
-0.3034513 -0.025950629 -0.030846247
-0.28933087 -0.02610828 -0.031829055
-0.21478909 -0.029813286 -0.03464257
-0.16287482 -0.021656007 -0.033242729
-0.15561579 -0.029899951 -0.037182786
-0.1284485 -0.024646401 -0.035240829
-0.10694306 -0.029474661 -0.0370983
-0.035688791 -0.028026497 -0.03681013
0.0067186346 -0.028492909 -0.036902845
0.085984252 -0.025922308 -0.036093369
0.11633691 -0.023916494 -0.034511544
0.20451431 -0.021853939 -0.033374988
0.2274984 -0.021786897 -0.033330191
0.23166393 -0.025667718 -0.035923265
0.25878891 -0.026203446 -0.034987293
0.27110201 -0.027571019 -0.033342022
-0.085648976 -0.017518856 -0.030478381
-0.0093336338 -0.083532304 -0.025010638
0.06429664 -0.0833738 -0.027431773
0.09081322 -0.083653174 -0.023164246
-0.10313395 -0.073123664 -0.022726724
-0.09286046 -0.073244005 -0.022546638
-0.062546842 -0.075196162 -0.022085993
-0.044023599 -0.079564691 -0.026646048
0.13442166 -0.074815139 -0.020737251
0.20174223 -0.071141742 -0.02569294
0.23708516 -0.072586834 -0.023530176
0.2548188 -0.071214847 -0.025368361
-0.19332123 -0.060713537 -0.025537839
0.17984492 -0.067854092 -0.029138871
0.29196736 -0.061677385 -0.028666263
-0.22401135 -0.05514542 -0.024453282
-0.25833243 -0.045973115 -0.024391118
-0.28083757 -0.031177295 -0.024324933
-0.2493916 -0.038036659 -0.029034661
0.307473 -0.03675431 -0.028840173
-0.32214028 -0.024764108 -0.023530232
-0.30242866 -0.020323196 -0.026358236
-0.2840313 -0.020178733 -0.024721544
-0.24455391 -0.024925398 -0.029581377
0.27099434 -0.02056347 -0.029867217
0.28889778 -0.027274922 -0.029306957
-0.28919011 -0.019726099 -0.029790916
-0.17603868 -0.012209571 -0.025667619
-0.14390621 -0.014605621 -0.028247371
-0.13489492 -0.010752881 -0.023487514
-0.12787446 -0.012713751 -0.025763981
0.0019346215 -0.010844857 -0.023625167
0.12568881 -0.013128428 -0.027042791
0.17234537 -0.015866293 -0.029374178
0.19389908 -0.01258398 -0.026227964
0.20486623 -0.011249569 -0.024230864
0.26554328 -0.014972409 -0.026831033
-0.19900981 -0.0089573851 -0.02043676
-0.16533357 -0.0088910647 -0.020701092
-0.1405492 -0.0095937718 -0.021752775
-0.11067554 -0.0095462017 -0.021681581
-0.023659801 -0.0090198675 -0.020893859
0.10293405 -0.0089529976 -0.020793781
0.17597622 -0.0086581437 -0.0203525
-0.040414538 -0.080930665 -0.019834507
0.021650823 -0.084148481 -0.015598034
0.049081832 -0.084469594 -0.01069285
0.10689853 -0.084305592 -0.013198107
-0.15560323 -0.070926428 -0.015818976
-0.1498376 -0.071754649 -0.015614999
-0.1129536 -0.075074263 -0.018251561
-0.10921244 -0.076171502 -0.017215796
-0.060172804 -0.078963414 -0.011298778
-0.057924822 -0.078841172 -0.011913344
0.13763383 -0.07511951 -0.019739861
0.15163483 -0.078511052 -0.013573145
0.16373728 -0.077705823 -0.015159339
0.17250176 -0.075412177 -0.019301837
0.1819275 -0.075036764 -0.019863656
0.27423236 -0.07813748 -0.012157599
0.2885274 -0.074016653 -0.017208114
-0.22345954 -0.06117807 -0.010155072
-0.2709282 -0.050961148 -0.010793626
-0.26086763 -0.050633218 -0.016986422
-0.25622794 -0.053612165 -0.013304973
0.33933431 -0.05979073 -0.015173416
0.34701809 -0.056022637 -0.012366226
0.33372054 -0.035528488 -0.013474856
-0.33568835 -0.021100257 -0.011238263
-0.29620507 -0.020688884 -0.019838719
0.31975973 -0.029604096 -0.016751288
-0.31736216 -0.015786357 -0.013950499
-0.30524582 -0.011909531 -0.013041718
-0.28194383 -0.010533283 -0.015058164
0.27169341 -0.010881218 -0.019726437
0.29286414 -0.013065765 -0.016206684
-0.2327913 -0.0092106098 -0.018607048
-0.22208181 -0.0077643087 -0.017442478
-0.19600464 -0.0051205643 -0.014188207
-0.045266502 -0.0065527125 -0.01720148
-0.022486201 -0.0058624391 -0.016168404
-0.00063580275 -0.0051838919 -0.015152883
0.010707676 -0.0048767636 -0.013671471
0.057174213 -0.0054347673 -0.015528347
0.061022557 -0.004685381 -0.012709269
0.18785617 -0.0049384418 -0.013981565
0.22031251 -0.0075472826 -0.018689968
0.27287763 -0.0081345905 -0.015437762
0.2578342 -0.10363147 -0.003024942
0.26821235 -0.10267101 -0.0030667693
-0.055524644 -0.0801332 -0.0054176757
-0.024885222 -0.084276631 -0.0038350674
0.0016485518 -0.084719479 -0.006875772
0.012742556 -0.084554546 -0.0093952483
0.03943979 -0.085082993 -0.0013230001
0.05350459 -0.084800586 -0.005636801
0.1134769 -0.084748819 -0.0064275451
0.14201663 -0.080771931 -0.0022064466
0.17651807 -0.080362365 -0.0042655184
0.26463032 -0.085254915 -0.0036039944
-0.11203466 -0.079808548 -0.0011071628
-0.10766102 -0.07957989 -0.0052412916
0.14350322 -0.079662003 -0.0077865962
0.1770474 -0.07988634 -0.0066587417
-0.21460932 -0.064653292 -0.0013786831
0.35241157 -0.061136711 -0.0034915688
-0.26238418 -0.053160943 -0.0090409759
-0.25333858 -0.056680441 -0.00015821285
0.35111648 -0.055769715 -0.0095444191
-0.30888122 -0.041610345 -0.0036847827
-0.29105234 -0.046692893 -0.0051504979
0.33724296 -0.034380957 -0.0029197654
0.30520508 -0.01241876 -1.3138158e-06
-0.32359242 -0.0087366318 -0.0054448452
-0.31484866 -0.0042376542 -0.0025708675
-0.1806767 -0.0037763561 -0.0081390226
-0.17805521 -0.002355556 -0.00099575496
-0.16225743 -0.0040783715 -0.0096574454
-0.10580029 -0.0032407115 -0.0054459944
-0.034130581 -0.0035833579 -0.0071686963
-0.025274128 -0.0027511278 -0.0029845468
-0.0064886287 -0.0034721901 -0.0066097844
0.10736388 -0.002958043 -0.0040248404
0.13851249 -0.0024724831 -0.0015836228
0.15942848 -0.003399895 -0.0062463125
0.1885177 -0.0037413426 -0.007962985
0.22291923 -0.0030883029 -0.0046797404
0.24670497 -0.0026076736 -0.0022633118
0.25225753 -0.002546265 -0.0015749692
0.27727398 -0.0062765097 -0.0060813399
-0.30101609 0.0058683455 -0.0054463213
-0.22876698 0.0074463254 -0.004701037
-0.31563979 0.014373928 -0.0018883483
-0.30879796 0.014514918 -0.0039232895
-0.25089633 0.016906228 -0.0063971779
-0.30401552 0.028191481 -0.0051506246
-0.3241843 0.036919266 -0.0009138133
-0.26341721 0.0387257 -0.0055386852
-0.2548092 0.038897291 -0.0042158915
-0.32053792 0.045274653 -0.0025693313
-0.3174383 0.049811326 -0.0034874368
-0.29724193 0.048423748 -0.0052717468
-0.2851311 0.048739247 -0.005224905
-0.2522009 0.045115706 -0.0021750533
-0.31793988 0.053816367 -0.0034663733
-0.28483415 0.053954374 -0.0050031911
-0.27146259 0.058056816 -0.0041230065
-0.26310399 0.056855895 -0.0022902796
-0.32265905 0.063232027 -0.0028560851
-0.3136642 0.066048518 -0.0039587249
-0.29342502 0.07262034 -0.0042581232
-0.30503643 0.081897378 -0.0039057957
-0.29688463 0.088030934 -0.0036247475
-0.32603735 0.1137092 -0.0020332474
0.25570884 -0.10307258 0.00781406
0.26398209 -0.099670805 0.0028266707
-0.093472987 -0.081056155 0.00077749585
-0.057770226 -0.080861367 0.0017567835
-0.043447565 -0.080870107 0.0088162804
-0.028692136 -0.083433188 0.0083093354
-0.012539409 -0.084934816 0.0035864273
0.023974936 -0.084893674 0.0042147939
0.090789415 -0.085126817 0.0006534704
0.11952001 -0.084297195 0.0055527925
0.12565722 -0.083382532 0.0027200463
0.18465683 -0.080788806 0.0021219885
0.20191433 -0.080369785 0.004228753
0.21468572 -0.080178887 0.0051885704
-0.12284811 -0.078073114 0.0024313016
0.23809952 -0.079880178 0.0066905306
0.26589134 -0.077852599 0.0015091324
0.27484977 -0.078829423 0.0079240613
0.282442 -0.078330465 0.0054630064
0.29306996 -0.077178925 0.0068376502
-0.2037656 -0.0664161 0.0027884578
0.33614552 -0.069343165 0.003596412
0.3431083 -0.066894315 0.00014959765
0.35194534 -0.061473276 0.0037030389
-0.27173963 -0.052362297 0.0011749819
-0.30411345 -0.043058887 0.0034697766
-0.29588118 -0.044913627 0.0072711599
0.34736347 -0.040001102 0.002336666
-0.32556826 -0.03679245 0.002504677
0.34677815 -0.039763153 0.0040179612
-0.35370293 -0.020507611 0.0061293105
-0.34708196 -0.026664242 0.0066039851
0.32208458 -0.026345354 0.0066085877
-0.31105578 -0.0048569711 0.0021711504
-0.23368187 -0.004509531 0.0094637033
-0.22319186 -0.0042332485 0.008999588
-0.18364666 -0.003723782 0.0078746956
-0.11994971 -0.0037387987 0.0079501942
-0.10074716 -0.0033421118 0.0059557967
-0.096011944 -0.0032665166 0.0055757309
-0.08893346 -0.0035652665 0.0070777377
-0.057279766 -0.0028654211 0.0035591682
-0.024411546 -0.003169795 0.0050894516
-0.016858876 -0.0023768349 0.0011027344
0.017501326 -0.003596019 0.0072323512
0.034205772 -0.0039327051 0.0089250877
0.05352116 -0.0030328722 0.0044010528
0.17456755 -0.0040564323 0.0095471423
0.20854613 -0.0037727391 0.0081208348
-0.27888891 0.00043764355 0.0071937721
-0.25412458 0.005981497 0.0068747182
-0.2320669 0.001235045 0.0069140382
-0.21829562 0.0043414067 0.0033601283
-0.27279183 0.015720805 0.0065572155
-0.23838928 0.013082576 0.0058564986
-0.22085986 0.012143532 0.00040452747
-0.32340226 0.027271105 0.00047996535
-0.30417627 0.021675486 0.0051233722
-0.29240233 0.027772885 0.0061146766
-0.25371715 0.024695005 0.0060824426
-0.31000155 0.036981165 0.0044784197
-0.30208629 0.039050892 0.005378081
-0.32064584 0.061390631 0.0031481385
-0.26818082 0.062901087 0.0022148918
-0.31338909 0.075259946 0.0039653024
-0.28031161 0.073443808 0.0029050026
-0.27990881 0.071356073 0.0032696417
-0.3358444 0.082426898 0.00060046714
-0.3223584 0.083771087 0.0032031257
-0.31230083 0.088978291 0.0034969384
-0.29229516 0.081627488 0.0038720896
-0.33632612 0.091394179 0.0010756452
-0.30460072 0.10181479 0.0027295703
-0.3326703 0.11198543 0.0019391655
-0.021741256 -0.083750293 0.019231768
0.010745993 -0.084323905 0.012918442
0.022682894 -0.084194966 0.014888029
0.065023869 -0.084152833 0.015531657
0.092319749 -0.083943352 0.018731538
0.10581674 -0.084234387 0.014285826
-0.12941867 -0.073734388 0.01710639
-0.1012695 -0.078270741 0.014781197
0.15348119 -0.077782542 0.015754232
0.17879416 -0.077324182 0.016440239
0.18505062 -0.07829465 0.014661007
0.2217166 -0.076636888 0.017468859
0.27929756 -0.075742386 0.016824489
0.29604533 -0.075616755 0.013316922
-0.22401166 -0.060378365 0.013542875
-0.2022385 -0.064827815 0.011909686
-0.19576332 -0.065736927 0.013434812
-0.18819726 -0.067430124 0.011187118
0.32530445 -0.065555155 0.01672736
0.3302505 -0.068184555 0.011110195
0.34380427 -0.060915373 0.012016621
-0.26530719 -0.050741512 0.014838798
0.33350405 -0.055820271 0.019786814
0.34521332 -0.059938133 0.011638203
0.3344585 -0.042662214 0.019066814
0.34287113 -0.047193859 0.015511593
-0.31144023 -0.036205105 0.014115976
-0.29630616 -0.034600567 0.019703543
0.32925558 -0.035244543 0.016832378
-0.32025939 -0.021396659 0.015559583
-0.31005713 -0.010414977 0.010701527
-0.30351475 -0.015938431 0.016297439
-0.29014802 -0.010080695 0.013191631
-0.26984829 -0.0093920128 0.015087509
-0.22653022 -0.0092595778 0.019296657
-0.21149252 -0.0058767386 0.015187234
-0.2035609 -0.0067747557 0.016937234
-0.088556573 -0.00778207 0.019041356
-0.07663314 -0.0048057153 0.013314266
-0.069147617 -0.0053711166 0.015433086
-0.0043792278 -0.0059029236 0.016228996
0.019014375 -0.004162828 0.01008206
0.14285046 -0.00729093 0.018306307
0.15631971 -0.004173798 0.010137212
0.20710218 -0.0045970916 0.01226538
0.22330528 -0.00790767 0.01922933
0.23665212 -0.0047862297 0.013216298
0.26402649 -0.0064693699 0.014313185
0.27450535 -0.0075931433 0.013743162
-0.032508582 -0.081909865 0.023518771
0.10107486 -0.083233505 0.029574815
0.12264483 -0.081614166 0.024844892
-0.13614665 -0.070764758 0.020919027
0.15227044 -0.070652977 0.026424423
0.18460877 -0.073699646 0.021864813
0.19983847 -0.071879916 0.024588201
0.20316586 -0.07198213 0.024435218
0.27573234 -0.073147267 0.020735141
-0.077859893 -0.067008592 0.029703813
0.15565643 -0.067816556 0.029163975
0.23587321 -0.067737631 0.029216683
0.2542477 -0.066601738 0.029734146
0.27540404 -0.068796188 0.026710665
0.28848049 -0.061469555 0.029519662
0.30445927 -0.066898979 0.022166837
-0.25108069 -0.05088976 0.020797262
-0.2394695 -0.053875402 0.020319644
0.32185531 -0.059173889 0.022677861
-0.22765221 -0.04856604 0.02950638
0.31129038 -0.045235652 0.029610328
0.32361022 -0.046545271 0.024780214
-0.27788198 -0.030996323 0.024801545
-0.31272632 -0.021024121 0.025411708
-0.28792202 -0.023385558 0.026095007
-0.24721348 -0.029132711 0.029617788
0.3039597 -0.023538187 0.023012538
-0.27408889 -0.018281177 0.022161381
-0.24724221 -0.016983449 0.025181089
-0.21661904 -0.014861424 0.02705645
-0.19000238 -0.010511839 0.023126766
-0.17568234 -0.014527736 0.028479788
-0.12213382 -0.016114499 0.029540025
-0.10779336 -0.010851244 0.023634726
-0.098830506 -0.010288429 0.022792406
-0.071043186 -0.01079553 0.023551343
-0.021073021 -0.010829949 0.023602854
-0.0095886365 -0.015540931 0.029156782
0.046375025 -0.01387506 0.027599813
0.07900472 -0.011815933 0.025078492
0.11582671 -0.012638972 0.026310267
0.1247604 -0.014545241 0.028491486
0.17579632 -0.016169529 0.029576797
0.20730501 -0.013448944 0.026712898
0.21522403 -0.0144137 0.028403591
0.22539911 -0.011708257 0.024917345
-0.20770895 -0.0091942828 0.020345999
-0.19341195 -0.0088856816 0.020615999
-0.13816571 -0.0085807927 0.020236734
-0.10606459 -0.0099250125 0.022248514
0.090294793 -0.0085388245 0.020173926
0.10227846 -0.0085310834 0.020162338
0.1110822 -0.0093288515 0.02135629
-0.018652717 -0.081650794 0.033501543
-0.0037782001 -0.082091913 0.032482304
0.010015187 -0.081924051 0.032870166
0.035272118 -0.082285807 0.032034293
-0.056959074 -0.072940364 0.031920593
-0.030332003 -0.074425623 0.036667742
-0.027102733 -0.075550482 0.036884218
0.029507263 -0.074255288 0.037740707
0.054951627 -0.074461572 0.037719317
0.072516575 -0.076659158 0.037490707
-0.121951 -0.063720457 0.030924
-0.088801414 -0.062694646 0.032586321
-0.054011986 -0.067148775 0.034206592
0.058818709 -0.069114693 0.039890498
0.20602304 -0.060241122 0.034225717
-0.13425417 -0.052426707 0.037104927
-0.10267432 -0.058083355 0.035667501
-0.045724854 -0.051077552 0.037658334
0.022151193 -0.057005823 0.03828093
0.045024894 -0.056002945 0.038957015
0.082367636 -0.052709915 0.037858985
0.1325542 -0.059582222 0.034666013
0.14319794 -0.05045544 0.037781909
0.21564475 -0.050646666 0.037743971
0.23703328 -0.050829485 0.037707608
-0.20993757 -0.047959711 0.033275705
-0.18051496 -0.04081963 0.039354682
-0.11826748 -0.04999603 0.03787338
-0.10428642 -0.049226619 0.038026422
-0.07423079 -0.043740235 0.03911778
-0.0065531097 -0.044523306 0.038962115
0.0095744031 -0.047372021 0.038395494
0.057884764 -0.043547131 0.039156355
0.067889877 -0.043321393 0.039201252
0.07048808 -0.042857375 0.039293312
0.080250308 -0.043828227 0.039100435
0.1131056 -0.045411602 0.038785189
0.19241828 -0.045380834 0.038791329
0.20309591 -0.048793569 0.038112544
0.25673172 -0.042408444 0.038839441
0.29665852 -0.043335699 0.032994449
0.30466312 -0.045472626 0.030970909
-0.22752421 -0.034275174 0.03315606
-0.21643928 -0.038989365 0.035344388
-0.15535718 -0.036383614 0.038472537
-0.14277589 -0.035428163 0.038282506
-0.13558477 -0.030770876 0.037356064
0.0065166233 -0.036189206 0.038433902
0.068250686 -0.031457052 0.037492447
0.10755041 -0.039220147 0.039036568
0.11328155 -0.036700808 0.038535558
0.18375893 -0.031796947 0.037560165
0.21687441 -0.038752049 0.038943544
0.22032577 -0.038780995 0.038949296
0.24316441 -0.037051 0.038605273
-0.28783324 -0.025346944 0.037524626
-0.17706686 -0.026870608 0.036580112
-0.13467503 -0.026894052 0.036584768
-0.11628874 -0.026493773 0.036475219
-0.097162865 -0.027403282 0.03668623
-0.03426902 -0.02967108 0.037137177
0.010968593 -0.029610228 0.037125275
0.02132429 -0.02487882 0.035396133
0.042537734 -0.024878919 0.034960195
0.088933855 -0.025899144 0.036077864
0.14521626 -0.024892837 0.035405435
0.1598611 -0.020870987 0.032718204
0.16257399 -0.024522953 0.034773566
0.19333167 -0.028457031 0.036895823
0.23612337 -0.024946203 0.035441168
-0.28282818 -0.019022083 0.038854793
-0.096513219 -0.019074161 0.031517606
-0.057976104 -0.019060712 0.031508565
0.17189881 -0.019678347 0.031921305
0.21944414 -0.018815143 0.031344537
0.2411813 -0.0179279 0.030751698
0.0075807571 -0.06488467 0.041009296
0.058049452 -0.068459541 0.045474242
0.068481088 -0.06903173 0.04280683
0.096544161 -0.068222605 0.049087219
0.10842007 -0.067982242 0.043424435
0.11256854 -0.063222617 0.043486759
0.034746367 -0.058224417 0.046325319
0.04066639 -0.057966582 0.043943144
-0.32873082 -0.022391696 0.044351608
-0.28641397 -0.023836723 0.04901427
-0.31841728 -0.019505452 0.042013112
-0.3005805 -0.018759733 0.040584717
-0.29080454 -0.018584028 0.04349171
-0.28817838 -0.018329671 0.046827145
0.094973683 -0.054727539 0.059202489
-0.30612719 -0.022897189 0.059287764
-0.31122667 -0.017248301 0.05855567
-0.29531306 -0.01799776 0.050214984
0.018022768 -0.1146763 0.065901563
0.021900335 -0.094577163 0.068704396
0.026294291 -0.063776381 0.066481285
0.046991616 -0.06525407 0.068021491
0.068294123 -0.066279344 0.064170629
0.015564434 -0.058618836 0.06509687
0.0352294 -0.05658365 0.064053923
0.055784304 -0.054714397 0.066670246
-0.32429248 -0.021400904 0.064524643
-0.31318298 -0.01658323 0.065905578
-0.30426481 -0.01680712 0.063890979
-0.28992909 -0.018723324 0.068490878
0.01504115 -0.091677994 0.079983465
0.0025594411 -0.06094427 0.075643606
0.085580811 -0.064093813 0.078296944
0.021989722 -0.056974009 0.072154328
0.076170109 -0.053815987 0.073980302
0.094946966 -0.055586167 0.072208658
-0.31669444 -0.021482583 0.071645685
-0.30081439 -0.020339983 0.078576744
-0.29672256 -0.019126236 0.077385947
0.023953754 -0.09182518 0.082758226
0.12759694 -0.08241494 0.089776337
-0.010547692 -0.061841983 0.088801146
0.010259383 -0.060847864 0.082605422
0.022640638 -0.06656196 0.087229945
0.042810664 -0.063406765 0.082626812
0.084158696 -0.06219925 0.089209132
-2.6016845e-05 -0.058456264 0.087965742
0.015027067 -0.059300557 0.089863427
0.057771668 -0.052835323 0.089878589
0.075041242 -0.05324173 0.083290011
0.089535244 -0.05909973 0.084514618
-0.32115176 -0.019663975 0.086758457
-0.30351308 -0.019655757 0.084341466
0.084101439 -0.093177587 0.097389221
0.10887626 -0.099287689 0.09889584
0.11587905 -0.096423559 0.095374301
0.142094 -0.091652788 0.097096667
0.068892151 -0.083589733 0.099781632
0.095343962 -0.088033497 0.091522299
0.086134642 -0.072919518 0.097448826
0.0046523535 -0.060949013 0.093497388
0.021419348 -0.064917341 0.092154622
0.04745581 -0.062886141 0.090508364
0.080994286 -0.061435446 0.095191918
0.11660141 -0.068354756 0.094058119
0.062024262 -0.052543771 0.094605073
-0.33952272 -0.017422266 0.096620746
-0.31270793 -0.014293397 0.09382505
-0.30949974 -0.014308779 0.093898296
0.095096439 -0.10093187 0.10604525
0.12563628 -0.10120968 0.10367106
0.13647853 -0.10081719 0.1093154
0.071058542 -0.09114752 0.10361992
0.13066845 -0.096775897 0.10906532
0.057976902 -0.083804063 0.10784961
0.13262792 -0.081155568 0.10622358
0.027657012 -0.060053952 0.10354307
0.062268779 -0.061050989 0.10475267
0.10006431 -0.060677763 0.10731105
0.11178504 -0.060902692 0.10703801
0.13652897 -0.068634525 0.10246894
0.013884151 -0.058403865 0.10916907
0.045884661 -0.052439373 0.10071323
0.050190214 -0.051645692 0.10916455
-0.34779423 -0.015342038 0.10758407
-0.31461748 -0.013502012 0.10327586
0.11861633 -0.10209092 0.11708769
0.13451257 -0.1013054 0.11139661
0.071756579 -0.093458287 0.11201755
0.085582048 -0.097166136 0.11478665
0.13651586 -0.096334949 0.11505368
0.14113897 -0.099066228 0.11303324
0.061640449 -0.082076617 0.11806157
0.061550457 -0.077150822 0.1127093
0.082842201 -0.0638142 0.11299876
0.11328379 -0.064554229 0.114297
0.13516444 -0.066357903 0.11234941
-0.0037909707 -0.056518313 0.11294425
0.011656751 -0.05399704 0.11293855
0.029159375 -0.051997457 0.11852568
0.045495648 -0.055208683 0.1176971
0.068101533 -0.059824828 0.11421578
0.084326006 -0.056521513 0.11233653
0.11149728 -0.057762831 0.114297
-0.32867014 -0.01234236 0.11610194
-0.31987292 -0.012974122 0.11265966
0.084145792 -0.090515301 0.12189464
0.093195498 -0.096348546 0.12407641
0.10941071 -0.094352774 0.12743895
0.13468941 -0.094702229 0.12538239
0.13614284 -0.084383368 0.12562409
0.085949183 -0.074318603 0.12502709
0.09163931 -0.069261901 0.12567702
0.10145622 -0.065413222 0.12353012
0.1122217 -0.069257587 0.12789407
0.11735007 -0.087709665 0.13106236
0.12071904 -0.075929984 0.13110273
-0.0030519115 -0.055240244 0.13226105
0.0070592924 -0.052582923 0.13188036
0.013135394 -0.056454714 0.13302238
0.041938778 -0.049953915 0.13664497
-0.0068714628 -0.053433746 0.14303625
0.00098675489 -0.051332545 0.14945012
0.045979336 -0.056631155 0.14970347
0.052766595 -0.049591988 0.14426713
-0.0028745998 -0.06293539 0.15619318
0.007019741 -0.062374491 0.15397641
0.00059104059 -0.050667211 0.15517108
0.019850967 -0.049649768 0.15055346
-0.013110077 -0.05202413 0.16206661
0.0042144866 -0.057272613 0.16023473
-0.016090028 -0.051694352 0.17872433
0.0054481784 -0.048772968 0.17021149
0.028911967 -0.047825493 0.17128533
-0.014414998 -0.051777557 0.18915945
0.031992767 -0.053841256 0.18423447
-0.018281022 -0.049767174 0.18637201
0.012265773 -0.046747625 0.18882787
0.024115866 -0.046836246 0.1873855
0.029612241 -0.047120079 0.19184802
0.015234074 -0.0521672 0.20712724
-0.0030177003 -0.046290062 0.20307238
-0.011294127 -0.051065542 0.21012524
0.0094210077 -0.045435041 0.21019033
-0.032361075 -0.052116744 0.22694172
-0.011256853 -0.051714249 0.22073358
-0.0083472487 -0.054849576 0.22145265
0.00013101846 -0.051026288 0.22180378
-0.016431423 -0.047651689 0.22554542
-0.0025524292 -0.048950139 0.22456017
0.013813427 -0.04944323 0.22411045
-0.006578119 -0.049929839 0.23590846
-0.030626491 -0.048024461 0.24421605
-0.0092850216 -0.049073145 0.24692884
-0.038370255 -0.046753965 0.25902358
-0.011144605 -0.047225773 0.26795742
-0.0092028808 -0.042222008 0.26301488
-0.052017927 -0.04457565 0.27533329
-0.0449058 -0.04324675 0.27154303
-0.027589146 -0.047115862 0.27210703
-0.013969753 -0.045286361 0.27679095
-0.053009555 -0.042789876 0.28584465
-0.048085578 -0.043482728 0.28394032
-0.02544488 -0.046467327 0.28044969
-0.019983927 -0.044287883 0.2885502
-0.059052829 -0.042563468 0.29837364
-0.022010813 -0.042415868 0.29286513
-0.030585537 -0.041430272 0.30919692
-0.026800014 -0.04334379 0.30146599
-0.033205096 -0.042093463 0.31390736
-0.058605798 -0.04239963 0.32473296
-0.056009844 -0.03895108 0.32147843
-0.047916532 -0.038541451 0.32238469
