# .PCD v0.7 - Point Cloud Data file format
VERSION 0.7
FIELDS x y z
SIZE 4 4 4
TYPE F F F
COUNT 1 1 1
WIDTH 865
HEIGHT 1
VIEWPOINT 0 0 0 1 0 0 0
POINTS 865
DATA ascii
-0.10489887 -0.054183491 -0.33190119
-0.099708982 -0.053975053 -0.33803308
-0.08894518 -0.053919088 -0.33254781
-0.098192774 -0.054761223 -0.32338938
-0.08945173 -0.054144651 -0.32200366
-0.078590691 -0.055667743 -0.32659471
-0.10114843 -0.056629386 -0.3120946
-0.095908538 -0.055807725 -0.31446886
-0.08329463 -0.057096966 -0.31302401
-0.070304506 -0.055911612 -0.29675037
-0.084776059 -0.060129736 -0.28497821
-0.043637339 -0.060894184 -0.28156993
-0.083259158 -0.059637386 -0.28964388
-0.073032387 -0.057511851 -0.28586692
-0.063169643 -0.061460584 -0.27463317
-0.043345705 -0.06171295 -0.27405927
-0.047383048 -0.057720523 -0.27580738
-0.089087941 -0.062546566 -0.26235223
-0.068301275 -0.062040836 -0.26883981
-0.061519448 -0.063341752 -0.25746325
-0.07832621 -0.063587338 -0.24775048
-0.07168109 -0.064618982 -0.23606154
-0.071185283 -0.067551546 -0.22021373
-0.068577595 -0.066346169 -0.22918651
-0.052160293 -0.069784574 -0.2204362
-0.037533388 -0.067073323 -0.2252323
-0.02248719 -0.061998427 -0.22904105
-0.067986391 -0.068425938 -0.21009523
-0.046969589 -0.068029054 -0.21560304
-0.027642632 -0.063157663 -0.21371812
-0.046460152 -0.06905096 -0.20624179
-0.031603951 -0.064012066 -0.20781729
-0.018829009 -0.069066249 -0.20853807
-0.058082178 -0.070317134 -0.19356059
-0.030145817 -0.070678197 -0.19270276
-0.053734906 -0.06835413 -0.19595934
-0.047455247 -0.069876701 -0.19855346
-0.03790566 -0.071859635 -0.18114382
-0.0084329266 -0.071738951 -0.18485405
0.0027077766 -0.06643457 -0.18344897
-0.045475915 -0.072550617 -0.17411599
-0.0098243272 -0.073094189 -0.17225699
-0.0053394996 -0.066647425 -0.1724416
-0.063792326 -0.077258006 -0.16038775
-0.055581544 -0.077489942 -0.16194908
-0.013848284 -0.078305766 -0.16016808
-0.0089225806 -0.073969215 -0.16428229
0.0045602443 -0.074294403 -0.1624783
0.020413499 -0.074713014 -0.16002336
0.10786795 -0.11157276 -0.15100951
0.098645672 -0.10534433 -0.15151972
0.10013545 -0.10247688 -0.1516118
0.1158157 -0.10834644 -0.15259948
0.13971668 -0.10538402 -0.15046242
-0.049222693 -0.07429184 -0.15206061
-0.034363959 -0.075211458 -0.15060419
0.0076209102 -0.07466799 -0.15930955
0.0087650316 -0.067735121 -0.15621474
0.10736585 -0.11446582 -0.14915067
0.11326363 -0.1174507 -0.14694056
0.096628301 -0.10942844 -0.14386812
0.11526823 -0.092653081 -0.14902651
0.099755332 -0.085612237 -0.14032224
-0.041251089 -0.076095723 -0.14185767
-0.035167184 -0.072800793 -0.14969578
-0.015761951 -0.076181993 -0.14331158
-0.0042600613 -0.075909935 -0.14683016
0.022093367 -0.076562956 -0.14314368
0.11807511 -0.12247203 -0.1386905
0.09231735 -0.11953823 -0.13924474
0.13255748 -0.1113206 -0.13140938
0.054075927 -0.10343214 -0.13019066
0.021310037 -0.093457431 -0.13315924
0.063519187 -0.096564971 -0.13518308
0.13270886 -0.095579155 -0.13546553
0.018812772 -0.086539686 -0.13291837
0.028903328 -0.08245796 -0.13277258
0.10372119 -0.080001824 -0.13266195
0.11471419 -0.087821811 -0.13058753
0.14195597 -0.085188523 -0.13386697
-0.016225025 -0.074409381 -0.13589711
-0.0042305896 -0.070763998 -0.13612285
0.0027860024 -0.077208258 -0.13550124
0.011341544 -0.073767729 -0.13418649
0.038062461 -0.076900564 -0.13297495
0.066513099 -0.11631088 -0.1254825
0.13467427 -0.11754368 -0.12932065
0.044957019 -0.10310337 -0.12886691
0.015255934 -0.09349516 -0.12994349
0.020119499 -0.095175929 -0.12284222
0.05035498 -0.090374887 -0.12072655
0.069711722 -0.090876877 -0.12733023
-0.04945156 -0.086672276 -0.12143908
-0.034390993 -0.086840473 -0.12075655
0.0023303444 -0.080393687 -0.12401038
0.073079385 -0.088563412 -0.12685141
0.10127845 -0.087698415 -0.12998468
-0.044965636 -0.078745522 -0.12259962
-0.039699588 -0.077638015 -0.12779585
0.0038658876 -0.071319051 -0.12684761
0.020734459 -0.070354894 -0.1274589
0.070219688 -0.077610552 -0.12347151
0.11797471 -0.12154941 -0.11181549
0.077810302 -0.11363924 -0.1168227
0.084850907 -0.11801713 -0.11297856
0.11064045 -0.11425494 -0.1141855
0.063148409 -0.10193553 -0.11677172
0.092631139 -0.10107904 -0.11052223
0.13265952 -0.10068274 -0.11211298
0.019494804 -0.091585562 -0.11981685
0.026715385 -0.090270177 -0.11976849
0.06674289 -0.097998604 -0.11204804
0.026988521 -0.080113739 -0.11089176
0.049174011 -0.089460157 -0.11973286
-0.017874107 -0.079761311 -0.11017817
0.0027591933 -0.072667688 -0.11593345
0.013292633 -0.079611294 -0.11430834
0.085034184 -0.11089383 -0.10627063
0.10244904 -0.11680321 -0.10722542
0.088641584 -0.107558 -0.10473092
0.13441299 -0.10467376 -0.10923534
0.12562226 -0.095043868 -0.10485002
-0.034588065 -0.080497205 -0.10193
0.038755562 -0.08065705 -0.10692911
0.046877336 -0.081333704 -0.10141742
-0.011237169 -0.075514294 -0.10465845
0.005025126 -0.073840767 -0.10491721
0.04944285 -0.074099436 -0.10418195
-0.32648385 -0.025051568 -0.10145316
-0.032719169 -0.081216797 -0.095471315
0.0090577668 -0.082063951 -0.091358952
0.026806302 -0.081788093 -0.095464095
-0.033350233 -0.079001367 -0.098531529
0.026355138 -0.074072503 -0.090421274
0.032519225 -0.073553011 -0.092753038
-0.32359785 -0.023282552 -0.096145868
-0.28982794 -0.024276134 -0.095317736
-0.01724996 -0.082520902 -0.084832154
0.061937153 -0.083383426 -0.083879516
0.071064129 -0.081981391 -0.086349346
0.0034454162 -0.076195851 -0.08765994
0.030657196 -0.074765325 -0.082153015
-0.036475092 -0.081638582 -0.078177921
-0.019854706 -0.080540806 -0.071981966
-0.019084588 -0.079903223 -0.076382659
0.0050931615 -0.078089356 -0.071471661
0.014983213 -0.076566413 -0.075600371
0.038373474 -0.075073868 -0.076416515
-0.31232989 -0.024125017 -0.079114005
-0.30299693 -0.024485514 -0.078849308
-0.28531149 -0.02554783 -0.073223785
0.067256704 -0.085327789 -0.066452026
0.075387254 -0.08529833 -0.067440599
0.053955331 -0.075456336 -0.067073032
-0.28338099 -0.028579209 -0.064366139
0.029162263 -0.086196169 -0.055097822
0.095333345 -0.082960248 -0.050970998
0.016442889 -0.079475753 -0.051577318
0.0283003 -0.077585906 -0.057070501
0.031050049 -0.077418633 -0.057295807
0.05430625 -0.077032521 -0.052263118
0.074149311 -0.077123351 -0.054506559
-0.3184675 -0.02881455 -0.057558343
-0.29352221 -0.028988492 -0.058334686
-0.28570405 -0.029657654 -0.051258739
-0.27157789 -0.029242527 -0.057814658
-0.2565774 -0.029915459 -0.051513672
0.025788147 -0.10705667 -0.040144701
0.051695511 -0.10429598 -0.041782629
-0.022231631 -0.09611541 -0.045320801
-0.017020624 -0.09968476 -0.045320801
0.0664111 -0.098277539 -0.045320801
0.072081998 -0.098332822 -0.044846632
0.097049057 -0.094806768 -0.043810911
0.11248614 -0.09489511 -0.040294684
-0.043034941 -0.087620571 -0.045011312
-0.01860884 -0.081752174 -0.045320801
0.011018962 -0.08519005 -0.049506512
0.046762392 -0.083253764 -0.04925881
0.066747263 -0.083778843 -0.043903597
0.070061758 -0.085317492 -0.045320801
0.083568849 -0.085841559 -0.046980936
0.11646665 -0.088904448 -0.045320801
0.15348653 -0.082663186 -0.040694702
-0.054678731 -0.074568123 -0.043254003
-0.049752504 -0.076223344 -0.045320801
-0.017974392 -0.072911963 -0.043882851
0.0029351767 -0.079974756 -0.041221812
0.035544526 -0.079509936 -0.047114916
0.064808726 -0.074270912 -0.04698975
0.10483101 -0.075625435 -0.04491863
0.13284671 -0.076976299 -0.043018464
0.20056769 -0.071606532 -0.043752968
-0.12040056 -0.067800224 -0.041680954
-0.10839227 -0.068279065 -0.043267824
-0.060053229 -0.063040756 -0.045689203
-0.046369821 -0.067050047 -0.04238385
-0.012378274 -0.068295814 -0.045043472
-0.0077757798 -0.066741034 -0.045263313
0.005994143 -0.066873007 -0.041870646
0.070400044 -0.06905321 -0.045048445
0.081609517 -0.068716042 -0.043745235
0.12325504 -0.062958844 -0.045936726
0.19466686 -0.062847354 -0.045551207
0.20924847 -0.064631857 -0.043418039
-0.14077297 -0.054478601 -0.040907294
-0.084738269 -0.056678794 -0.045716703
-0.07538785 -0.050438724 -0.044864997
-0.066064097 -0.052890144 -0.045182701
-0.0062557338 -0.053316694 -0.045162983
0.088131331 -0.050674312 -0.044685703
0.11591969 -0.057239182 -0.045533191
0.18217136 -0.056262724 -0.045316361
0.19045693 -0.05877538 -0.045643896
-0.13402706 -0.047178254 -0.040568691
-0.10235287 -0.043853883 -0.042199381
0.037084676 -0.044514555 -0.042577568
0.093649574 -0.048464656 -0.044020265
0.1105708 -0.045730896 -0.042794291
0.15001066 -0.042017736 -0.041062459
0.18304235 -0.048605584 -0.043717269
-0.27204812 -0.03051158 -0.042648997
-0.26633492 -0.030651852 -0.041630808
0.029904384 -0.038377009 -0.040008612
-0.26831108 -0.029989664 -0.049290624
0.023361446 -0.10711464 -0.035926189
0.031140588 -0.10692883 -0.036165833
0.047137026 -0.10624425 -0.036120996
0.057288773 -0.10528588 -0.037053581
0.073831327 -0.10351532 -0.036727607
0.083882138 -0.10073512 -0.039198965
0.10630409 -0.10107867 -0.032436643
-0.079233825 -0.090150595 -0.033043332
-0.063258797 -0.098143391 -0.036612511
0.0093986019 -0.093004674 -0.031757429
0.10695855 -0.098640889 -0.036765017
0.12169617 -0.09464328 -0.031008851
-0.084977821 -0.085736416 -0.036502913
-0.030614905 -0.087475494 -0.036163416
-0.015770849 -0.086882532 -0.03673999
-0.0077274311 -0.086961456 -0.036738575
0.0049917172 -0.087812252 -0.038088974
0.013810759 -0.088329151 -0.0341096
0.036131211 -0.088277966 -0.036550321
0.048218824 -0.085430965 -0.038359322
0.052781355 -0.08670833 -0.037391912
0.089419849 -0.08709234 -0.037366167
0.10474206 -0.088903248 -0.036849484
0.18519145 -0.089953855 -0.035842057
-0.081106059 -0.075407967 -0.030368367
-0.070962533 -0.071790516 -0.032797173
-0.15679599 -0.064050987 -0.037134875
-0.052578729 -0.068246871 -0.038144335
-0.045125436 -0.066810183 -0.03626937
-0.03133586 -0.06651523 -0.033367928
0.24382624 -0.067904457 -0.037090253
0.25834662 -0.053377338 -0.030895166
-0.15849757 -0.049519662 -0.038502246
0.20700757 -0.043751799 -0.039279923
-0.31820655 -0.030479368 -0.037763335
-0.29539114 -0.030622214 -0.038666815
-0.18278283 -0.034637772 -0.031764004
-0.082017727 -0.034875967 -0.038145974
-0.06781508 -0.037136264 -0.039811801
-0.058197998 -0.030751619 -0.034732472
0.15971136 -0.035840556 -0.03708512
0.17574415 -0.031371955 -0.033460326
-0.29410055 -0.027894305 -0.037173782
-0.24698953 -0.029574446 -0.037726153
0.035193138 -0.028926603 -0.032557648
0.040842287 -0.027724931 -0.030885071
0.060081504 -0.028317206 -0.031428259
0.11732076 -0.028033759 -0.030319965
0.18876997 -0.029938798 -0.031944875
-0.070026517 -0.10149385 -0.021736732
-0.0020826557 -0.10631946 -0.028953591
0.0022242339 -0.10650561 -0.028407644
0.018985525 -0.10059144 -0.020608731
0.047191769 -0.10654546 -0.023392633
0.095163152 -0.10335636 -0.029067209
0.18290429 -0.10149295 -0.022261264
0.19879213 -0.10145114 -0.021927318
-0.11052684 -0.090860084 -0.02630711
-0.10948364 -0.091064662 -0.026361458
-0.096634388 -0.093549699 -0.026038222
-0.086797945 -0.096284494 -0.024315011
-0.057999514 -0.093398198 -0.029876627
-0.026657939 -0.094942346 -0.028716296
0.028910136 -0.095704228 -0.028411096
0.074026383 -0.095953733 -0.028654836
0.10766228 -0.097297132 -0.027295033
0.1150878 -0.097854316 -0.029063066
0.19800812 -0.09747041 -0.027569365
0.22929275 -0.09987402 -0.021364206
0.23826709 -0.099664532 -0.020440567
0.24479029 -0.095949396 -0.023343949
-0.1451485 -0.085842729 -0.022028297
-0.18376096 -0.078187451 -0.020134965
-0.1760928 -0.072158217 -0.029146127
0.10177326 -0.071457088 -0.021875102
0.26818988 -0.079321958 -0.028710049
-0.2173247 -0.067842916 -0.021571018
-0.0050736517 -0.066766933 -0.029368963
0.034648817 -0.067147635 -0.029190693
0.070953727 -0.067934617 -0.024047101
0.27417678 -0.054417863 -0.026293188
0.26944372 -0.041845195 -0.020901633
-0.28424141 -0.031718716 -0.026882382
-0.24498297 -0.033544004 -0.021471009
-0.22132291 -0.03470565 -0.026355591
0.23618045 -0.033680946 -0.026449172
-0.29828775 -0.029488854 -0.024782365
-0.271824 -0.029944645 -0.02046337
-0.20433766 -0.024183204 -0.020223729
-0.1918596 -0.028234512 -0.026131352
-0.17026879 -0.024115926 -0.022687858
-0.15927462 -0.028886203 -0.028985668
-0.12929685 -0.023252081 -0.024322942
-0.052749258 -0.02067339 -0.022299509
-0.049507312 -0.025938321 -0.029658969
-0.010101685 -0.021206034 -0.022604881
0.012510117 -0.02335217 -0.025422804
0.022958182 -0.021762695 -0.023172161
0.036082909 -0.020607671 -0.020035829
0.047034834 -0.022351418 -0.023648873
0.05962421 -0.021660918 -0.022077788
0.063381314 -0.025597464 -0.027763646
0.080914684 -0.026590779 -0.028862797
0.1882045 -0.028407622 -0.029912803
0.21170609 -0.025827602 -0.022211103
-0.082152992 -0.10045725 -0.015023586
-0.033276618 -0.10497096 -0.012970447
-0.0033248886 -0.10626578 -0.015558923
0.0095399721 -0.10218824 -0.016445234
0.035208393 -0.10440054 -0.010582339
0.073003531 -0.10592894 -0.013821309
0.10613634 -0.10404611 -0.013908173
0.11353388 -0.10070594 -0.012119797
0.22543852 -0.10511078 -0.010089348
-0.14292623 -0.0906232 -0.012186829
-0.13794616 -0.09061867 -0.014971894
-0.085807003 -0.099959552 -0.013486653
0.2995165 -0.091945417 -0.013535472
-0.15704645 -0.08803919 -0.011024714
-0.19585839 -0.079277933 -0.012153031
0.11391947 -0.078660667 -0.016171893
-0.25439832 -0.062616706 -0.011149695
-0.24415748 -0.064256601 -0.013755316
0.045444056 -0.067251101 -0.015005348
-0.28199548 -0.042713795 -0.014962745
0.28215471 -0.043139033 -0.016944632
-0.30268079 -0.031509336 -0.011877397
-0.28926843 -0.0398985 -0.013424605
-0.27077425 -0.030238995 -0.017003741
-0.26300994 -0.032717448 -0.017413067
-0.28414816 -0.026308268 -0.010527084
-0.25924376 -0.023110438 -0.010630928
-0.24983805 -0.023561724 -0.012199398
-0.21563751 -0.021848882 -0.015094878
-0.19810976 -0.021354456 -0.016331974
0.055388272 -0.020614263 -0.019595386
0.096391067 -0.021117229 -0.019866439
0.24351189 -0.027299067 -0.013303146
-0.18417236 -0.01889449 -0.01114054
-0.13797225 -0.01804838 -0.013118102
-0.061865941 -0.016593872 -0.0124491
0.042437032 -0.018888732 -0.01564423
-0.093841121 -0.10133356 -0.009332547
-0.049553897 -0.10426727 -0.0096221231
-0.032330185 -0.10501188 -0.0075062928
-0.015508609 -0.10467763 -0.0046565207
-0.0076394295 -0.1060793 -0.0064351596
0.044015191 -0.10662132 -0.0060241735
0.057509087 -0.10572852 -0.0039757956
0.085361257 -0.10588656 -0.00025359957
0.095296122 -0.10529661 -0.0072183167
0.10223201 -0.10523082 -0.002702157
0.17316085 -0.10632354 -0.005924487
0.21768716 -0.10616606 -0.0036879594
0.23508614 -0.10502849 -0.0088573694
0.27231696 -0.10168371 -0.0041721375
-0.13785911 -0.092540853 -0.0081767291
-0.12552287 -0.095232055 -0.0070450562
0.11627498 -0.093835711 -0.0029814066
-0.091772929 -0.082052432 -0.0091969343
-0.23168091 -0.072039917 -0.00073488383
-0.21590757 -0.075692475 -0.0066529233
0.089204565 -0.068852343 -0.0039122868
0.33903807 -0.066325255 -0.00072241854
-0.28461039 -0.052740674 -0.0099326633
0.30996802 -0.053344473 -0.0009454214
-0.30155805 -0.044275001 -0.0093533741
0.27756101 -0.035153218 -0.0073737996
-0.31366354 -0.028607063 -0.00662449
-0.28523538 -0.0222391 -0.0049537318
0.20969257 -0.020067267 -0.005573032
-0.27602431 -0.011771323 -0.0028970654
-0.25308698 -0.016512852 -0.0031018001
-0.24836257 -0.016436335 -0.0031018001
-0.18508667 -0.014598049 -0.0063881068
-0.17824684 -0.017811503 -0.007253048
-0.13703775 -0.010904713 -0.0019902471
-0.050677776 -0.01557384 -0.0045264149
-0.012044722 -0.016511496 -0.0089301597
-0.26589379 -0.0095864739 -0.0031018001
-0.21639469 -0.0044702915 -0.0031018001
-0.24434252 0.022349147 -0.0031018001
-0.2096329 0.024440385 -0.0031018001
-0.27433711 0.035010327 -0.0031018001
-0.2332688 0.030394152 -0.0031018001
-0.30675748 0.044443578 -0.0017385778
-0.29407385 0.042417124 -0.002915109
-0.23355612 0.042291451 -0.0031018001
-0.2604267 0.060790285 -0.0031018001
-0.32342014 0.079630129 -0.00072712742
-0.25757527 0.077163205 -0.0031018001
-0.29532427 0.083530068 -0.0031018001
-0.26595801 0.081805393 -0.0031018001
-0.31608844 0.096065626 -0.00253325
-0.32179642 0.10948847 -0.0021947781
-0.31905931 0.10749528 -0.0025507545
-0.29457259 0.10313645 -0.0031018001
-0.30297649 0.11331193 -0.0031018001
-0.31355134 0.12336884 -0.0031018001
-0.075418457 -0.1015472 0.002094354
-0.037923358 -0.10438674 0.0065246839
0.0246116 -0.10708477 0.0094299959
0.065537579 -0.10497813 0.0080086915
0.073926993 -0.10515921 0.007227486
0.087192982 -0.10539829 0.0063592657
0.20174116 -0.10677996 0.0016659931
0.2149058 -0.10580672 0.0064998064
-0.13457285 -0.093682773 0.0040516607
0.29692739 -0.096095391 0.0055993982
0.33802438 -0.081781998 0.0028093043
-0.07371331 -0.072320752 0.0093901865
0.34070581 -0.070035651 0.0055473242
-0.25438231 -0.065072559 0.0052594934
-0.2342138 -0.069545805 0.0092063937
-0.040030427 -0.066431902 0.0047608623
-0.016183151 -0.066660456 0.0016347282
-0.31205744 -0.046315733 0.0050260276
0.29782268 -0.048401725 0.0063723954
-0.31159562 -0.022390559 0.0020476966
-0.28666273 -0.02357241 0.0070156427
-0.27872524 -0.022836324 0.0070028501
-0.24411234 -0.019682575 0.0029377986
-0.23971346 -0.015104639 0.0029155905
-0.22983801 -0.014779802 0.0031787399
-0.20974141 -0.015825661 0.0019346738
-0.18182236 -0.014700299 0.0025267499
-0.13657653 -0.014656382 0.0037787943
-0.11737903 -0.015467198 0.0016361243
-0.10415633 -0.016070422 0.0091344798
-0.094326019 -0.014738325 0.00087991077
-0.0031714346 -0.015695402 0.001589288
0.014068682 -0.016616395 0.0074554724
0.024688829 -0.017002678 0.0096636666
0.031416576 -0.016755797 0.0072467336
0.11602086 -0.016749112 0.00089963328
0.12063251 -0.017803047 0.0087374076
0.15210184 -0.018228767 0.0097003868
-0.30617478 -0.0070497505 4.6597343e-05
-0.27133936 -6.667804e-06 0.0031787399
-0.17296648 -0.0032026884 0.0022483096
-0.30644903 0.0083582522 0.00062653795
-0.28638411 0.0025468236 0.0024298402
-0.27706477 0.0084289638 0.0031787399
-0.23324022 0.00044199941 0.0031787399
-0.28829601 0.01956623 0.0028064037
-0.17981187 0.010581703 0.002121116
-0.28885493 0.038710061 0.0031787399
-0.25201339 0.037564509 0.0031787399
-0.21876138 0.038854573 0.0023220179
-0.30820677 0.04310105 0.0016283874
-0.246889 0.042102486 0.0031787399
-0.23605648 0.044905461 0.0031787399
-0.31724495 0.051985718 0.00067021226
-0.27418971 0.055257156 0.0031787399
-0.32348827 0.070372373 0.00041846235
-0.30782813 0.073712371 0.0026812493
-0.29038137 0.083959609 0.0031787399
-0.27848297 0.084436893 0.0031787399
-0.30305964 0.096957199 0.0031787399
-0.29094091 0.10631028 0.0031787399
-0.28902513 0.12248208 0.0013141084
-0.080348864 -0.1007937 0.012669835
-0.024455043 -0.10373169 0.010989823
-0.018724632 -0.10445786 0.011771439
0.036445379 -0.10558056 0.012146579
0.059902191 -0.10453189 0.01105726
0.072316468 -0.1040894 0.014048351
0.086182371 -0.10278521 0.016439805
0.091812976 -0.10547967 0.011529732
0.19692397 -0.10263149 0.01887583
0.25620887 -0.098837078 0.016959656
0.27504086 -0.093632624 0.018179471
0.29393411 -0.092238024 0.014362379
-0.1740602 -0.084415324 0.010601895
-0.16876389 -0.082771949 0.017858563
-0.15649046 -0.085331559 0.018041534
-0.094601125 -0.083814129 0.017145328
-0.22228798 -0.070860058 0.014594628
-0.20212394 -0.077847436 0.012038073
-0.073903561 -0.072357424 0.019171998
0.10186797 -0.071513265 0.019564826
0.1136744 -0.078515328 0.013550991
0.30492157 -0.072082609 0.019212358
0.3184185 -0.073750235 0.014371755
-0.24904826 -0.062537856 0.013486085
-0.044044394 -0.066842228 0.011919676
0.054542236 -0.067338295 0.019249942
0.066087961 -0.067689948 0.012717539
0.09511178 -0.069149382 0.010749409
-0.2826798 -0.051434021 0.011281749
-0.2706649 -0.056793205 0.011209802
0.29211032 -0.054189023 0.019018751
0.30137241 -0.056928683 0.01694368
-0.28718647 -0.042992286 0.013267344
-0.31127548 -0.032207645 0.013933181
-0.27130336 -0.037924461 0.017052401
-0.24481463 -0.027603123 0.017247535
0.19933365 -0.021118116 0.015244071
0.24754092 -0.02777436 0.011569868
-0.13220507 -0.019142643 0.016009368
-0.11063819 -0.018290054 0.015688017
-0.083719105 -0.017759679 0.01549688
-0.075240351 -0.017101614 0.013246838
-0.033909798 -0.01798082 0.014864167
0.017725836 -0.018583681 0.015130278
0.053328004 -0.019529715 0.016622417
0.19467911 -0.018868642 0.010501207
-0.063438751 -0.10162131 0.02758746
-0.043722123 -0.10366009 0.028629281
-0.014817148 -0.10003493 0.02083654
-0.0016824596 -0.10633676 0.022593232
0.02584628 -0.10705528 0.028575962
0.081137396 -0.10511857 0.024510439
0.20714985 -0.10133645 0.020933362
-0.085986853 -0.097181544 0.025963601
-0.062862709 -0.096806474 0.02467558
0.24469127 -0.093327232 0.026117241
0.26362625 -0.093126848 0.021674776
-0.13349181 -0.086242378 0.024924187
0.11682803 -0.087888978 0.023624185
0.26487032 -0.086546794 0.025995394
0.28645957 -0.08095707 0.0226219
-0.19278702 -0.073543876 0.023390621
-0.18141142 -0.076646134 0.022738742
-0.16243979 -0.077840298 0.02719311
-0.081042133 -0.075368151 0.026916435
0.2746014 -0.071950272 0.028254822
0.30105281 -0.070822872 0.020481767
-0.21790642 -0.060771834 0.026433969
-0.19925947 -0.069852039 0.025500607
-0.034798935 -0.066482037 0.024482647
0.016691871 -0.066975534 0.024897376
0.028125396 -0.06708511 0.029957484
0.03178085 -0.067120142 0.028759498
0.053865548 -0.067331806 0.029433239
0.07428655 -0.068102211 0.027171884
0.29210156 -0.067267507 0.023195757
-0.21425854 -0.059479982 0.028087765
0.27678508 -0.055018764 0.025419293
0.28171402 -0.057955083 0.02511774
0.24309604 -0.041426145 0.029915065
0.25764903 -0.045692749 0.02732862
0.26491064 -0.04475221 0.024153169
-0.29127812 -0.03212918 0.02084535
-0.26075965 -0.032001242 0.02585268
-0.22782685 -0.033029664 0.024226837
-0.21184164 -0.03084125 0.025630768
0.22826642 -0.032946803 0.027072074
-0.28594258 -0.028882561 0.027500758
-0.14684899 -0.02725957 0.028153148
-0.12053852 -0.025969177 0.028178891
-0.084776312 -0.023457307 0.026459262
-0.055589497 -0.021925071 0.024046041
-0.035030782 -0.024353668 0.027017988
-0.027496085 -0.020831257 0.021746174
-0.0052481927 -0.021234587 0.022215091
0.15763819 -0.028101427 0.02954934
0.21244614 -0.028895352 0.025774475
0.0089831445 -0.1067977 0.03608511
0.024141889 -0.10709599 0.031406656
0.094586715 -0.10017592 0.03733097
-0.099461682 -0.090180501 0.03389252
-0.082884185 -0.091228589 0.031228742
-0.076687351 -0.097686581 0.031543195
-0.037464797 -0.092078514 0.032046672
0.02621543 -0.091970503 0.032719638
0.070631474 -0.093815833 0.031113008
0.085926853 -0.091535866 0.033509459
0.16067867 -0.092352621 0.033430897
0.20441389 -0.094124019 0.030966885
0.21167091 -0.09331885 0.030781725
-0.091221042 -0.088161394 0.033995964
-0.084969595 -0.088110045 0.036740176
-0.050881203 -0.089107841 0.034296274
-0.0014932249 -0.087503627 0.039951749
0.02767865 -0.088070512 0.036913447
0.047398247 -0.083419085 0.039585367
0.072914422 -0.089096084 0.035325039
0.086117908 -0.089757651 0.034905456
0.213431 -0.083411649 0.037509482
0.23666504 -0.088363968 0.031542368
-0.11742698 -0.078541227 0.036704518
0.11425674 -0.078860685 0.036128778
0.22289833 -0.072957054 0.039981555
-0.046809543 -0.067134805 0.03428397
0.04504285 -0.067247249 0.037832685
0.066008911 -0.067685969 0.0328293
0.22607675 -0.052294888 0.039038841
-0.2124131 -0.04151585 0.030570494
0.22585076 -0.040130869 0.033422209
0.23692365 -0.042888932 0.033189505
-0.27286148 -0.031363986 0.032059669
-0.19156247 -0.03833136 0.032379292
-0.13728201 -0.039153047 0.037088852
-0.12686859 -0.031564966 0.033065788
-0.10303362 -0.030796712 0.034093063
-0.079414904 -0.033872683 0.036993936
0.16368626 -0.032627989 0.034190215
0.1809928 -0.032569125 0.03401392
0.23464477 -0.038966075 0.030849062
-0.28388369 -0.028186567 0.037922964
-0.12570371 -0.028821206 0.030965805
-0.10308441 -0.029525097 0.033091366
-0.066307113 -0.028069412 0.032344073
-0.017093878 -0.029219311 0.032875925
0.14009014 -0.029732239 0.031945296
0.028940542 -0.10490013 0.0451045
-0.046184167 -0.094577253 0.0428106
0.018647594 -0.090721525 0.0451045
0.04724909 -0.098739877 0.0451045
0.11081184 -0.093778111 0.041863672
-0.072701029 -0.084342703 0.042143919
-0.067337379 -0.085201308 0.042667251
-0.002339775 -0.086791009 0.047405113
0.0098149627 -0.087310322 0.043143667
0.015593255 -0.080377147 0.040757358
0.035656709 -0.08759252 0.04371779
0.068034507 -0.081583828 0.040459324
0.072571404 -0.085328773 0.042634219
0.11638162 -0.08613424 0.041991472
0.18699628 -0.08094278 0.041213557
-0.077725559 -0.075418316 0.042395316
-0.066351667 -0.075778328 0.0451045
0.0030874424 -0.073131673 0.043773849
0.011922866 -0.07076297 0.04439728
0.054781228 -0.077492721 0.048668329
0.095291421 -0.079048455 0.0451045
0.10114995 -0.076161802 0.042889088
-0.10645784 -0.067853108 0.043218009
-0.054548927 -0.06862665 0.044329882
-0.043318514 -0.068097651 0.045104504
-0.039955027 -0.066140644 0.044952281
-0.026740182 -0.069660127 0.044495732
0.00044830702 -0.066819854 0.042180683
0.034796827 -0.067149051 0.040049586
0.045787424 -0.065396219 0.044469967
0.0618219 -0.061889477 0.045655482
-0.11664199 -0.051576614 0.042527881
-0.0090869684 -0.05807098 0.045460716
0.033936612 -0.056846201 0.04524041
0.05866491 -0.058862709 0.045479834
0.094993547 -0.051757686 0.044477157
0.14860433 -0.052962676 0.044570118
0.16460079 -0.057492983 0.045158863
-0.13403623 -0.047140919 0.040216513
-0.063434213 -0.044903323 0.042804629
0.033760235 -0.047631018 0.043564968
0.056542009 -0.043427657 0.041692883
0.09223488 -0.048297379 0.043609686
0.18547839 -0.046807393 0.042600594
-0.28067678 -0.030381257 0.042869966
-0.070100181 -0.039485045 0.040538035
-0.30948985 -0.029810404 0.046378545
-0.27114439 -0.027828688 0.049048405
-0.0023514563 -0.085973196 0.056056425
0.015511904 -0.086005755 0.057523295
0.057351612 -0.086380675 0.057799719
0.061439618 -0.086625963 0.055619515
0.079272106 -0.078123711 0.052652076
-0.29335353 -0.026307825 0.058637585
-0.2821092 -0.02944834 0.053815685
-0.27567306 -0.029119324 0.058468357
-0.26147512 -0.02993943 0.050323259
-0.25807276 -0.02984038 0.051891088
-0.042129584 -0.084976576 0.062565222
-0.0042938394 -0.08489164 0.067300692
0.056718688 -0.085639372 0.065577447
0.086251222 -0.086263709 0.061967559
0.020279154 -0.077852786 0.063609481
0.036302269 -0.076550737 0.066644855
0.049452469 -0.075813808 0.068939552
0.074139535 -0.077711605 0.064955346
-0.31225508 -0.02808626 0.066594139
-0.29580051 -0.028771186 0.06031635
-0.2766681 -0.028826321 0.06184385
-0.041877441 -0.083602041 0.077130795
-0.035672121 -0.082438692 0.073898911
-0.0035481174 -0.084399529 0.072582163
0.021982897 -0.084602594 0.073022902
0.045982081 -0.085095838 0.070238598
-0.0026877602 -0.078462332 0.078668572
-0.30453348 -0.02485989 0.072686009
-0.28490332 -0.026849933 0.07550972
-0.27784765 -0.025795372 0.077041417
-0.025355678 -0.083312459 0.081869915
0.00029075332 -0.083709411 0.080271915
0.056516193 -0.083700359 0.08606901
-0.011688137 -0.078715354 0.084445134
0.0014714021 -0.077809669 0.080737039
0.018836554 -0.075316764 0.088669091
0.024205606 -0.07555043 0.083167687
0.061724454 -0.076325938 0.083997339
-0.30753076 -0.026563361 0.085268244
0.12604997 -0.11123251 0.097062111
0.1108636 -0.10070635 0.097200096
0.11293408 -0.09953285 0.097463384
0.031988718 -0.082415871 0.097169921
-0.013937673 -0.077989407 0.092867464
0.011290438 -0.075638577 0.091194123
-0.32400319 -0.024302367 0.090427749
-0.31390464 -0.022860017 0.095086336
-0.3072508 -0.022792252 0.099286914
0.10101322 -0.12045625 0.10680395
0.068520904 -0.11026973 0.10553104
0.091349259 -0.1184376 0.10568303
0.094744064 -0.10126658 0.10487094
0.092706256 -0.095184565 0.10155089
0.10879931 -0.090469465 0.10240781
0.11984713 -0.095809728 0.10726944
0.12154539 -0.092707813 0.1052172
0.043109626 -0.074041352 0.10867283
0.052259848 -0.076511122 0.1056444
-0.32633433 -0.024869693 0.10329004
0.091369487 -0.12165082 0.11399526
0.100733 -0.12323804 0.11616698
0.12254011 -0.12486193 0.11833276
0.079456985 -0.11877245 0.11271341
0.10526708 -0.11669606 0.11642553
0.12333746 -0.11757436 0.11814286
0.05963251 -0.10754663 0.11743183
0.10675988 -0.09169279 0.11105035
-0.027561748 -0.080531955 0.11105864
-0.010490043 -0.080027953 0.11812175
0.033085674 -0.088425852 0.11537863
0.041265722 -0.080375075 0.11969934
0.078107491 -0.086914495 0.11343317
0.10684934 -0.083033063 0.11826247
0.11584826 -0.080473088 0.11630927
0.12210037 -0.089991346 0.11318738
0.13919243 -0.083529748 0.11489493
0.055187233 -0.078039117 0.11824871
-0.32849297 -0.021612618 0.11199023
-0.30302793 -0.023113288 0.11775438
0.11876963 -0.12464427 0.12323124
0.070487708 -0.11735267 0.12109204
0.096073017 -0.11577244 0.12834936
0.10402614 -0.11711039 0.12151742
0.022613766 -0.093261443 0.12516615
0.13269193 -0.097332761 0.12834549
-0.056343064 -0.082883045 0.12819982
-0.021463364 -0.083283216 0.12820713
-0.012377893 -0.087053373 0.1213063
-0.0083318194 -0.08720018 0.12035829
0.0088931834 -0.08012557 0.12487837
0.039657667 -0.085748017 0.12842084
0.043146938 -0.080893561 0.12102004
0.051063813 -0.089226499 0.12865406
0.067556217 -0.083625823 0.12814869
0.078019984 -0.085844249 0.12838992
0.090573877 -0.080467142 0.12776388
0.11033096 -0.087263331 0.12177666
0.13344851 -0.08747302 0.12361721
-0.064102322 -0.079727806 0.12222876
-0.026625438 -0.078870863 0.1287268
-0.013719394 -0.079378523 0.1246649
-0.0048376373 -0.073732942 0.12301272
0.0086252047 -0.072419092 0.1251322
0.027421057 -0.07956779 0.12683514
0.033948861 -0.075111724 0.1278152
0.11535485 -0.079919815 0.12284032
0.12452169 -0.079856157 0.12038548
-0.31221274 -0.023239424 0.12431524
0.072754562 -0.11463822 0.13242081
0.077831104 -0.094428755 0.13862796
0.13572863 -0.094875693 0.13607942
0.088843286 -0.085886069 0.13292438
0.13318413 -0.083993517 0.13217364
-0.050248232 -0.0775472 0.13992745
-0.022226609 -0.074890584 0.13269711
-0.010619247 -0.073677987 0.1304217
-0.0022185887 -0.071611911 0.13920309
0.0057131778 -0.07512036 0.13491794
0.1265721 -0.11603625 0.14235827
0.076716214 -0.10823318 0.14114337
0.10395645 -0.10004184 0.14601012
0.14061478 -0.096029878 0.14186698
-0.046434127 -0.077319294 0.14313112
-0.035784826 -0.07604979 0.14547157
0.019661436 -0.077411711 0.14885616
0.026089823 -0.077464931 0.14894512
0.013426458 -0.069876917 0.14830232
-0.060273901 -0.076746285 0.15609016
-0.040541638 -0.078349844 0.15462548
-0.018127568 -0.074305288 0.15206346
-0.0081736185 -0.076288693 0.15791318
-0.03294906 -0.081056103 0.16101116
-0.062152728 -0.07788036 0.16031033
-0.050794162 -0.07497488 0.16748962
-0.029253403 -0.076378852 0.16135518
-0.010618457 -0.075901009 0.16176629
-0.05746071 -0.073807776 0.17915955
-0.03354115 -0.074404426 0.17527309
-0.028696369 -0.070135333 0.17434283
0.011639938 -0.0746051 0.1777321
-0.022756448 -0.06945131 0.17365047
-0.062546447 -0.073161125 0.18548429
-0.056499384 -0.072374783 0.18473724
-0.0035143159 -0.073978886 0.1828196
-0.01579777 -0.067903101 0.18386108
-0.065075099 -0.072410077 0.19317257
-0.055902075 -0.072100781 0.19737484
-0.047253154 -0.072451547 0.19454077
-0.03790468 -0.072229698 0.19783565
0.0058673732 -0.07336697 0.19024408
0.00065349042 -0.068573296 0.19449809
-0.066859238 -0.070835784 0.20495743
-0.033537682 -0.071925618 0.20149522
-0.01377799 -0.07202556 0.20244181
0.00051318575 -0.071805514 0.20126525
-0.0329221 -0.066848606 0.20288831
-0.08398661 -0.073157758 0.21784529
-0.052005135 -0.070887566 0.21060331
-0.047973838 -0.07501322 0.21708518
-0.053831946 -0.067642458 0.2173242
-0.019707222 -0.065170638 0.21349549
-0.072571956 -0.06929481 0.22536655
-0.048957679 -0.065518707 0.2283725
-0.076613612 -0.067809016 0.23593847
-0.050729368 -0.068891421 0.23184867
-0.039447539 -0.064197369 0.23388642
-0.065295897 -0.067551777 0.2445429
-0.043176468 -0.067483991 0.24750295
-0.082933895 -0.066578917 0.25304523
-0.067335457 -0.066911772 0.25110626
-0.059393238 -0.063327879 0.2548106
-0.083356418 -0.065433152 0.26512256
-0.058598969 -0.062181197 0.26320916
-0.037448879 -0.064404219 0.26550561
-0.066077217 -0.06339056 0.27275628
-0.077184297 -0.061593458 0.28501001
-0.064298183 -0.060019739 0.28873488
-0.090740249 -0.061458308 0.30642146
-0.070513576 -0.061463866 0.30841374
-0.098992504 -0.060121953 0.31972122
-0.08558856 -0.060988486 0.31191385
-0.070643857 -0.061052386 0.31275332
-0.07452029 -0.057921164 0.31534579
-0.087445945 -0.057747591 0.32314968
-0.10380843 -0.058988258 0.33122626
-0.097644776 -0.05842898 0.33776757
