# .PCD v0.7 - Point Cloud Data file format
VERSION 0.7
FIELDS x y z
SIZE 4 4 4
TYPE F F F
COUNT 1 1 1
WIDTH 941
HEIGHT 1
VIEWPOINT 0 0 0 1 0 0 0
POINTS 941
DATA ascii
-0.35495111 -0.14414001 -0.25845399
-0.31308547 -0.14202788 -0.25057846
-0.38037792 -0.13674898 -0.25422922
-0.3454566 -0.13979694 -0.25871301
-0.33632699 -0.13878116 -0.25180194
-0.31816605 -0.13775438 -0.25235668
-0.3241519 -0.14414001 -0.24332529
-0.28668511 -0.14414001 -0.24072115
-0.31191051 -0.136749 -0.24818741
-0.36550748 -0.136749 -0.23781848
-0.33386111 -0.136749 -0.23756936
-0.34710702 -0.14414001 -0.22360519
-0.3162542 -0.14414001 -0.229752
-0.29090911 -0.14414001 -0.21788891
-0.27705976 -0.14414001 -0.21774112
-0.31261587 -0.136749 -0.21203452
-0.1995669 -0.13937524 -0.21084698
-0.35141611 -0.14414001 -0.20129617
-0.25432342 -0.14414001 -0.20174772
-0.37966013 -0.136749 -0.20347184
-0.31606838 -0.136749 -0.20808119
-0.30859262 -0.14414001 -0.19069089
-0.29092363 -0.14414001 -0.19730711
-0.27010044 -0.14414001 -0.19323552
-0.21520633 -0.14414001 -0.19829865
-0.17659111 -0.14414001 -0.19110735
-0.14245 -0.1430172 -0.19085608
-0.22370054 -0.136749 -0.19708259
-0.37281823 -0.14414001 -0.18138662
-0.34834895 -0.14414001 -0.1840376
-0.33427835 -0.14285986 -0.18578243
-0.223167 -0.14414001 -0.18591282
-0.1787141 -0.14414001 -0.18553641
-0.24067014 -0.136749 -0.1803993
-0.18131423 -0.136749 -0.18468791
-0.15285626 -0.136749 -0.18137783
-0.13786326 -0.136749 -0.18208347
-0.25065115 -0.14414001 -0.17640692
-0.19203864 -0.14414001 -0.17843111
-0.20448226 -0.136749 -0.17641941
-0.12990224 -0.136749 -0.17592208
-0.10178158 -0.136749 -0.17627302
-0.30664104 -0.14414001 -0.16770644
-0.11968264 -0.14414001 -0.16697772
-0.10215788 -0.14414001 -0.16009873
-0.096131958 -0.14414001 -0.16819158
-0.31540412 -0.136749 -0.16859739
-0.14885329 -0.136749 -0.16073471
-0.20367026 -0.14414001 -0.15313806
-0.044071235 -0.14414001 -0.15464824
-0.37221453 -0.136749 -0.15364817
-0.33195898 -0.136749 -0.15648536
-0.13280725 -0.136749 -0.15676019
-0.12750894 -0.136749 -0.15732673
-0.35295862 -0.14414001 -0.14936656
-0.33872253 -0.14414001 -0.14004056
-0.3288385 -0.14414001 -0.14907803
-0.22096932 -0.14414001 -0.14980374
-0.07011307 -0.14414001 -0.14298968
-0.29129666 -0.136749 -0.14010291
-0.23393694 -0.136749 -0.14132261
-0.17367755 -0.136749 -0.14461362
-0.14014013 -0.136749 -0.14962426
-0.13700365 -0.136749 -0.14000791
-0.088350236 -0.136749 -0.14351393
-0.078422546 -0.136749 -0.14145058
-0.018017896 -0.136749 -0.14369129
-0.26355448 -0.14414001 -0.13708474
-0.23041534 -0.14414001 -0.13238959
-0.12886736 -0.14414001 -0.13715242
0.0016451627 -0.14414001 -0.13948753
-0.35349971 -0.136749 -0.13813229
-0.17346421 -0.136749 -0.13872859
-0.0080010444 -0.136749 -0.13669662
-0.35979152 -0.14414001 -0.12054312
-0.21876064 -0.14414001 -0.12288748
-0.037894607 -0.14414001 -0.12839544
0.046766415 -0.14414001 -0.12219983
-0.380678 -0.13977896 -0.12095943
-0.32556626 -0.136749 -0.1293752
-0.27786314 -0.136749 -0.12536706
-0.2142874 -0.136749 -0.12700374
-0.20606521 -0.136749 -0.1270325
-0.12276985 -0.136749 -0.12060198
-0.024171961 -0.136749 -0.12583645
-0.016453322 -0.136749 -0.12681004
0.018868759 -0.136749 -0.12926552
0.048988186 -0.13916446 -0.12385272
-0.380678 -0.14327502 -0.1193179
-0.37175572 -0.14414001 -0.11936865
-0.35947788 -0.14414001 -0.11032581
-0.31243849 -0.14414001 -0.11816624
-0.30491865 -0.14414001 -0.11778349
-0.18611488 -0.14414001 -0.11299337
-0.035740301 -0.14414001 -0.11831928
-0.37519395 -0.136749 -0.11371773
-0.32287005 -0.136749 -0.11547326
-0.17890847 -0.136749 -0.11349489
-0.10789825 -0.136749 -0.112958
-0.074401379 -0.136749 -0.11654819
-0.032954376 -0.136749 -0.11228276
0.031788953 -0.136749 -0.11811823
-0.37285924 -0.14414001 -0.10255454
-0.34345013 -0.14414001 -0.1074921
-0.17089015 -0.14414001 -0.10594637
-0.15665993 -0.14414001 -0.10636069
-0.027225487 -0.14414001 -0.10356978
-0.26849025 -0.136749 -0.10085426
-0.24406059 -0.136749 -0.10466933
-0.16776267 -0.136749 -0.10807936
-0.15627262 -0.136749 -0.10602753
-0.31409621 -0.14414001 -0.098762974
-0.23737365 -0.14414001 -0.098713577
-0.15371522 -0.14414001 -0.091059029
-0.14926909 -0.14414001 -0.093598768
-0.0063629225 -0.14414001 -0.098626241
0.029664725 -0.14414001 -0.099494219
0.048790351 -0.14414001 -0.093893513
0.066058092 -0.14414001 -0.097393297
0.070245475 -0.14414001 -0.090790533
-0.36672011 -0.136749 -0.091738068
-0.28840467 -0.136749 -0.095818684
-0.26104319 -0.136749 -0.098936759
-0.21483716 -0.136749 -0.098232403
-0.094222672 -0.136749 -0.095028773
-0.088830993 -0.136749 -0.091689497
-0.067010745 -0.136749 -0.093601286
0.092879415 -0.136749 -0.094196245
0.10748954 -0.136749 -0.092778414
0.12687385 -0.136749 -0.093198545
-0.36201635 -0.14414001 -0.082816087
-0.31108972 -0.14414001 -0.083824284
-0.30701721 -0.14414001 -0.084087744
-0.16291566 -0.14414001 -0.086087421
-0.15029529 -0.14414001 -0.083374426
-0.10182224 -0.14414001 -0.084534675
-0.060966782 -0.14414001 -0.089265525
0.056823745 -0.14414001 -0.087679118
0.10243967 -0.14414001 -0.083016418
-0.35118991 -0.136749 -0.089008614
-0.24983628 -0.136749 -0.085815921
-0.16565783 -0.136749 -0.087056875
-0.15896145 -0.136749 -0.083697289
0.00058245659 -0.136749 -0.080680974
0.012840986 -0.136749 -0.082922526
0.024639748 -0.136749 -0.087404616
0.062810011 -0.136749 -0.089132771
-0.38056323 -0.14414001 -0.078646228
-0.361601 -0.14414001 -0.079916567
-0.32511529 -0.14414001 -0.075020634
-0.26425707 -0.14414001 -0.073386773
-0.12577689 -0.14414001 -0.078335322
-0.049713984 -0.14414001 -0.070209429
0.10836829 -0.14414001 -0.07434167
0.16495478 -0.14414001 -0.071687452
-0.28781208 -0.136749 -0.076015845
-0.24208795 -0.136749 -0.079662204
-0.22819018 -0.136749 -0.077887572
-0.20553088 -0.136749 -0.07867872
-0.098260894 -0.136749 -0.070105836
0.004656069 -0.136749 -0.074694589
0.018570282 -0.136749 -0.071622141
0.036118414 -0.136749 -0.076495536
0.11891793 -0.136749 -0.076549262
0.18118823 -0.13996805 -0.077582717
-0.30967301 -0.14414001 -0.066092357
-0.25149003 -0.14414001 -0.06745024
-0.23865791 -0.14414001 -0.068017267
-0.12556069 -0.14414001 -0.066089205
-0.028202876 -0.14414001 -0.069859333
0.02495477 -0.14414001 -0.064061128
0.036851391 -0.14414001 -0.060843967
-0.33401614 -0.13436484 -0.06261082
-0.30003738 -0.136749 -0.062606096
-0.29880312 -0.13009231 -0.066526502
-0.27756169 -0.136749 -0.069021866
-0.25571036 -0.136749 -0.066717669
-0.24187946 -0.13070205 -0.066526502
-0.23945262 -0.136749 -0.06456089
-0.16497698 -0.13533095 -0.066526502
-0.14577278 -0.13263984 -0.066526502
-0.094123147 -0.13243653 -0.066526502
-0.032196894 -0.13273513 -0.066526502
-0.0032359045 -0.136749 -0.064779505
0.0020970479 -0.136749 -0.064609289
0.10499077 -0.13287014 -0.066526502
-0.17310578 -0.12407136 -0.066526502
0.011754543 -0.12497466 -0.066526502
-0.31187928 -0.11567407 -0.066526502
-0.15387981 -0.11168121 -0.066526502
-0.1247349 -0.11178455 -0.066526502
-0.10360357 -0.11030866 -0.066526502
-0.062067717 -0.11120052 -0.066526502
0.089123838 -0.11497117 -0.066526502
0.11591463 -0.11855678 -0.063369557
-0.28668955 -0.1060262 -0.066526502
-0.27072671 -0.10933777 -0.066526502
-0.18347053 -0.10728971 -0.066526502
-0.098304555 -0.10532176 -0.066526502
-0.077967793 -0.10912324 -0.066526502
0.013242081 -0.10081975 -0.066526502
0.035890743 -0.10059379 -0.066526502
-0.20846638 -0.092603914 -0.066526502
-0.16064426 -0.09353742 -0.066526502
-0.12392782 -0.098375887 -0.066526502
-0.076237567 -0.093821988 -0.066526502
-0.020160422 -0.093731396 -0.066526502
0.016953859 -0.09710332 -0.066526502
0.023548745 -0.098548815 -0.066526502
0.057035498 -0.09190768 -0.066526502
-0.27207094 -0.08140751 -0.066526502
-0.066447429 -0.082733124 -0.066526502
-0.053694166 -0.086767755 -0.066526502
0.0029226299 -0.083227888 -0.066526502
0.011286873 -0.087869361 -0.066526502
-0.26579154 -0.074022368 -0.066526502
-0.20080563 -0.076186307 -0.066526502
-0.17974858 -0.075485766 -0.066526502
-0.1608841 -0.07165283 -0.066526502
-0.061885912 -0.072950445 -0.066526502
-0.019329153 -0.070510052 -0.066526502
0.09229742 -0.071242198 -0.066526502
-0.20429677 -0.063225523 -0.066526502
-0.18553878 -0.068110004 -0.066526502
-0.10859495 -0.068473019 -0.066526502
-0.022097489 -0.067649901 -0.066526502
-0.003227599 -0.063655004 -0.066526502
0.040074561 -0.064588152 -0.066526502
0.060686167 -0.061314516 -0.066526502
0.084753372 -0.068699032 -0.066526502
0.095406584 -0.067282975 -0.066526502
-0.30843723 -0.056758326 -0.066526502
-0.21275885 -0.054814983 -0.066526502
-0.20058736 -0.055490829 -0.066526502
-0.01684469 -0.056089036 -0.066526502
0.035648879 -0.051885433 -0.066526502
0.054337665 -0.055038325 -0.066526502
-0.24668619 -0.048523515 -0.066526502
-0.16752402 -0.049606018 -0.066526502
-0.10452811 -0.043902863 -0.066526502
-0.036332011 -0.047849596 -0.066526502
-0.33632699 -0.033643354 -0.061646089
-0.32071611 -0.031392504 -0.066526502
-0.27498859 -0.036805604 -0.066526502
-0.19067998 -0.035269156 -0.066526502
-0.15029292 -0.033503391 -0.066526502
-0.13023181 -0.035558332 -0.066526502
-0.11582348 -0.031919993 -0.066526502
-0.097371481 -0.032177489 -0.066526502
0.011415854 -0.033255648 -0.066526502
0.038006771 -0.036542572 -0.066526502
-0.26618221 -0.020858215 -0.066526502
-0.22336231 -0.021701567 -0.066526502
-0.084163822 -0.023035891 -0.066526502
-0.034674384 -0.020858528 -0.066526502
0.089078322 -0.021945652 -0.060010038
-0.33632699 -0.017962929 -0.060920328
-0.27293253 -0.014952464 -0.066526502
-0.19204901 -0.011167792 -0.066526502
-0.094845138 -0.014243315 -0.066511743
-0.065138653 -0.014896656 -0.066125788
0.016754124 -0.0110879 -0.064068288
0.060103267 -0.013118549 -0.066526502
-0.31957549 -0.14414001 -0.051033709
-0.22883444 -0.14125399 -0.059134301
-0.1295583 -0.14134479 -0.059134301
-0.075801559 -0.14414001 -0.058665633
0.0275049 -0.14086232 -0.059134305
0.030683152 -0.14084896 -0.059134301
0.10366912 -0.14414001 -0.054563485
0.18481928 -0.14414001 -0.050860636
0.19319917 -0.14158501 -0.059134297
0.20016876 -0.14414001 -0.050808832
0.24877253 -0.14338002 -0.053928271
-0.34687331 -0.13818952 -0.059134305
-0.23144501 -0.1384525 -0.059134297
-0.076275021 -0.13891006 -0.059134301
0.04033393 -0.13830966 -0.059134301
0.05219863 -0.136749 -0.059135012
0.088608675 -0.13967738 -0.059134301
0.21567655 -0.134801 -0.059134297
0.15056674 -0.12828988 -0.059134297
0.12526856 -0.11849307 -0.059134297
0.13259763 -0.11191164 -0.059134305
0.18482155 -0.10625988 -0.059134305
0.19635551 -0.10914836 -0.059134301
-0.23091243 -0.09234006 -0.054297674
0.21533886 -0.092921697 -0.059134297
-0.2629995 -0.085011259 -0.05718739
0.18256563 -0.084637612 -0.059134297
0.23422351 -0.088535763 -0.059020374
0.25819406 -0.087721631 -0.050630856
0.21556485 -0.072492547 -0.059134301
0.22645143 -0.075178951 -0.059134301
-0.36481509 -0.063296109 -0.057419278
-0.34308732 -0.068657972 -0.058877736
-0.27222463 -0.060070354 -0.057797834
-0.188491 -0.067507401 -0.052900743
0.23522228 -0.067221306 -0.058670819
-0.22269151 -0.054276329 -0.05685414
-0.18873496 -0.051419288 -0.055670682
0.21215092 -0.059286393 -0.059134297
0.24959841 -0.054748043 -0.05363927
-0.22188351 -0.045191932 -0.053091142
0.23389801 -0.042954229 -0.056438982
0.25111216 -0.04607556 -0.053109463
0.13842361 -0.030634392 -0.059134301
0.17093581 -0.0351648 -0.059134301
0.24025257 -0.031140642 -0.056910247
0.18735367 -0.026659653 -0.059134301
0.23389801 -0.024394121 -0.054570466
-0.27922055 -0.0110879 -0.056107871
-0.14819679 -0.0110879 -0.053988639
0.09703669 -0.011087899 -0.055911362
0.13399701 -0.019723218 -0.059134297
0.16374668 -0.0110879 -0.053143896
-0.1622051 -0.14414001 -0.042839993
-0.072486676 -0.14414001 -0.042388424
0.011714794 -0.14414001 -0.040116664
0.10111475 -0.14414001 -0.040107753
0.19974998 -0.14414001 -0.049573135
0.26492101 -0.1306051 -0.048276383
-0.35242286 -0.12123034 -0.040069193
0.28424078 -0.12026244 -0.041514553
-0.22534175 -0.11005409 -0.043336358
-0.21073203 -0.11338222 -0.040061668
0.28415012 -0.11595573 -0.041546293
-0.23661725 -0.10191751 -0.049579427
-0.19751035 -0.10819101 -0.044765867
-0.18849099 -0.069526002 -0.042942438
0.27187824 -0.065094128 -0.045841478
0.26347774 -0.057518538 -0.048781596
0.28586775 -0.054620814 -0.040945213
-0.365895 -0.044133678 -0.048952051
-0.19114287 -0.036200311 -0.047793929
-0.28380725 -0.0110879 -0.043725304
-0.26378435 -0.0110879 -0.049893644
-0.18297777 -0.0110879 -0.043112662
-0.071672656 -0.0110879 -0.048484813
-0.050411053 -0.0110879 -0.041877426
-0.013996713 -0.0110879 -0.048130553
0.18657833 -0.0110879 -0.040988244
0.19637844 -0.0110879 -0.041601978
-0.20355612 -0.14414001 -0.030761046
-0.0065935925 -0.14414001 -0.03703028
0.039424859 -0.14414001 -0.030648805
0.059527498 -0.14414001 -0.030358192
0.095103741 -0.14414001 -0.033475354
0.21353781 -0.14414001 -0.036761053
0.23483904 -0.14414001 -0.034739569
0.2899726 -0.14070463 -0.039508402
-0.39844927 -0.096107073 -0.034343746
0.23389801 -0.09631303 -0.031225558
0.30549195 -0.099960133 -0.03407675
0.30253354 -0.070224762 -0.035112232
-0.39767072 -0.061309908 -0.035250254
0.3001599 -0.063269384 -0.035759285
-0.38367555 -0.054450672 -0.03114048
-0.365895 -0.04831576 -0.039076131
-0.20952007 -0.021362234 -0.032632962
-0.13374506 -0.0110879 -0.034729183
-0.055599436 -0.0110879 -0.038798407
-0.035851441 -0.0110879 -0.034417249
0.052325487 -0.0110879 -0.032203279
0.22563796 -0.0110879 -0.03607893
0.23701034 -0.014954274 -0.033759441
-0.090254515 -0.14414001 -0.021750074
-0.0080227805 -0.14414001 -0.02796874
0.11194943 -0.14414001 -0.025550075
0.13518527 -0.14414001 -0.023870526
0.16675083 -0.14414001 -0.029651325
0.20091072 -0.14414001 -0.02770482
0.25594556 -0.14414001 -0.025118893
0.32740581 -0.14140253 -0.026406923
0.33037564 -0.14414001 -0.025047639
0.23389798 -0.11538344 -0.020387964
0.32905138 -0.11497475 -0.025831031
0.32485381 -0.082715258 -0.025734952
0.29392835 -0.058362201 -0.028009471
-0.365895 -0.026411038 -0.029085204
-0.28706819 -0.0110879 -0.022977822
0.087254256 -0.0110879 -0.020462275
0.19532236 -0.0110879 -0.026545467
0.21005249 -0.0110879 -0.027770068
0.22050588 -0.0110879 -0.022242561
-0.10156409 -0.14414001 -0.016062722
-0.068325393 -0.14414001 -0.01892069
-0.032958027 -0.14414001 -0.013723364
0.013960151 -0.14414001 -0.010798736
0.070311509 -0.14414001 -0.010292497
0.13029602 -0.14414001 -0.013169546
0.15467942 -0.14414001 -0.014659632
0.24754147 -0.14414001 -0.016767757
0.33538723 -0.14414001 -0.015572978
-0.3607288 -0.13529304 -0.013365304
0.34907472 -0.13897023 -0.018822892
-0.26548958 -0.12800504 -0.010269279
-0.22717521 -0.12798467 -0.010424002
0.36649731 -0.12155267 -0.012725074
0.35151199 -0.10955003 -0.017969904
0.34403446 -0.097819917 -0.018248137
-0.188491 -0.06496986 -0.013213352
-0.39335606 -0.042455677 -0.016526587
-0.36771703 -0.041655585 -0.01459486
0.233898 -0.043839518 -0.014766645
-0.35172641 -0.019885756 -0.013117312
-0.22030005 -0.0110879 -0.01257024
-0.20810249 -0.012815278 -0.013120833
-0.18868215 -0.0110879 -0.014306514
-0.12042609 -0.0110879 -0.015903134
-0.045379885 -0.0110879 -0.014658413
-0.019301988 -0.0110879 -0.018441044
0.0045731813 -0.0110879 -0.015899628
0.015487924 -0.0110879 -0.016201127
0.020442959 -0.0110879 -0.014170736
0.14211243 -0.0110879 -0.010929402
0.233898 -0.013387547 -0.01521563
-0.24136458 -0.14414001 -0.0058889398
-0.14512235 -0.14414001 -0.0042558014
-0.064208992 -0.14414001 -0.003596423
0.08097402 -0.14414001 -0.0058284197
0.10669032 -0.14414001 -0.0027254317
0.13699068 -0.14414001 -0.0075279418
0.15702413 -0.14414001 -0.0051296884
0.28375652 -0.14414001 -0.0099961981
0.34579685 -0.14414001 -0.0038067431
-0.24384584 -0.12855609 -0.0060837069
-0.21198751 -0.128564 -0.0060235886
-0.20007084 -0.12906276 -0.00223516
0.23389801 -0.10315804 -0.00011561066
0.35657492 -0.10769548 -0.0031867821
0.33580846 -0.091341987 -0.0051190658
-0.188491 -0.0825525 -0.0094556911
0.28792375 -0.053633772 -0.0095402338
0.27460891 -0.043148685 -0.0022811238
0.26494315 -0.035536665 -0.0031950898
-0.34360552 -0.01867751 -0.0071048941
-0.26674873 -0.0110879 -0.0084712207
-0.24446666 -0.01042131 -0.0036957499
-0.23483235 -0.0110879 -0.0096445465
-0.21716022 -0.011407853 -0.0024305771
-0.14926586 -0.0110879 -0.0062180222
-0.13117194 -0.0110879 -0.0042371843
-0.080002725 -0.0110879 -0.0041267429
0.013575062 -0.0110879 -0.0075493613
0.11513446 -0.0110879 -0.0031050816
0.21276239 -0.0110879 -0.004339844
-0.31995982 -0.0073742438 -0.0036957499
-0.23699963 -0.0084248045 -0.0036957501
-0.31132442 0.0022602966 -0.0036957499
-0.34985602 0.015750898 -0.0036957499
-0.27538228 0.018350765 -0.0036957497
-0.22640672 0.011165893 -0.0036957497
-0.28447399 0.027770763 -0.0036957499
-0.27254331 0.02148765 -0.0036957501
-0.3557919 0.03424057 -0.0036957501
-0.32254755 0.036304031 -0.0036957497
-0.29379871 0.038622748 -0.0036957501
-0.29183346 0.048464004 -0.0036957499
-0.26465315 0.046804007 -0.0036957499
-0.24861228 0.048463427 -0.0036957499
-0.32916182 0.050774172 -0.0036957499
-0.31905299 0.059297401 -0.0036957499
-0.36506665 0.082703725 -0.0036957499
-0.35609478 0.089036815 -0.0036957499
-0.3302604 0.082942784 -0.0036957499
-0.32014668 0.08738143 -0.0036957497
-0.31318256 0.10738198 -0.0036957499
-0.37093505 0.11943556 -0.0036957499
-0.35189122 0.11373711 -0.0036957499
-0.36600909 0.13724598 -0.0036957501
-0.35911226 0.13467805 -0.0036957499
-0.34939715 0.1358676 -0.0036957497
-0.33152536 0.1390983 -0.0029711763
-0.30542538 -0.14414001 0.0078908987
-0.18788327 -0.14414001 0.0029894887
-0.15820953 -0.14414001 0.0047428561
-0.06248752 -0.14414001 0.0026708245
0.08439783 -0.14414001 0.0054227021
0.33939245 -0.14414001 0.0079183038
0.38260594 -0.13439533 0.007086488
0.39174575 -0.13564375 0.0038875556
-0.22930698 -0.12855497 0.0060918722
0.37788552 -0.12447748 0.0068776533
0.36585572 -0.11500403 0.0084986249
0.35723636 -0.10821635 0.0031501162
0.23389801 -0.088951319 0.0045680422
0.31723666 -0.07671681 0.0066792071
0.23389801 -0.027352486 0.0013519265
-0.36714405 -0.0110879 0.00062752934
-0.037599705 -0.0110879 0.0051794876
0.063846923 -0.0110879 0.004457796
0.095951438 -0.0110879 0.0037396569
-0.29173267 -0.0024104244 0.0036957497
-0.28478417 -0.008379926 0.0036957497
-0.3725788 0.0058653872 0.0021206927
-0.36051121 0.00089494581 0.0036957497
-0.28198409 0.019968107 0.0036957499
-0.2246002 0.012184454 0.0036957499
-0.33632699 0.025431219 0.003039836
-0.25127739 0.02893696 0.0036957501
-0.23647234 0.023074538 0.0036957499
-0.33496505 0.04897527 0.0036957501
-0.33461672 0.0581677 0.0036957501
-0.30339608 0.054057576 0.0036957499
-0.2814616 0.057392884 0.0036957501
-0.36285803 0.061869849 0.0036957497
-0.35599223 0.071322113 0.0036957499
-0.28066984 0.082714915 0.0036957499
-0.30258128 0.099623173 0.0036957497
-0.31168985 0.10143579 0.0036957497
-0.36615953 0.12802102 0.0036957499
-0.32571244 0.12250429 0.0036957499
-0.24970719 -0.14414001 0.017139899
-0.21180275 -0.14414001 0.010343473
0.028332382 -0.14414001 0.01335325
0.14699592 -0.14414001 0.017826779
0.17394888 -0.14414001 0.013420654
0.18905693 -0.14414001 0.017910743
0.233898 -0.14063933 0.014847569
0.33205074 -0.14414001 0.015627716
0.233898 -0.13641673 0.014058162
-0.26125938 -0.12643519 0.017494464
-0.22279702 -0.12797235 0.010517444
-0.36962962 -0.11471917 0.011826987
-0.18849102 -0.072547697 0.01551605
0.2957792 -0.059819706 0.01044511
-0.38616255 -0.040985487 0.012976492
-0.188491 -0.030281775 0.018532302
-0.33632699 -0.018481564 0.013093343
-0.26255473 -0.0110879 0.0160219
-0.24858046 -0.01292756 0.013973623
-0.19188544 -0.0110879 0.010904619
-0.14498551 -0.0110879 0.016990464
-0.13611063 -0.0110879 0.011893379
-0.025362805 -0.0110879 0.019192448
0.026014861 -0.0110879 0.012903072
0.039735168 -0.0110879 0.010530129
0.075688794 -0.0110879 0.018918866
0.23510885 -0.012626745 0.016075483
-0.29032928 -0.14414001 0.029246185
-0.25392541 -0.14414001 0.027249981
-0.20898965 -0.14414001 0.027596328
-0.017725527 -0.14414001 0.025084589
0.0056622028 -0.14414001 0.02053092
0.028716408 -0.14414001 0.028638013
0.032643951 -0.14414001 0.026356604
0.062868938 -0.14414001 0.029149892
0.09504234 -0.14414001 0.029783916
0.10666458 -0.14414001 0.022575634
0.28498811 -0.14414001 0.027041867
0.29276973 -0.14414001 0.029363558
0.30522984 -0.14414001 0.027477965
-0.36589503 -0.12263003 0.028432306
-0.2508485 -0.12272003 0.026462605
0.32765535 -0.12902048 0.026319208
0.233898 -0.11994847 0.029571963
-0.39431351 -0.10673277 0.025798071
0.3209309 -0.092456728 0.028672783
0.32638752 -0.083923012 0.021116104
0.33017972 -0.087033808 0.025435695
0.31279516 -0.07321924 0.028715173
-0.4010286 -0.048011418 0.025167452
-0.188491 -0.046528619 0.021590136
0.23389798 -0.043798029 0.026103202
0.27300924 -0.041888911 0.021532429
0.28058851 -0.047857504 0.020185048
-0.365895 -0.039525092 0.023967735
0.26713985 -0.037266612 0.024473865
-0.26509389 -0.01637703 0.023209825
-0.25423631 -0.0110879 0.020523524
-0.23257692 -0.017793929 0.026630465
-0.22353944 -0.016823757 0.024288302
-0.20669651 -0.0110879 0.021063905
0.11720453 -0.0110879 0.02215391
0.23178905 -0.0110879 0.021545094
-0.27297705 -0.14414001 0.039148867
-0.24483813 -0.14414001 0.032309562
-0.20920746 -0.14414001 0.030084444
-0.18523845 -0.14414001 0.036409568
-0.16439255 -0.14414001 0.037373316
-0.13046834 -0.14414001 0.037398361
-0.10009561 -0.14414001 0.034728523
-0.085126683 -0.14414001 0.032871529
-0.0229799 -0.14414001 0.03426655
0.1943109 -0.14414001 0.036147259
0.23609853 -0.14414001 0.039142143
-0.19671249 -0.12001792 0.031412695
-0.25813401 -0.11631551 0.036238361
-0.20633629 -0.11393586 0.03933996
-0.18861185 -0.11509129 0.037833989
0.233898 -0.11952079 0.038284671
0.29112202 -0.11178587 0.039105885
0.3148652 -0.11246906 0.030795762
0.23389798 -0.091921099 0.037876703
-0.39107108 -0.087937713 0.037727725
0.29585892 -0.079337642 0.0374479
0.28163296 -0.04868 0.034364916
-0.34792885 -0.031996451 0.03808222
-0.3522653 -0.029054049 0.034180406
-0.23081043 -0.023657514 0.035624042
-0.21276174 -0.024291243 0.036450025
-0.33056301 -0.0110879 0.034612644
-0.24225879 -0.0110879 0.035151429
0.014426569 -0.0110879 0.036621876
0.20611076 -0.0110879 0.030222775
0.23396784 -0.0111429 0.032459274
-0.30080983 -0.14414001 0.045873873
-0.23395318 -0.14414001 0.042728487
-0.17338073 -0.14414001 0.04208757
-0.14506224 -0.14414001 0.046848394
-0.083512306 -0.14414001 0.047378883
0.091236182 -0.14414001 0.04790359
0.14925253 -0.14414001 0.047863334
0.19102065 -0.14414001 0.040584434
0.24491766 -0.14414001 0.045570802
0.26307404 -0.13675952 0.048922673
0.2760931 -0.13827863 0.044366017
0.23389798 -0.12816069 0.041726142
-0.23818576 -0.11084766 0.04272747
-0.19041626 -0.10619006 0.046301164
-0.36589503 -0.095652081 0.045388114
0.2716285 -0.096338503 0.045928523
0.27002418 -0.054710153 0.046489798
-0.36589497 -0.043972109 0.040335428
-0.26220512 -0.036774348 0.048234358
-0.21255945 -0.031264111 0.04400669
0.25795197 -0.030030971 0.047090955
0.26126331 -0.032638721 0.043490939
0.25700122 -0.029282227 0.044939265
-0.15452798 -0.0110879 0.044316508
0.080872171 -0.0110879 0.042974867
0.10013085 -0.0110879 0.043227468
0.13391566 -0.0110879 0.045656562
0.14994223 -0.0110879 0.045334876
0.15549275 -0.0110879 0.042885873
0.21434654 -0.0110879 0.043664597
0.23199336 -0.0110879 0.047390409
-0.28648937 -0.14414001 0.050072011
-0.26884151 -0.14414001 0.05998642
-0.18092389 -0.14111942 0.059134297
0.051826902 -0.14414001 0.052908454
0.12751371 -0.14414001 0.057082437
0.21061274 -0.14029208 0.059134301
-0.28811285 -0.13758239 0.059134301
-0.20072627 -0.13695812 0.059134301
-0.078731388 -0.13853461 0.059134297
0.10517859 -0.13767788 0.059134301
0.17290433 -0.13886951 0.059134305
0.1322704 -0.12353168 0.059134301
0.17608976 -0.12591428 0.059134305
0.20308489 -0.12787943 0.059134305
0.233898 -0.12903622 0.05893781
0.18937859 -0.10177451 0.059134305
-0.35943729 -0.099965237 0.055234373
-0.26459002 -0.092310198 0.05431005
-0.26476496 -0.089234501 0.055584017
0.15695839 -0.08861471 0.059134297
0.233898 -0.083689272 0.055211902
-0.24486493 -0.077247106 0.058209535
0.24852005 -0.075975455 0.054016449
0.1525234 -0.065908365 0.059134297
-0.35883984 -0.054274552 0.054531179
-0.26685554 -0.057353392 0.057440173
-0.21121012 -0.05589376 0.057248022
0.20594834 -0.051480722 0.059134301
0.22596171 -0.053788505 0.059134297
0.12734246 -0.047638413 0.059134305
0.14245355 -0.046476424 0.059134305
0.16880697 -0.046122406 0.059134305
0.20913097 -0.049282838 0.059134301
0.2316606 -0.033839263 0.059134297
0.15732387 -0.021994211 0.059134297
0.23447257 -0.026721176 0.058933195
0.02385518 -0.0110879 0.052055955
0.077896513 -0.0110879 0.057422929
0.10344505 -0.0110879 0.056944396
-0.23536733 -0.14414001 0.06461256
-0.22264206 -0.14414001 0.066206358
-0.16881528 -0.14414001 0.063000821
0.024251424 -0.14414001 0.068955146
0.16488883 -0.14414001 0.064857669
-0.33558676 -0.13670687 0.066526502
-0.25955528 -0.136749 0.064510152
-0.22584698 -0.136749 0.061631545
-0.086896531 -0.136749 0.060516436
0.0066721588 -0.1303722 0.066526502
0.07508032 -0.136749 0.062534295
-0.27915713 -0.12266284 0.066526502
-0.25341603 -0.12220331 0.066526502
-0.21342911 -0.12872484 0.066526502
-0.15667513 -0.12743574 0.066526502
0.0015855283 -0.12245244 0.066526502
0.018007668 -0.12003409 0.066526502
0.036166735 -0.12802677 0.066526502
0.04079026 -0.12929077 0.066526502
-0.29350951 -0.11194218 0.066526502
-0.25385898 -0.11811869 0.066526502
-0.22152467 -0.11242782 0.066526502
-0.11121333 -0.1177157 0.066526502
0.003572382 -0.11619207 0.066526502
0.094401166 -0.11640318 0.066526502
-0.30409351 -0.10250543 0.066526502
-0.27498597 -0.10424943 0.066526502
-0.24105817 -0.10268566 0.066526502
-0.21738543 -0.1037497 0.066526502
-0.19125299 -0.1073195 0.066526502
-0.17378612 -0.10313082 0.066526502
-0.11730173 -0.1039777 0.066526502
-0.10427693 -0.10572378 0.066526502
-0.054163136 -0.10664171 0.066526502
-0.025325246 -0.10460113 0.066526502
0.0094648302 -0.10357746 0.066526502
0.037956052 -0.10139391 0.066526502
-0.16428259 -0.091870636 0.066526502
-0.15367439 -0.091652252 0.066526502
-0.072825961 -0.097690977 0.066526502
-0.015165884 -0.090089887 0.066526502
0.023005543 -0.096235842 0.066526502
-0.32512462 -0.081079319 0.066526502
-0.22533637 -0.088613436 0.066526502
-0.11330369 -0.08999721 0.066526502
-0.10634158 -0.084184512 0.066526502
-0.076093495 -0.08312355 0.066526502
-0.0035123304 -0.08039955 0.066526502
0.097517848 -0.084539898 0.066526502
-0.32981709 -0.071546212 0.066526502
-0.25964564 -0.074238472 0.066526502
-0.11174625 -0.079543501 0.066526502
-0.036257438 -0.076336659 0.066526502
0.076268241 -0.073982283 0.066526502
-0.33133072 -0.065676711 0.066526502
-0.31530917 -0.060454827 0.066526502
-0.29379097 -0.061822724 0.066526502
-0.26350451 -0.066190712 0.066526502
-0.25996915 -0.064705431 0.066526502
-0.23498732 -0.068755791 0.066526502
-0.14281534 -0.064838015 0.066526502
-0.11817309 -0.062828705 0.066526502
-0.10757523 -0.068232864 0.066526502
-0.0052380506 -0.061109845 0.066526502
0.053278226 -0.063757569 0.066526502
-0.23093931 -0.059347756 0.066526502
-0.21951948 -0.052882381 0.066526502
-0.12274744 -0.053216301 0.066526502
-0.063719384 -0.054994833 0.066526502
-0.052978918 -0.059036192 0.066526502
0.059773292 -0.058696948 0.066526502
0.06442979 -0.056217607 0.066526502
-0.28184822 -0.046789266 0.066526502
-0.11037886 -0.040072609 0.066526502
-0.030495189 -0.049463585 0.066526502
-0.00067047775 -0.049135327 0.066526502
-0.33632702 -0.037470512 0.062784605
-0.27979979 -0.03019229 0.066526502
-0.14869286 -0.036055632 0.066526502
-0.12555021 -0.039281435 0.066526502
-0.074062727 -0.033909988 0.066526502
0.078418873 -0.033234678 0.066526502
-0.14504145 -0.029392354 0.066526502
-0.11866562 -0.02902109 0.066526502
-0.056134611 -0.02279361 0.066526502
-0.041406535 -0.028232224 0.066526502
-0.022768132 -0.021973357 0.066526502
0.002440419 -0.023433404 0.066526502
-0.31875271 -0.016383978 0.066526502
-0.28874257 -0.0110879 0.066398956
-0.25915435 -0.016193252 0.066526502
-0.22324516 -0.019657047 0.066526502
-0.21548244 -0.0110879 0.06224392
-0.19474052 -0.014489684 0.066526502
-0.12665986 -0.013658606 0.066526502
-0.11776879 -0.0110879 0.065129779
-0.082195908 -0.014352513 0.066526502
-0.037075084 -0.018869365 0.066526502
0.080500379 -0.01874009 0.066526502
-0.28218031 -0.14414001 0.070630006
-0.25530696 -0.14414001 0.074239641
-0.23057541 -0.14414001 0.070156902
-0.1836884 -0.14414001 0.078040712
-0.070716597 -0.14414001 0.074524194
0.017323039 -0.14414001 0.077294767
-0.2114123 -0.136749 0.072054654
-0.19737022 -0.136749 0.078231141
-0.16893071 -0.136749 0.076506644
-0.11305059 -0.136749 0.074271977
-0.089069754 -0.136749 0.07929191
-0.016534777 -0.136749 0.072711021
0.15089954 -0.136749 0.075994276
0.16657694 -0.136749 0.075921245
-0.37702298 -0.14414001 0.089251406
-0.36780763 -0.14414001 0.082726166
-0.27776939 -0.14414001 0.087097749
-0.18151745 -0.14414001 0.082313076
-0.16554089 -0.14414001 0.083284527
-0.10964288 -0.14414001 0.081585735
-0.073620655 -0.14414001 0.087189041
-0.058339328 -0.14414001 0.087161332
-0.37058005 -0.136749 0.081367157
-0.33519655 -0.136749 0.089500725
-0.28351808 -0.136749 0.085061558
-0.18977988 -0.136749 0.084434003
-0.12742178 -0.136749 0.085010767
-0.10310288 -0.136749 0.084034264
-0.082433939 -0.136749 0.081046835
-0.0060509779 -0.136749 0.088248067
0.055226594 -0.136749 0.081070878
-0.33632699 -0.14085859 0.091921449
-0.31312254 -0.14414001 0.097527526
-0.24703714 -0.14414001 0.093442179
-0.22447437 -0.14414001 0.096207671
-0.18569732 -0.14414001 0.091091521
-0.14086944 -0.14414001 0.097620577
-0.11680222 -0.14414001 0.092434235
-0.1030491 -0.14414001 0.093942061
-0.023477942 -0.14414001 0.095853038
0.028575432 -0.14414001 0.096508704
0.098878428 -0.14414001 0.098798275
-0.37303033 -0.136749 0.094580516
-0.36318594 -0.136749 0.095490567
-0.35960394 -0.136749 0.091419294
-0.075544797 -0.136749 0.097235993
-0.13415073 -0.14414001 0.10572822
-0.11564797 -0.14414001 0.10037929
-0.37409687 -0.136749 0.1033887
-0.33632699 -0.13983168 0.10858647
-0.20868599 -0.136749 0.10825607
-0.17870122 -0.136749 0.10175481
0.031457111 -0.136749 0.10697885
0.05583407 -0.136749 0.10741287
-0.27835348 -0.14414001 0.11192185
-0.14243042 -0.14414001 0.11154637
-0.013160579 -0.14414001 0.11290665
0.022262231 -0.14414001 0.11148539
-0.33120862 -0.136749 0.1171733
-0.28545171 -0.136749 0.11030781
-0.21965289 -0.136749 0.11759548
-0.1942274 -0.136749 0.11985045
-0.1107076 -0.136749 0.11352903
-0.052438218 -0.136749 0.11343863
-0.015644778 -0.136749 0.11146529
-0.12106037 -0.14414001 0.12748951
-0.03551954 -0.14414001 0.12455523
0.0034206584 -0.14414001 0.12186191
-0.25730622 -0.136749 0.12487683
-0.14949971 -0.136749 0.12981918
-0.034222886 -0.136749 0.12777169
0.026154324 -0.136749 0.12595938
-0.3787711 -0.14414001 0.1336516
-0.32628533 -0.14414001 0.13849434
-0.27155986 -0.14414001 0.13540477
-0.23293501 -0.14414001 0.13842134
-0.1075484 -0.14414001 0.13897619
-0.081233136 -0.14414001 0.13076013
-0.0071194768 -0.14414001 0.13625571
-0.380678 -0.13830619 0.13060172
-0.3057569 -0.136749 0.1360108
-0.25379232 -0.136749 0.13395171
-0.22076014 -0.136749 0.1315881
-0.08783184 -0.136749 0.13658629
-0.075728387 -0.136749 0.13559657
0.013399139 -0.136749 0.13438365
-0.380678 -0.14015977 0.1421831
-0.36239955 -0.14414001 0.14760479
-0.34980923 -0.14414001 0.14190757
-0.1945976 -0.14414001 0.14847676
-0.18146543 -0.14414001 0.14904484
-0.17266771 -0.14414001 0.14385545
-0.12769742 -0.14414001 0.1482306
-0.11666791 -0.14414001 0.141829
-0.066153944 -0.14414001 0.14315261
-0.014739871 -0.14414001 0.14534557
-0.380678 -0.13996896 0.14622097
-0.35735089 -0.136749 0.14772955
-0.25440806 -0.136749 0.14545611
-0.19104055 -0.136749 0.14518656
-0.13109842 -0.136749 0.14639437
-0.069453098 -0.136749 0.14294006
-0.026896492 -0.136749 0.14564604
-0.007812649 -0.136749 0.14001215
-0.14321762 -0.14414001 0.15418014
-0.36503211 -0.136749 0.15686974
-0.34014809 -0.136749 0.15978077
-0.32474801 -0.136749 0.15530305
-0.28533596 -0.136749 0.15546122
-0.23788026 -0.136749 0.15831727
-0.19696873 -0.136749 0.15704207
-0.17754762 -0.136749 0.15575093
-0.14836314 -0.136749 0.15897059
-0.14894465 -0.14414001 0.16901393
-0.078975089 -0.14325595 0.16863985
-0.30612314 -0.136749 0.16932762
-0.27501166 -0.136749 0.16249667
-0.26148546 -0.136749 0.16724387
-0.20459187 -0.136749 0.16194117
-0.15280485 -0.136749 0.16358966
-0.079122499 -0.136749 0.16456094
-0.35269409 -0.136749 0.17411068
-0.33632702 -0.1390138 0.17040654
-0.26454449 -0.136749 0.17820635
-0.18665533 -0.136749 0.17510194
-0.16975665 -0.136749 0.17951204
-0.14515197 -0.136749 0.17473271
-0.37949145 -0.14414001 0.18791428
-0.24373369 -0.14414001 0.18698075
-0.1648193 -0.14414001 0.18404357
-0.12412977 -0.14414001 0.18232852
-0.31185341 -0.136749 0.18769869
-0.24410103 -0.136749 0.18650645
-0.16534105 -0.136749 0.18583761
-0.11555727 -0.13975137 0.18144363
-0.380678 -0.14075929 0.19608596
-0.2509928 -0.136749 0.19253191
-0.19882911 -0.136749 0.19595745
-0.30561119 -0.14414001 0.20556398
-0.20706323 -0.14414001 0.20572054
-0.37915272 -0.136749 0.20497118
-0.24609885 -0.136749 0.2084983
-0.23903383 -0.136749 0.20244619
-0.3314437 -0.14414001 0.21087877
-0.32707289 -0.14414001 0.21748802
-0.30689192 -0.14414001 0.21419573
-0.29851246 -0.14414001 0.21969704
-0.33503911 -0.136749 0.21757293
-0.31491449 -0.136749 0.21015638
-0.21848746 -0.136749 0.21631952
-0.26055402 -0.14414001 0.22611846
-0.33632699 -0.13888378 0.22191104
-0.32003665 -0.136749 0.22084397
-0.23796783 -0.136749 0.22058715
-0.36450973 -0.14414001 0.23782533
-0.34838319 -0.136749 0.23832549
-0.33971894 -0.136749 0.23067912
-0.26791301 -0.13757765 0.23476811
-0.34295696 -0.136749 0.24770376
-0.32204515 -0.136749 0.2460615
-0.3197079 -0.136749 0.24223115
-0.36449194 -0.14414001 0.25867644
-0.37252492 -0.136749 0.25162864
-0.35564953 -0.136749 0.25280124
-0.34014583 -0.13861473 0.25871301
