# .PCD v0.7 - Point Cloud Data file format
VERSION 0.7
FIELDS x y z
SIZE 4 4 4
TYPE F F F
COUNT 1 1 1
WIDTH 846
HEIGHT 1
VIEWPOINT 0 0 0 1 0 0 0
POINTS 846
DATA ascii
0.13123482 0.011603259 -0.36447209
0.10935698 0.0077037411 -0.35015896
0.12758879 0.013337189 -0.35917443
0.13986488 0.011378765 -0.35865259
0.12397769 0.0068293414 -0.34631366
0.14382276 0.0096426904 -0.34559584
0.13843492 0.0072883321 -0.33946437
0.11865021 0.012602721 -0.33795348
0.078717433 0.0044824495 -0.32172495
0.096109249 0.0090613393 -0.32200992
0.077534288 0.0053432635 -0.31777576
0.090261593 0.0024204738 -0.31364298
0.1008299 0.00251756 -0.31840536
0.084090397 0.0020103939 -0.30693865
0.094389006 0.0075849788 -0.30699885
0.13993016 0.0018281381 -0.30538914
0.12494451 0.010692311 -0.30678704
0.089298762 -0.00020138756 -0.29313797
0.094642244 -0.00070572481 -0.2914921
0.078484491 0.00043123798 -0.29107469
0.097628489 0.006745284 -0.29087499
0.1554981 0.0082863849 -0.29215097
0.073073357 0.0013985729 -0.2859785
0.15714617 0.0075458265 -0.28943011
0.10829986 0.0062976121 -0.27006853
0.13379642 0.0081972834 -0.272098
0.081924707 -0.0036493801 -0.26273343
0.093759194 -0.0042082719 -0.2640287
0.10618283 -0.004817978 -0.26168114
0.09064687 0.0035920604 -0.264705
0.12950563 0.0071567269 -0.26247659
0.13319488 -0.0053993585 -0.25044084
0.14933228 -0.0028092256 -0.25832173
0.079496764 0.0010903871 -0.2575506
0.12287642 0.0061784163 -0.25512421
0.065613851 -0.0044579613 -0.24385697
0.15835743 -0.0010665841 -0.2488002
0.10427977 0.0038559183 -0.24590081
0.11304888 0.0045464584 -0.24396977
0.15307662 0.0054844124 -0.24796447
0.068800703 -0.0061014239 -0.23465344
0.086564906 -0.005157033 -0.23119102
0.090340942 -0.00055362005 -0.23151267
0.14346604 -0.0062985434 -0.23439652
0.15563649 -0.0035994202 -0.23840073
0.16066919 -0.0011895202 -0.23982382
0.13138871 0.0052842977 -0.23940864
0.074284524 -0.0024202114 -0.22552603
0.08655864 -0.0050379494 -0.22431266
0.10822779 -0.0094194217 -0.22546665
0.10985294 0.0027181304 -0.22556569
0.12371152 0.0019667293 -0.22693202
0.1626837 0.00090356881 -0.22807893
0.058006555 -0.006543241 -0.21889475
0.098578691 -0.0068693934 -0.21613917
0.12064491 -0.0069961804 -0.21114668
0.13032514 -0.0065482468 -0.21135077
0.14721839 -0.0086692572 -0.21582595
0.16323894 -0.000412369 -0.21260899
0.15225801 0.0028172629 -0.21255589
0.067394137 -0.010220673 -0.20281471
0.11068335 -0.011865544 -0.20596334
0.14317259 -0.010757591 -0.20327801
0.1562002 0.0013978709 -0.20506954
0.13945222 -0.011955522 -0.19552912
0.076533183 -0.0040789265 -0.198667
0.093972631 -0.0012964609 -0.19882911
0.1021347 -0.00043448055 -0.19720891
0.16704367 -0.0040593753 -0.19349831
0.07690727 -0.012985866 -0.18870999
0.088973165 -0.014724378 -0.18101005
0.1058356 -0.013971103 -0.18961123
0.11974472 -0.014219179 -0.18524578
0.13687389 -0.012901571 -0.18902555
0.14694157 -0.012351475 -0.18723473
0.15375957 -0.011547105 -0.18266436
0.069328375 -0.0066553606 -0.18338692
0.11317115 -0.00043979258 -0.18488933
0.15741296 -0.0096420208 -0.18821509
0.14504609 0.0010701433 -0.18365699
0.06861873 -0.014441291 -0.17220379
0.10804854 -0.015789814 -0.17512955
0.14425041 -0.0140527 -0.17641927
0.1143923 -0.0013674892 -0.17280373
0.12002158 -0.00054663548 -0.17814997
0.16305658 -0.0088547263 -0.17659333
0.091007009 -0.017069869 -0.1634495
0.060416557 -0.0096549401 -0.16869719
0.11477554 -0.0021680458 -0.1630218
0.12959084 -0.00086348143 -0.16845475
0.15238747 -0.00093676616 -0.16660705
0.16540043 -0.0044215191 -0.16785207
0.052837655 -0.012356043 -0.15610513
0.098622069 -0.017966196 -0.15782619
0.16021974 -0.012580454 -0.1584868
0.065607592 -0.0096792318 -0.15375802
0.091140985 -0.0051525626 -0.15640105
0.11613312 -0.0031005023 -0.15091017
0.16014703 -0.0033573015 -0.157067
0.061856978 -0.016928166 -0.14853981
0.090848953 -0.0062868213 -0.14304817
0.13325644 -0.0030474854 -0.14066871
0.07870765 -0.021936638 -0.12139612
0.13683513 -0.020845013 -0.12560317
0.16679582 -0.013659673 -0.12847196
0.082170755 -0.008847977 -0.1267879
0.09820275 -0.0067012934 -0.12718345
0.12312777 -0.0045905216 -0.12865643
0.13892759 -0.0041077072 -0.12484995
0.05811834 -0.021244561 -0.11345649
0.068506129 -0.021574186 -0.1184784
0.080732629 -0.022906311 -0.11479309
0.092157975 -0.023326781 -0.11495335
0.066656508 -0.012084546 -0.11960179
0.11776803 -0.006013955 -0.115554
0.12505552 -0.0060319281 -0.11061314
0.1410189 -0.0049387519 -0.11386041
0.15866992 -0.005846099 -0.11952534
0.045317873 -0.02096197 -0.10349457
0.087958068 -0.024421671 -0.10544908
0.10142536 -0.024077544 -0.10995603
0.085735336 -0.0098408293 -0.10794768
0.13409615 -0.0062709162 -0.1023983
0.14300412 -0.0058475938 -0.1022316
0.037090976 -0.020787753 -0.09374553
0.061262816 -0.024166483 -0.094029233
0.07168673 -0.024966886 -0.094700262
-0.26398316 0.05580695 -0.099022448
0.043254003 -0.023119176 -0.085789487
0.082680717 -0.026656669 -0.086556695
0.11654742 -0.026420288 -0.088999428
0.067347705 -0.014283106 -0.089816131
0.11813191 -0.0088133514 -0.082431853
0.13187823 -0.0080392864 -0.083007261
0.15223393 -0.0078585194 -0.081613183
0.050147321 -0.025951676 -0.071722552
0.082746297 -0.028416745 -0.072991624
0.10296492 -0.027880704 -0.079822235
0.1558346 -0.0086887022 -0.077100076
0.15627614 -0.10744426 -0.067774147
0.16903535 -0.1013243 -0.062927619
0.13118626 -0.095660299 -0.060655229
0.15720533 -0.098084204 -0.06188038
0.17092419 -0.091708802 -0.064846545
0.16116451 -0.083174117 -0.062758803
0.14111853 -0.074933678 -0.061143473
0.15335144 -0.073300138 -0.060576625
0.037145045 -0.022729527 -0.06566909
0.15466242 -0.026188988 -0.068094112
0.17057914 -0.02032806 -0.067193307
0.079104207 -0.014362616 -0.064287134
0.11430369 -0.010530991 -0.064966023
0.1646992 -0.01145787 -0.067713931
0.17320156 -0.014727937 -0.069800168
-0.28115153 0.056563657 -0.063671812
-0.26976666 0.057560343 -0.064464673
0.14280082 -0.093091339 -0.055767648
0.13974911 -0.083708793 -0.052707337
0.15932992 -0.083590336 -0.053640913
0.16548219 -0.08100006 -0.054968625
0.13776794 -0.074885696 -0.054922074
0.14854196 -0.077699944 -0.052914657
0.14786404 -0.06939929 -0.059749253
0.08303389 -0.032582618 -0.055686817
0.1241309 -0.011118857 -0.051564831
0.14656729 -0.010144685 -0.050776564
0.16469288 -0.012681516 -0.051293589
-0.28286445 0.056465309 -0.054432411
-0.23819399 0.058970563 -0.057021268
0.14734007 -0.084733054 -0.045812823
0.13602825 -0.074105456 -0.042857982
0.14657918 -0.075652823 -0.047609612
0.14433862 -0.067731619 -0.046144418
0.15237787 -0.069183111 -0.042426579
0.14319627 -0.057751372 -0.043863975
0.075574964 -0.031448308 -0.046934299
0.09405899 -0.032121051 -0.04623558
0.10440444 -0.032583367 -0.042584382
0.054813392 -0.020365687 -0.042668931
0.17202947 -0.023074426 -0.042380899
0.14667679 -0.010412273 -0.047620479
0.15912464 -0.01175019 -0.0459118
0.1692858 -0.014900578 -0.042221207
0.28507012 0.030869175 -0.0470616
-0.28609514 0.056252159 -0.041995246
-0.27617714 0.055483609 -0.046057396
-0.23705682 0.05390615 -0.041400254
0.14002036 -0.055323184 -0.03989787
0.047784925 -0.03034498 -0.037573557
0.10666725 -0.033156246 -0.037446097
0.1343776 -0.036150455 -0.0365544
0.092913993 -0.014933571 -0.032095958
0.11307584 -0.01296475 -0.037263632
0.12321608 -0.012465024 -0.036517058
0.16896564 0.014403665 -0.033821322
0.18902095 0.018239329 -0.03711801
0.176568 0.020032758 -0.03265788
0.18379292 0.02011691 -0.0331643
-0.25324354 0.058605228 -0.037515983
-0.23656897 0.05658862 -0.033380728
0.090962596 -0.033994377 -0.028577896
0.11458783 -0.034005966 -0.02348236
0.13653928 -0.032907132 -0.022392783
0.14789341 -0.030343458 -0.024947291
-0.018750325 -0.020382982 -0.023126334
0.011599368 -0.026838697 -0.020028424
0.043124758 -0.022273606 -0.02182244
0.076881252 -0.020259883 -0.027134478
0.089205861 -0.026605319 -0.020084906
0.090055764 -0.020780116 -0.027057517
0.11465814 -0.025161933 -0.02457921
0.14591318 -0.024096537 -0.024014853
0.16544522 -0.025973145 -0.024159806
-0.072710201 -0.012347758 -0.020975467
-0.054017093 -0.01798391 -0.02025524
0.043364778 -0.019031517 -0.027293948
0.063998021 -0.018150419 -0.02485894
0.084587552 -0.015210979 -0.027297957
0.097046174 -0.013205226 -0.028338067
0.11334962 -0.01528543 -0.021037169
0.13893518 -0.011540909 -0.027967088
0.1478617 -0.018020663 -0.023838384
0.17945462 -0.017260518 -0.025889836
0.19692355 -0.018750515 -0.022293149
0.21527311 -0.014166432 -0.0222167
-0.012192105 -0.0048058722 -0.026365221
0.033703659 -0.00045814077 -0.027977079
0.21134675 -0.0048840139 -0.025173219
0.22090016 -0.0016597091 -0.027227581
0.23050535 -0.0092573231 -0.0225721
0.25739634 -0.0083013987 -0.020914055
0.26061428 -0.0052382122 -0.022211768
0.28925505 -0.0015400045 -0.022864126
-0.017007843 0.0075959004 -0.025282871
0.0078319376 0.002817343 -0.026813611
0.034395125 0.00078490225 -0.02791651
0.045405041 0.008995275 -0.027358264
0.080229282 0.0047168275 -0.027707655
0.24546346 0.00070356991 -0.022174854
0.25095105 0.0040384345 -0.024721637
0.26605687 0.0019261555 -0.023999384
0.27979127 0.0050588017 -0.024796212
-0.077330329 0.015957933 -0.021074392
-0.04069937 0.01851479 -0.022860073
0.032013934 0.01667146 -0.026334355
0.044233881 0.015260173 -0.026697535
0.07801646 0.015375139 -0.026651258
0.091834158 0.013105067 -0.026896695
0.13630053 0.013892872 -0.026269093
0.14506777 0.018876266 -0.025407748
0.16393842 0.016107034 -0.024769425
0.17905223 0.019509558 -0.028408471
0.19583596 0.013475563 -0.025193132
0.22831844 0.015769679 -0.02434002
0.23477586 0.01476818 -0.024433952
0.25525305 0.017754249 -0.023415729
0.28623542 0.017854493 -0.021787159
-0.02945615 0.025093138 -0.022603467
0.017959371 0.027017334 -0.024432236
0.03238523 0.020980509 -0.025804337
0.047554694 0.02847331 -0.024893116
0.056051821 0.026588779 -0.025174197
0.093505681 0.024177453 -0.025497101
0.14250541 0.027809538 -0.024828719
0.18520606 0.029899452 -0.0215711
0.20250398 0.02437428 -0.022419391
0.21525238 0.022229075 -0.022870325
0.23204347 0.024915315 -0.020861432
-0.015134408 0.033759851 -0.021979155
0.019459635 0.035116732 -0.02307995
0.076562963 0.034436055 -0.023870192
0.13537514 0.036782824 -0.021184953
0.14844988 0.03818731 -0.025968015
0.15211186 0.037416819 -0.02642017
0.16838717 0.042602804 -0.022688618
-0.26726592 0.054811712 -0.027909614
-0.22191621 0.05702344 -0.022248078
0.028968267 -0.03056344 -0.01863125
0.038824651 -0.031894356 -0.015745007
0.059790902 -0.031889845 -0.018497271
0.075528935 -0.032467403 -0.012049379
0.13854215 -0.030628556 -0.010735637
0.2072385 -0.033149492 -0.0145454
0.22407845 -0.032333605 -0.0145454
-0.0418805 -0.023066718 -0.011502709
0.010131383 -0.026805326 -0.019946739
0.045400545 -0.025232155 -0.016825251
0.175257 -0.021160591 -0.011081489
0.19241551 -0.026752137 -0.01305192
0.22929393 -0.021858945 -0.011205392
-0.088590398 -0.016242063 -0.014218354
-0.078690842 -0.014554326 -0.018946486
0.068282373 -0.017542446 -0.017887773
0.095189735 -0.017016895 -0.019845378
0.22866341 -0.018315276 -0.01721734
0.23451489 -0.018625494 -0.015956953
0.24630037 -0.014685489 -0.017971827
0.25231838 -0.012123147 -0.019136241
0.27718651 -0.010420294 -0.018719861
0.29415256 -0.010620268 -0.015595602
-0.10637565 -0.007676749 -0.018868182
0.30408636 -0.0091264974 -0.010868509
-0.162828 0.0087625813 -0.016443236
0.19448492 0.00037293881 -0.017629689
-0.17783885 0.011513348 -0.015402386
-0.16536757 0.012728033 -0.016097885
-0.14545013 0.011890416 -0.017335383
-0.10801409 0.015237011 -0.019321229
-0.20839076 0.024851128 -0.012242069
-0.16059569 0.020013824 -0.015820324
-0.126959 0.028042093 -0.016751973
0.17498213 0.028215384 -0.016112477
0.22368088 0.029375197 -0.018400947
0.27670243 0.028938945 -0.011345359
-0.21111736 0.03634309 -0.010393395
-0.10956214 0.033622116 -0.016877264
-0.045982774 0.037943736 -0.019551232
0.21907404 0.030412097 -0.017897736
-0.15653418 0.04328071 -0.011665068
-0.12057033 0.040030465 -0.014894579
-0.069976293 0.040749729 -0.017506462
-0.052591756 0.048366997 -0.015290874
0.034618869 0.046868868 -0.019482495
0.082606539 0.048706412 -0.018916996
0.10971288 0.049262714 -0.014881788
0.13364595 0.04386501 -0.01598613
0.20767705 0.040013511 -0.010876908
-0.28506368 0.056322943 -0.016375059
-0.27578908 0.055328816 -0.018581118
-0.24597499 0.056403499 -0.016530231
-0.23152395 0.053895757 -0.013868553
-0.22706878 0.058732964 -0.010941911
-0.014403202 0.055130355 -0.013132904
-0.0047618868 0.054913275 -0.013740357
0.033631839 0.052739322 -0.017309608
0.063940316 0.056313634 -0.016247725
0.10872976 0.051054697 -0.011189324
0.047432829 0.064472713 -0.012787543
0.072862722 0.063409634 -0.013773025
0.28812525 -0.083209462 -0.0011470147
0.028365951 -0.030856902 -0.0018575987
0.036233511 -0.031656116 -0.009632335
0.059997234 -0.033883754 -0.00063467748
0.069348879 -0.030535577 -0.00058700866
0.11005201 -0.034238905 -0.0089968005
0.20970798 -0.034665167 -0.0027527031
-0.0630944 -0.020524569 -0.0057683508
0.1647293 -0.029770929 -0.0066942368
0.17237651 -0.025129955 -0.0013563947
0.18547921 -0.020657299 -0.0024121143
0.19457993 -0.020209225 -0.0064192736
0.25454286 -0.020153165 -0.0094862711
-0.092219643 -0.016033506 -0.0028678153
0.29198694 -0.016562354 -0.0052927425
-0.25322828 -0.0065119187 -0.0013122022
-0.24466331 -0.0058015911 -0.00307505
-0.24225307 0.0026456604 -0.001376693
-0.23385534 0.0093413498 -0.00061677268
-0.20038164 0.0024082796 -0.0055626514
-0.24228927 0.011111828 -0.0024611698
-0.2377879 0.015123223 -0.0093798991
0.14573947 0.019261887 -0.0074997456
-0.29852754 0.028061327 -0.0032831817
-0.24723434 0.024811126 -0.0083950181
-0.23438284 0.025915824 -0.0095669087
-0.22902806 0.028076181 -0.0098691927
0.1427947 0.029610541 -0.0058267154
0.15137231 0.027670369 -0.0042455317
0.16441527 0.026606575 -0.0043651704
0.172986 0.025824429 -0.0083204042
0.30489048 0.022399846 -0.007396725
-0.29102921 0.033194017 -0.004318581
-0.24558373 0.037047997 -0.0068597342
-0.22371672 0.03540967 -0.0093536079
-0.21974158 0.036712386 -0.0094910301
0.14796457 0.033418998 -0.0045529027
0.152762 0.031995486 -0.0041992399
0.16743469 0.039932303 -0.0056440411
0.24608359 0.033945046 -0.0063057542
-0.29652908 0.049078092 -0.0024751443
-0.24689746 0.0402686 -0.0064186044
-0.1636733 0.046336804 -0.0096474625
0.11913103 0.048431203 -0.0060229511
0.16693494 0.046009623 -0.001445069
0.19963333 0.042594772 -0.0008064193
0.21425024 0.040766183 -0.0025530474
-0.31394628 0.053673424 -0.00029131715
-0.30819038 0.051565193 -0.0013516333
-0.2688725 0.050276 -0.0044518095
-0.2525025 0.05478004 -0.00050114508
-0.2233279 0.057736155 -0.0066955485
-0.1670616 0.052190747 -0.004005366
-0.10356858 0.056077503 -0.0055993507
-0.080133781 0.058446608 -0.002209136
-0.059726823 0.059954088 -0.00029169544
-0.033468299 0.061511755 -0.00098327
0.044821553 0.064462401 -0.0013223828
0.062777027 0.064533323 -0.0093286708
0.1008411 0.062513366 -0.0029903017
-0.30341879 0.078226522 -0.00076242001
-0.25115457 0.074765943 -0.0050651571
-0.23299848 0.071169749 -0.0040919185
-0.23199917 0.085046954 -0.00097320497
-0.25057539 0.093110532 -0.0037417121
0.2830762 -0.054743312 0.0019319803
0.047277227 -0.03013419 0.004215843
0.071257129 -0.030570282 0.0073255077
0.088548511 -0.030884735 0.0047796587
0.093591511 -0.03466478 0.0065960791
0.15366325 -0.031243648 0.0091406275
0.17395991 -0.031103143 0.0034305539
0.1837312 -0.03335239 0.0096077202
0.21403395 -0.034452148 0.0083991326
0.28381419 -0.036203563 0.001959478
-0.063348986 -0.020486237 0.0023257092
0.16606672 -0.021613073 0.0033371034
0.17836761 -0.021558188 0.0065974565
0.18868527 -0.020499449 0.0086098025
0.19303957 -0.020285064 0.006465917
0.24799654 -0.022983471 0.0023897644
-0.12345816 -0.01121558 0.0058410531
-0.11743398 -0.01214469 0.0051733684
0.21116249 -0.019392781 0.0052359942
0.2211557 -0.018900765 0.0011160807
0.2893877 -0.016449381 0.0069402829
0.3036989 -0.012381389 0.0018906618
-0.18031608 -0.0012156001 0.0016534432
-0.24490061 0.0008684349 0.0047254013
-0.24728781 0.01216114 0.0021451907
-0.23862296 0.015615887 0.0083958125
-0.2229771 0.012203177 0.0099620931
0.30831015 0.018401248 0.0092355823
0.31082433 0.019805633 0.0016932522
-0.28210139 0.027178183 0.0039602732
-0.27302247 0.029181298 0.0035996046
-0.23668596 0.028260317 0.0081536639
0.1388683 0.026424369 0.0063551124
0.28331426 0.028599655 0.0084568048
-0.30524895 0.033759784 0.0014713045
-0.27303019 0.031253517 0.0010461033
-0.26781729 0.03031528 0.0049882215
-0.2355791 0.032499656 0.0077513098
-0.2182864 0.037562642 0.0084672263
-0.20838746 0.038587254 0.0091395285
0.13489044 0.032877583 0.0087160142
0.14515373 0.03694202 0.0042489823
0.19698504 0.03852066 0.0075375326
0.20453247 0.037923396 0.0073190737
0.22606441 0.039288215 0.0005460832
0.25562108 0.034065828 0.0026251231
0.27339625 0.030339811 0.0082931099
-0.28207269 0.040666495 0.002908465
-0.27476475 0.04847689 0.0030924424
-0.25629359 0.049569342 0.0045068795
-0.21559319 0.048062965 0.0024858937
-0.19684003 0.042337958 0.0087365452
-0.17644289 0.045082912 0.0085799638
-0.15222362 0.048025165 0.0083703417
-0.14598553 0.048405062 0.0085458644
0.11544862 0.048634205 0.0044845212
0.13647902 0.047527581 0.0049348194
0.17842381 0.045248106 0.0011181043
-0.30497983 0.050764173 0.00072130014
-0.27352265 0.054385908 0.0059421314
-0.17047498 0.052595783 0.00026935534
-0.11336674 0.056449011 0.0018945329
-0.27428684 0.064819761 0.0027507001
-0.24960837 0.065585785 0.0046777059
-0.034225609 0.061113428 0.0031751888
0.0055950163 0.063516721 0.0027182358
0.022532593 0.064001605 0.0011363998
-0.30303499 0.071983531 0.00015948199
-0.28452376 0.078702137 0.0018783133
-0.27801818 0.074659519 0.0023791324
-0.26131928 0.076384693 0.0035604653
0.016593723 0.079053104 0.00068929821
-0.30164042 0.085413173 0.00011322125
-0.2713185 0.093621314 0.00229143
-0.25100312 0.099393874 0.002145217
-0.27838063 0.10420707 0.0005415015
0.028714035 -0.030753026 0.015331028
0.033059992 -0.031118549 0.016937569
0.042237088 -0.030403348 0.017089531
0.057952195 -0.033488266 0.014769206
0.092717409 -0.030960549 0.012208686
0.10088871 -0.034317434 0.01601381
0.11503978 -0.033955928 0.011038424
0.12714823 -0.031678528 0.016461132
0.19211833 -0.030161837 0.013663
-0.034775171 -0.021855945 0.018150695
-0.019482678 -0.024741493 0.017345825
0.0030252479 -0.027879667 0.010056955
0.067294113 -0.027520381 0.018674461
0.083269782 -0.022875136 0.019424286
0.16528618 -0.027905833 0.015193909
0.17420357 -0.026184555 0.018888457
0.18498212 -0.025051598 0.01634023
-0.10852898 -0.01075301 0.015815835
-0.083616629 -0.013079382 0.01744375
-0.073302813 -0.018563369 0.013983942
0.22664237 -0.015961455 0.018960716
0.24717328 -0.01602691 0.015900722
0.26759812 -0.016300399 0.012513747
-0.16564758 -0.0022880656 0.011955783
-0.10399979 -0.0094351182 0.017432844
0.22657561 -0.0046830396 0.0156883
0.24829929 -0.0052869245 0.018300559
0.26042339 -0.0014311707 0.0156883
-0.1998024 0.0053921985 0.011578467
-0.1664657 0.0022937208 0.014411023
-0.15491001 0.0046401941 0.015832704
-0.14914265 0.0018105742 0.015935408
0.29981184 0.0078367423 0.019752599
-0.18594348 0.013801779 0.013828651
-0.12267527 0.013047116 0.017648373
0.16396639 0.014797235 0.014119739
-0.12921092 0.025664054 0.015970711
-0.10634905 0.023078758 0.017610621
-0.080346704 0.020621292 0.019413913
-0.075513616 0.022094861 0.019510908
0.24216095 0.025605893 0.019095112
0.25965118 0.024130736 0.019289928
0.27015489 0.029185236 0.012199054
-0.15114847 0.035219442 0.013341999
-0.082412444 0.031699136 0.017742772
-0.061373197 0.034446754 0.018461302
-0.036315665 0.034542017 0.019758128
0.18825883 0.03694839 0.014836983
0.20624906 0.03113262 0.017661268
0.21284208 0.033678371 0.012643505
0.22780561 0.032204855 0.013455519
0.23782834 0.030715484 0.014566548
-0.16694191 0.040162314 0.011299679
-0.10475318 0.041370101 0.014378168
0.0067099435 0.049136505 0.016976651
0.010147262 0.046990272 0.017999051
0.077731863 0.045755818 0.018973321
0.14512739 0.044505775 0.018751683
-0.25933254 0.058112115 0.011264359
-0.23092245 0.059119847 0.011822632
-0.22387308 0.055177875 0.015247049
-0.016247392 0.056607515 0.01104212
0.018828658 0.050219126 0.016815713
0.079429492 0.055653285 0.015517427
0.036437307 0.063927315 0.012242287
0.053951785 0.06096198 0.013638759
0.096866071 0.064668171 0.011842366
0.046803415 -0.03238507 0.020769864
0.083650276 -0.033573046 0.022075836
0.097024769 -0.034126006 0.021453088
0.10484874 -0.034009904 0.027402567
0.12515303 -0.033253267 0.028101055
-0.024915949 -0.021032073 0.020907871
0.037580203 -0.026448723 0.022230938
0.077295087 -0.028238244 0.021381777
0.09938854 -0.025332659 0.020782422
0.10245723 -0.022073165 0.025790196
0.14240924 -0.027546497 0.022640564
0.16720727 -0.026623927 0.027486965
0.17647904 -0.022342328 0.029500907
-0.063313954 -0.015000774 0.020001652
0.01532637 -0.012277886 0.026377413
0.031311963 -0.010114856 0.027277971
0.097146481 -0.014901577 0.029311076
0.10832155 -0.017532595 0.020622101
0.13553071 -0.012857485 0.024544079
0.14279099 -0.017013205 0.023174545
0.15606403 -0.011925776 0.023749469
0.19659525 -0.015953811 0.022996824
-0.038524702 -0.0081960596 0.023608718
-0.023150306 -0.0040432485 0.024712792
0.089893386 -0.0014921962 0.02718582
0.12283935 -0.0087771835 0.027337641
0.14612551 -0.0061744954 0.026756758
0.20044768 -0.0054760692 0.02358051
0.22262424 -0.0039915927 0.024534857
0.23538375 -0.00073736929 0.025164653
0.28982851 -0.0018330996 0.021645475
0.085709095 0.0037827489 0.026806828
0.097890258 0.009924666 0.026250158
0.11298702 0.00041246921 0.027029317
0.22476807 0.0087366346 0.0243202
0.29382834 0.0078326035 0.021814581
-0.069859035 0.013385726 0.020801384
0.072995342 0.018272266 0.025338361
0.10607748 0.011791944 0.026048331
0.12308641 0.014042629 0.025569182
0.14856672 0.019564003 0.023231762
0.19270241 0.012140112 0.024436895
0.24930227 0.018620051 0.022310756
-0.037677109 0.021366628 0.021696724
-0.0291705 0.020395508 0.022280011
0.081801161 0.02378647 0.024591189
0.13140523 0.027098119 0.023523498
0.1668327 0.024121694 0.024622038
0.19860743 0.027269337 0.020528682
0.2048503 0.02651247 0.020696322
0.22308627 0.023316853 0.021226261
0.1231891 0.032694884 0.022645447
0.17199273 0.036129624 0.022100797
-0.26217404 0.058197692 0.020441864
-0.24235219 0.059014462 0.020449348
0.14072588 -0.063886225 0.039662875
0.065909564 -0.032070316 0.037579745
0.09812361 -0.03298552 0.039717697
0.12646371 -0.031750206 0.033228181
0.15064877 -0.03064475 0.039192576
0.13071078 -0.029739402 0.033028949
0.067064837 -0.018737599 0.033003617
0.07392633 -0.01739743 0.036404822
0.09709093 -0.014843226 0.030546082
0.1201042 -0.013049522 0.032079026
0.1307604 -0.0118204 0.039375652
-0.27583095 0.057207704 0.038795784
-0.26347762 0.054636315 0.037936259
0.15375726 -0.093596339 0.049227636
0.1456095 -0.084791064 0.044224977
0.15062796 -0.08810097 0.045733988
0.14498846 -0.070083104 0.047325268
0.15044981 -0.070107132 0.041027572
0.1472652 -0.069687352 0.044097103
0.13914678 -0.046244789 0.040475708
0.063599393 -0.030369028 0.048912488
0.079389818 -0.035750739 0.043480784
0.093221724 -0.032466248 0.043476589
0.12576155 -0.031137865 0.047926217
0.030426485 -0.026777733 0.045551792
0.040114045 -0.028862221 0.04199066
0.1259398 -0.011332604 0.047977556
0.138972 -0.011172645 0.042047631
0.16742839 -0.013889115 0.046692844
0.28503877 0.034278519 0.048128612
-0.2249475 0.057153847 0.041920938
0.13585603 -0.10373902 0.059319668
0.14618869 -0.10257865 0.05661796
0.13938342 -0.095377073 0.056930974
0.14372455 -0.094176307 0.05480228
0.15470643 -0.099859573 0.056104481
0.16167018 -0.091721579 0.056134555
0.13662714 -0.082164213 0.050830089
0.14209162 -0.086345628 0.05551821
0.15399486 -0.085015699 0.053956408
0.13995282 -0.073092021 0.051900283
0.14172566 -0.072433114 0.059914768
0.15876269 -0.079372659 0.051894359
0.072310507 -0.034074087 0.05158725
0.10519855 -0.031607762 0.05025591
0.058025718 -0.018813241 0.054348491
0.067956269 -0.016571037 0.059304163
0.075952701 -0.015328043 0.05821614
0.10081796 -0.012660299 0.052715279
0.11882418 -0.010698101 0.05981607
0.28630826 0.034631796 0.052409004
-0.28277004 0.056071866 0.052620649
0.15505673 -0.11045156 0.060764667
0.14723247 -0.10127844 0.065638058
0.15790412 -0.10431455 0.065638244
0.15464631 -0.095490687 0.063959844
0.14506941 -0.08590927 0.060936242
0.16509885 -0.088404745 0.062842272
0.065722622 -0.03211987 0.060327131
0.038468748 -0.022659173 0.061923381
0.041870713 -0.021890558 0.061037928
0.055694897 -0.026983574 0.068750806
0.066219747 -0.028626731 0.063743189
0.071739852 -0.029388685 0.060932353
0.080750108 -0.029148836 0.066601522
0.093626507 -0.029578894 0.066184849
0.10901678 -0.029268065 0.068144798
0.11759178 -0.029450566 0.064478166
0.16944723 -0.02157034 0.062823117
0.1310703 -0.0097727245 0.063181348
-0.2425842 0.053923454 0.064489841
-0.23300579 0.058331881 0.065571547
0.038218662 -0.021705016 0.076302864
0.087536663 -0.028299853 0.075136848
0.10925449 -0.02897764 0.070406556
0.1360703 -0.027373908 0.073775761
0.091756135 -0.011822324 0.074401878
0.10261578 -0.010707024 0.073926479
0.11292323 -0.0094675729 0.078479543
0.12152932 -0.0096701691 0.070097364
0.13666263 -0.0086544715 0.07293433
0.14510614 -0.008383723 0.072563909
0.16070893 -0.0099776043 0.072691418
-0.28158557 0.056171589 0.075064078
-0.27967137 0.05595006 0.072147176
-0.25850046 0.054467328 0.070303217
-0.22943316 0.055964783 0.079113752
0.066735357 -0.025274491 0.089396201
0.073555872 -0.026821028 0.081470788
0.11535385 -0.027317671 0.082243025
0.075636812 -0.012941483 0.08856272
0.084043995 -0.012325728 0.080413923
0.16802284 -0.0113452 0.084866092
0.14403021 -0.0069368985 0.089080021
-0.26911587 0.055174123 0.088818699
0.12419863 -0.024839103 0.098867543
0.073549271 -0.012971817 0.092621833
0.091002345 -0.010565096 0.090660438
0.12274535 -0.00710232 0.099455886
0.14058685 -0.0069619408 0.090414718
-0.26468894 0.054874908 0.093023933
-0.25827077 0.057815656 0.09548483
-0.23908098 0.058379896 0.094486959
0.04538241 -0.021106668 0.10252855
0.072549865 -0.023898119 0.10330834
0.088350609 -0.024359375 0.10602588
0.12674507 -0.023966547 0.10479611
0.068416663 -0.01252261 0.10984264
0.10359284 -0.0081348252 0.10344699
0.15120474 -0.0054632574 0.10945958
-0.26230836 0.056240384 0.10172962
0.073920973 -0.011020522 0.11638822
0.16771014 -0.014939617 0.115973
0.11773567 -0.0059012258 0.11690056
0.12856209 -0.0053674132 0.11629924
0.13911808 -0.0047333203 0.11740632
0.082016885 -0.022136228 0.12121345
0.10898712 -0.02270364 0.12030331
0.12845109 -0.021181244 0.12634367
0.056036092 -0.013706679 0.12755316
0.1666317 -0.013878373 0.12665245
0.073114194 -0.020302037 0.13102262
0.11301691 -0.020503297 0.13701132
0.12565555 -0.0202238 0.13513124
0.064440049 -0.01662834 0.13622153
0.07299713 -0.010018036 0.13096416
0.095014393 -0.0062790406 0.13664821
0.13054441 -0.0036825782 0.13485253
0.14218894 -0.0030880705 0.13495952
0.15150639 -0.0031183404 0.13850187
0.16989882 -0.008514992 0.13936073
0.046020817 -0.01464681 0.14802924
0.057822686 -0.013680566 0.14505337
0.10190879 -0.01956889 0.14551836
0.1262674 -0.019466622 0.1409283
0.16396734 -0.012210942 0.14897701
0.069865316 -0.009329645 0.14722124
0.063116327 -0.010049776 0.15533257
0.10855484 -0.017704371 0.15997286
0.068888009 -0.0091416733 0.15192531
0.12847161 -0.0019469394 0.15643065
0.13106583 -0.0016793553 0.15801124
0.15290421 -0.0015920565 0.15948772
0.16831207 -0.0069508427 0.15067725
0.095448151 -0.017050602 0.1646138
0.1173536 -0.017217016 0.16207038
0.12144434 -0.017128319 0.16146925
0.1352375 -0.015882362 0.16588864
0.14330037 -0.015928559 0.16172957
0.15330561 -0.013995244 0.16459826
0.16423926 -0.010042073 0.16368939
0.084823288 -0.014742177 0.17945072
0.05811771 -0.0098389629 0.17315654
0.071758822 -0.0067860801 0.17507976
0.083724849 -0.0045445529 0.17703187
0.15376669 -0.00070222298 0.1719074
0.16398147 -0.0062151598 0.17426854
0.099108309 -0.014293987 0.1867023
0.1618152 -0.0081882505 0.18536639
0.059752308 -0.010981487 0.19045663
0.092911668 -0.01273546 0.19768406
0.12102728 -0.012714369 0.19681856
0.055847138 -0.0089873662 0.19593102
0.072434433 -0.0049712481 0.19708499
0.094943352 -0.001312141 0.19707756
0.10492873 -5.8959704e-05 0.19815847
0.12756735 0.0016289713 0.19886948
0.1065385 -0.011565457 0.20857763
0.075629182 -0.0040272428 0.20157321
0.080713622 -0.0028978765 0.20384498
0.09655001 -0.00991455 0.20598046
0.10084055 -0.00030277175 0.20057072
0.11646758 -0.0060288636 0.2074199
0.15247482 -0.0094253821 0.20135055
0.10975282 0.0011335791 0.20684031
0.13627535 0.0024696481 0.20350419
0.15637094 0.0012373128 0.20348655
0.09087202 -0.010099603 0.21741909
0.095275298 -0.0016951162 0.21277019
0.13314971 -0.0035392493 0.21220684
0.11016734 0.0016212813 0.21220466
0.13120574 0.0033057274 0.21633908
0.14908397 0.0033232565 0.21370827
0.15996134 0.0011137167 0.21575093
0.061208911 -0.0059601031 0.22281796
0.082731523 -0.0089392923 0.22297475
0.13568142 -0.00079294946 0.22693202
0.16128466 -0.0035967885 0.22016457
0.095333993 0.0012010101 0.22702894
0.15364133 0.0039287698 0.22964253
0.070722349 -0.0063143624 0.2345157
0.09063863 -0.007858607 0.23471297
0.10664464 -0.0066095009 0.23489843
0.14547995 -0.0060909893 0.23827389
0.12109531 0.0046745911 0.23869094
0.087653622 -0.0061101187 0.24688168
0.097296536 -0.00061736128 0.24802101
0.10838416 -0.0063393265 0.24685805
0.1205668 -0.0063136593 0.24417228
0.13409729 -0.0039994149 0.24802101
0.0707606 -0.0038338248 0.25319511
0.097256348 -0.0023691787 0.25488931
0.10826565 -0.0040246146 0.25292608
0.075790696 0.00027010986 0.25615314
0.11037939 0.0046535376 0.25805733
0.13776755 0.0033095803 0.25020301
0.093564935 0.0038756374 0.262878
0.10811615 0.0057056798 0.26321504
0.1359113 0.0078592757 0.26687106
0.14346479 0.0080784019 0.26648551
0.15581045 0.0062878155 0.26684174
0.14765461 -0.0011864149 0.2737878
0.085002571 0.0033819785 0.2739315
0.11030978 0.0068827891 0.27465427
0.1420106 0.0084462576 0.27070418
0.096865401 -0.0021596546 0.28093639
0.1266792 -0.00086572568 0.28930914
0.07576555 0.0019624729 0.28641492
0.11642755 -0.00011882934 0.29823384
0.089054391 0.0054910793 0.29152232
0.09343338 0.0064988579 0.29536328
0.13436827 0.00034304592 0.29582351
0.14883538 0.0013516709 0.29148704
0.073078983 0.0034552375 0.30573317
0.086068019 0.0063902908 0.3093918
0.11709494 0.0012427279 0.30899069
0.074958086 0.0045960285 0.3153314
0.096221648 0.0021850625 0.31442809
0.10588644 0.009876648 0.31617501
0.11067478 0.010619585 0.31885973
0.08923468 0.0042439681 0.32705617
0.099484205 0.00992982 0.32680696
0.10058472 0.003320992 0.32462564
0.11058243 0.0037238805 0.32876709
0.12783265 0.012603361 0.32727358
0.1380246 0.012775173 0.323201
0.14114101 0.012656785 0.32051137
0.14950854 0.0091218101 0.33980116
0.084684953 0.0080523975 0.34443074
0.13329628 0.0069422168 0.34130466
0.10751626 0.011570624 0.34105846
0.1299073 0.0094116181 0.3560681
0.14806707 0.012407203 0.35760441
0.12848358 0.012925117 0.36791086
