# .PCD v0.7 - Point Cloud Data file format
VERSION 0.7
FIELDS x y z
SIZE 4 4 4
TYPE F F F
COUNT 1 1 1
WIDTH 826
HEIGHT 1
VIEWPOINT 0 0 0 1 0 0 0
POINTS 826
DATA ascii
0.030934796 -0.020578716 -0.33012182
0.083557814 -0.057175349 -0.31006142
0.0037080902 -0.042623706 -0.31149432
0.014682076 -0.044299588 -0.31502447
0.084887534 -0.046588082 -0.31804547
0.0037080899 -0.033447418 -0.3119137
0.031305823 -0.03791371 -0.31409633
0.04153277 -0.031956565 -0.3106797
0.063723788 -0.031525422 -0.3104991
0.079418197 -0.034988709 -0.31359643
0.089175433 -0.033678096 -0.31401059
0.093043916 -0.034429349 -0.31542748
0.041522685 -0.020036027 -0.31335437
0.056757428 -0.021016758 -0.31771284
0.0037080897 -0.052015156 -0.30037355
0.066400573 -0.058335625 -0.30957809
0.072819002 -0.058734752 -0.30817625
0.065396301 -0.043489132 -0.30091459
0.072180606 -0.043374628 -0.30005711
0.096872285 -0.041618954 -0.30249101
0.072552904 -0.039170146 -0.30029035
0.010414439 -0.024392022 -0.3071366
0.038317278 -0.027612599 -0.30281535
0.052230574 -0.021470126 -0.30491382
0.064040855 -0.025510132 -0.30385256
0.070593938 -0.027722139 -0.30454376
0.019481316 -0.016750878 -0.30852899
0.025787696 -0.017690811 -0.30939868
0.073683053 -0.060029455 -0.29662299
0.0052751983 -0.054733191 -0.29345894
0.01406208 -0.056044128 -0.29893318
0.024226371 -0.053684391 -0.29442328
0.060514264 -0.054218818 -0.29548037
0.085818425 -0.056574222 -0.2946437
0.05185597 -0.041740213 -0.29840493
0.073250078 -0.044341162 -0.29915532
0.021456035 -0.039676163 -0.29910165
0.042895779 -0.039386377 -0.29954764
0.011001972 -0.023201147 -0.2982201
0.028922936 -0.020537686 -0.29167074
0.05221384 -0.027822064 -0.29739901
0.0094747469 -0.045917097 -0.28291979
0.02726768 -0.040437836 -0.28637078
0.063433908 -0.04902859 -0.2857765
0.082362317 -0.043638241 -0.28207511
0.0037080902 -0.034418911 -0.28636202
0.012382091 -0.033547711 -0.28758347
0.029556127 -0.033938039 -0.28844684
0.063722327 -0.037910931 -0.28134811
0.0086239502 -0.028894067 -0.28742206
0.039788853 -0.020759284 -0.28929806
0.056259461 -0.020910045 -0.28249037
0.061707962 -0.021206375 -0.27452362
0.054084681 -0.021050885 -0.26332304
0.014404223 -0.015994165 -0.26014093
0.034267977 -0.020646691 -0.25321251
0.070491143 -0.021385534 -0.25650206
0.014676874 -0.020247154 -0.24776883
0.060148939 -0.020486284 -0.24849939
0.077966325 -0.021357881 -0.24700181
0.083001681 -0.02164072 -0.24686264
0.04722286 -0.019851938 -0.24938577
0.06923876 -0.021359999 -0.23034297
0.022112858 -0.020398803 -0.22315937
0.079032972 -0.021559779 -0.22403583
0.013872819 -0.018357506 -0.2203947
0.055596657 -0.021081744 -0.21391483
0.083856843 -0.021658177 -0.21378431
0.027178936 -0.017898167 -0.21735461
0.024029206 -0.020437883 -0.20393902
0.036187463 -0.020685852 -0.20516963
0.042266779 -0.020809852 -0.20665789
0.077258155 -0.020871902 -0.20238788
0.093624912 -0.021730823 -0.20678115
0.047551915 -0.019422438 -0.20525268
0.027278285 -0.020504145 -0.19086131
0.053993229 -0.019672055 -0.19822985
0.053827129 -0.044726133 -0.18372469
0.085481942 -0.044307783 -0.18390422
0.091505155 -0.042121924 -0.18426168
0.11419839 -0.04026366 -0.18325637
0.019282792 -0.020341087 -0.18802845
0.026028913 -0.020478666 -0.18937667
0.06958776 -0.020288885 -0.18246491
0.075030707 -0.020591645 -0.18562023
0.088376515 -0.021235554 -0.18361288
0.090314694 -0.021789908 -0.18372574
0.052998122 -0.053853504 -0.1712496
0.079575792 -0.053474139 -0.17096102
0.080124766 -0.053245787 -0.171478
0.10979047 -0.053969931 -0.17202882
0.077783488 -0.045779385 -0.17782135
0.087288946 -0.049504645 -0.17588675
0.099068791 -0.03971814 -0.17896242
0.10095431 -0.032686222 -0.1763346
0.042769525 -0.020820118 -0.17703173
0.068797909 -0.020203799 -0.1779338
0.036614023 -0.018533353 -0.17113075
0.096049055 -0.060187966 -0.16554864
0.032476 -0.051685188 -0.16588114
0.060545936 -0.054651633 -0.16113849
0.10406093 -0.059707947 -0.16858144
0.083834983 -0.041617684 -0.16571914
0.094069026 -0.042168017 -0.1624901
0.10267578 -0.04317363 -0.1632062
0.11729783 -0.040934443 -0.1658424
0.02685838 -0.020495582 -0.16610494
0.032476 -0.025654493 -0.16055194
0.045761254 -0.022350917 -0.16365317
0.059211224 -0.021980029 -0.16239721
0.074171349 -0.021460636 -0.16133493
0.098228306 -0.021873476 -0.16553067
0.10759477 -0.022142382 -0.16442604
0.11662359 -0.02314179 -0.16646856
0.048051082 -0.01908317 -0.16921277
0.05974628 -0.019657139 -0.16841385
-0.26402614 -0.0095500257 -0.16864756
0.032476 -0.050704651 -0.15777759
0.041707449 -0.055486023 -0.15339933
0.088956855 -0.051699381 -0.15588084
0.11231866 -0.055593386 -0.15345325
0.046200577 -0.042200889 -0.15029137
0.038633302 -0.031657945 -0.15296698
0.067355201 -0.037106238 -0.1516009
0.074633755 -0.031334598 -0.15507421
0.01522329 -0.0202583 -0.15495884
0.032150567 -0.023108039 -0.15595296
0.068283454 -0.022453304 -0.15534806
0.077070311 -0.02034205 -0.15086815
0.10580578 -0.024065012 -0.15605204
0.11346071 -0.022222621 -0.15774804
-0.26313123 -0.011377254 -0.1535905
0.034512252 -0.018273383 -0.15575211
0.062732533 -0.019677902 -0.15575843
0.037262924 -0.047466449 -0.14809762
0.10674422 -0.040544339 -0.14602405
0.033929482 -0.036226198 -0.14968608
0.050909929 -0.036961589 -0.14623401
0.027041871 -0.020499328 -0.14183076
0.035471246 -0.020671263 -0.1447908
0.051338177 -0.020994909 -0.14057347
0.089726783 -0.020908076 -0.14454745
0.10367616 -0.021612301 -0.14553735
0.11423465 -0.022277825 -0.14826116
0.018386966 -0.016587771 -0.14637361
0.047586408 -0.018842021 -0.14763263
0.034553759 -0.020652553 -0.1362295
0.072464347 -0.021425826 -0.1346278
0.081136726 -0.020377913 -0.13438654
0.11699001 -0.022124903 -0.13069041
0.019737247 -0.016789023 -0.13890705
-0.25478736 -0.0081839617 -0.13865939
0.03262658 -0.020613248 -0.12730032
0.047268614 -0.020911906 -0.12900683
0.063533336 -0.021243662 -0.12953478
0.078039318 -0.021539547 -0.12210963
0.093793832 -0.021860896 -0.12216593
0.12388757 -0.022381134 -0.12207494
-0.24293979 -0.011400287 -0.12711143
0.025553523 -0.017533885 -0.12668715
0.058989339 -0.019142972 -0.12124986
-0.26124987 -0.0081454553 -0.12232034
0.063927136 -0.021251699 -0.11413731
0.070232593 -0.021380316 -0.11067073
0.10586369 -0.021461051 -0.11979049
0.12459016 -0.022425793 -0.11719808
-0.2429394 -0.010644291 -0.11923847
-0.23998153 -0.011390505 -0.11365536
0.046308313 -0.018429523 -0.11309931
-0.26024896 -0.0074602468 -0.11162409
-0.24537826 -0.0094756735 -0.11453161
0.049783982 -0.02096322 -0.10919103
0.12534805 -0.02250452 -0.10836487
0.03588688 -0.017827244 -0.10482162
-0.24421006 -0.0094012227 -0.10237849
0.01497526 -0.020253239 -0.095041856
0.025074821 -0.020459225 -0.097561181
0.078871042 -0.021556519 -0.096868135
0.098003753 -0.021946777 -0.095598154
0.10722449 -0.021701079 -0.096563756
0.11711157 -0.022017604 -0.092283651
0.12111425 -0.022418166 -0.097678661
0.060362943 -0.018915452 -0.091963589
0.024517637 -0.020447861 -0.085834846
0.077978589 -0.021538321 -0.086748011
0.10272317 -0.021471879 -0.0879355
0.11551986 -0.022097945 -0.086514272
-0.25366956 -0.011747833 -0.088662922
-0.23727846 -0.010444984 -0.088198304
0.016549317 -0.020285342 -0.078617319
0.13067265 -0.022270666 -0.077717423
0.013948328 -0.016885936 -0.076945007
0.029584758 -0.017197985 -0.073581822
0.064741619 -0.018941205 -0.072942965
-0.25047553 -0.0078495378 -0.07382866
0.028488051 -0.020528853 -0.0684302
0.034158267 -0.020644514 -0.063672945
0.09186247 -0.020730706 -0.065274216
0.10854899 -0.022161882 -0.062280238
-0.23585534 -0.011425575 -0.06865377
0.040721066 -0.017712604 -0.069661319
0.077197105 -0.019514997 -0.068381205
-0.23984775 -0.0093367826 -0.065324351
0.063033685 -0.021233495 -0.059690937
0.094147265 -0.02186813 -0.053552996
0.13509047 -0.022247093 -0.053621709
0.043274872 -0.017662622 -0.052133888
0.088334434 -0.019983806 -0.059921443
0.014833719 -0.020250354 -0.041716326
0.11380267 -0.021078918 -0.042859189
0.12121458 -0.022420233 -0.043729596
0.15151986 -0.022941781 -0.041450929
0.034636643 -0.017152296 -0.044173583
0.045379348 -0.017667249 -0.042225122
-0.24591324 -0.0080712754 -0.043998715
-0.053576082 -0.06277252 -0.031649318
-0.030014511 -0.063601278 -0.031189434
0.062669016 -0.063697055 -0.030770313
0.074198678 -0.060726754 -0.032087766
0.10154949 -0.061366014 -0.031683303
0.1192706 -0.062477723 -0.031132316
0.13518448 -0.063561045 -0.030602314
-0.11800499 -0.052495975 -0.030450184
-0.10979192 -0.052078441 -0.031533435
-0.082472295 -0.055418365 -0.033177972
-0.068946213 -0.054310393 -0.035136085
-0.036901075 -0.050672933 -0.036055405
0.0043027946 -0.054838311 -0.034883875
0.061276644 -0.052141018 -0.035201184
0.095047414 -0.056592207 -0.033694349
0.15953244 -0.054766957 -0.034122091
0.1758876 -0.057800978 -0.032781247
0.18470691 -0.054312468 -0.034084368
0.22502398 -0.052111179 -0.034103211
0.23371476 -0.052161112 -0.034038197
-0.11643094 -0.044149555 -0.033001918
-0.06825795 -0.043783978 -0.036975104
-0.024197126 -0.040683918 -0.03660614
-0.019448671 -0.046540931 -0.036481868
0.033478279 -0.042979579 -0.036402214
0.081754014 -0.044665761 -0.036048241
0.11738618 -0.043763001 -0.035769001
0.13517079 -0.040579848 -0.035193879
0.19461191 -0.041841231 -0.034838509
0.22243518 -0.046294536 -0.034887683
-0.15330055 -0.031412754 -0.030610364
-0.14898734 -0.036046781 -0.031415865
-0.09738858 -0.037560776 -0.034713455
0.036283635 -0.037069269 -0.03559953
0.05074127 -0.035328239 -0.03524372
0.10047701 -0.036530558 -0.034965687
0.1152902 -0.037208147 -0.034924887
0.22374886 -0.037537113 -0.034017101
-0.060438849 -0.021818221 -0.030887585
-0.012422734 -0.021899842 -0.030198336
0.040309843 -0.02077 -0.034146544
0.10413947 -0.026723303 -0.031493478
0.1439212 -0.024597812 -0.035190366
-0.22228011 -0.012770779 -0.037100676
0.050913583 -0.017849121 -0.032965381
0.071095884 -0.018849466 -0.032561384
-0.24846193 -0.0079297721 -0.039055943
-0.23653729 -0.0092877178 -0.037198514
0.019610984 -0.075010151 -0.02020617
0.031262644 -0.072393283 -0.023587432
0.049288817 -0.073057666 -0.022675995
0.23668835 -0.073312238 -0.021873591
-0.12726721 -0.064030111 -0.020884769
-0.082253963 -0.065979451 -0.027005505
-0.068540722 -0.06701795 -0.028313596
-0.017351804 -0.066314086 -0.029060554
0.021605194 -0.065792672 -0.029315041
0.061755173 -0.067207098 -0.028079692
0.078881092 -0.067545898 -0.027755717
0.10683166 -0.066010684 -0.028829694
0.11397222 -0.064929783 -0.029632796
0.15729663 -0.064986885 -0.029427465
0.21390577 -0.067046463 -0.027635463
0.23131715 -0.06675332 -0.027795583
0.24511176 -0.069307409 -0.023945475
-0.13506417 -0.057807375 -0.025169924
-0.12558249 -0.052609321 -0.029563379
0.24545297 -0.055576369 -0.022702523
0.26884037 -0.059673976 -0.024981223
-0.16403618 -0.048948005 -0.026817927
-0.21915847 -0.036445107 -0.021359829
-0.19142918 -0.037216224 -0.026239168
-0.2135202 -0.020901389 -0.023027338
-0.1859058 -0.022415232 -0.02612924
-0.17520532 -0.023427635 -0.027462292
-0.15022443 -0.026310923 -0.029932309
-0.12613416 -0.02250978 -0.029317036
0.098000184 -0.023071587 -0.029369108
0.12520044 -0.022501538 -0.029421542
0.15651748 -0.021674246 -0.027381245
0.16122922 -0.020023193 -0.026040971
0.22428483 -0.024354566 -0.028377187
-0.24918896 -0.011915943 -0.028784987
-0.22212537 -0.01782658 -0.020982526
-0.21962628 -0.01240824 -0.024990451
-0.20096953 -0.016744565 -0.02243039
-0.16840947 -0.018828085 -0.026108654
-0.14102416 -0.018732626 -0.02696117
-0.12689722 -0.011786303 -0.021464597
-0.083028786 -0.013194276 -0.023413876
-0.041154724 -0.011453493 -0.020623799
0.086076386 -0.016443998 -0.024264488
0.10444572 -0.017133435 -0.0218038
0.13898514 -0.017577009 -0.024504587
0.14120393 -0.017621085 -0.020277699
0.15363342 -0.017600991 -0.024202514
0.20119578 -0.01849873 -0.023942035
0.24168576 -0.016059799 -0.020190205
-0.013764417 -0.076317251 -0.018586848
0.033035796 -0.079812773 -0.011246977
0.055057563 -0.077712268 -0.016288858
0.061480943 -0.075231299 -0.019812368
0.077267908 -0.078770697 -0.01370259
0.092158869 -0.078673251 -0.013917707
0.11992788 -0.077639177 -0.01637724
0.12114149 -0.079654165 -0.011509459
0.17911349 -0.077900566 -0.0156656
0.18009098 -0.077573724 -0.016453601
0.26018479 -0.077791378 -0.010504832
-0.21000095 -0.051914293 -0.010902283
-0.15816538 -0.059739485 -0.01949238
0.30883282 -0.055335835 -0.013047613
-0.20762905 -0.047720753 -0.017168555
0.29425818 -0.043243729 -0.014716752
-0.26195404 -0.035028663 -0.012004263
-0.25232157 -0.038311578 -0.011823363
-0.28712797 -0.01303686 -0.010373127
-0.25918823 -0.010753872 -0.014398111
-0.2412402 -0.01774396 -0.01923519
-0.22665012 -0.011282962 -0.016938612
-0.1947054 -0.010026118 -0.018046137
0.038036864 -0.016252423 -0.017111372
0.051098831 -0.010883311 -0.017781314
0.084258609 -0.016865622 -0.010814309
0.10940851 -0.017199274 -0.019438433
0.12230882 -0.012203666 -0.017881595
0.13087909 -0.011348599 -0.016494405
0.17091133 -0.013627866 -0.018631684
-0.25094336 -0.0078309737 -0.013066634
-0.19695003 -0.0052699917 -0.011584791
-0.13291292 -0.0089483764 -0.017750429
-0.12065725 -0.0083350949 -0.016983122
-0.1181146 -0.0096094767 -0.018650528
-0.10725716 -0.0067453389 -0.014067482
0.010863796 -0.0089699393 -0.015416046
0.075749472 -0.007988668 -0.010526121
-0.00024759665 -0.090865791 -0.0021922814
0.031350654 -0.094106734 -0.0062001338
-0.052158505 -0.081573658 -0.0055838455
-0.040683009 -0.085597679 -0.0023688299
-0.037857894 -0.085927084 -0.0023688299
-0.011490082 -0.088971376 -0.0053132968
0.0054527954 -0.086314648 -0.0066282172
0.014432346 -0.082998164 -0.0023688301
0.038910855 -0.089620344 -0.0023688299
0.051131643 -0.081924386 -0.0029200683
0.092200682 -0.081762992 -0.0041460595
0.10570699 -0.081264451 -0.0076427618
0.12488848 -0.081696957 -0.0046482906
0.14411354 -0.081837378 -0.0035817754
0.16434063 -0.081219226 -0.0065906914
0.17389309 -0.081587054 -0.0054841693
0.18948004 -0.082085952 -0.0016939171
0.20159911 -0.081912354 -0.0030130851
0.22752702 -0.081396878 -0.0069299401
0.23832853 -0.086255968 -0.0063787485
0.24075694 -0.082777023 -0.0058488753
0.24492118 -0.076968446 -0.0090612378
0.28441688 -0.076627113 -0.0049956054
-0.16968904 -0.065271862 -0.0060907854
0.24523853 -0.064196222 -0.0076534632
0.24551824 -0.052945551 -0.0096608689
0.31477314 -0.051134393 -0.007232571
-0.24581838 -0.043632038 -0.0065154415
0.31133398 -0.042878848 -0.00073553424
-0.27159905 -0.034695551 -0.0072648511
0.27919817 -0.030345077 -0.0099881943
0.299463 -0.037135523 -0.00051408052
-0.28616643 -0.028403014 -0.0058858022
0.26786059 -0.022803523 -0.0054568769
-0.30288732 -0.014747847 -0.0061902115
-0.29501837 -0.019627875 -0.0081648631
0.10383577 -0.017125342 -0.00087945443
0.1302802 -0.017476168 -0.0098148575
0.24640554 -0.017247019 -0.00040273176
0.25424421 -0.01403407 -0.0056721997
-0.17150591 -0.0019318921 -3.1999312e-05
-0.13888043 -0.0037658205 -0.0076678977
0.00030085584 -0.0057163695 -0.0079720384
0.027360093 -0.005652979 -0.0048402399
0.033869088 -0.0060383119 -0.0069994028
0.059327863 -0.0063089924 -0.0060523348
0.1323719 -0.0075320136 -0.006321365
-0.031335294 -0.092257507 0.0079663163
0.018668901 -0.090656221 0.0048319795
-0.017875267 -0.085176758 0.0065919184
0.00138894 -0.086162522 0.0060297563
0.087946251 -0.082604498 0.0025955483
0.12418737 -0.082300127 0.0049068625
0.13125007 -0.081775233 0.0088940747
0.19960006 -0.08230111 0.0048998366
0.25099152 -0.081809662 0.0030417996
-0.11670046 -0.074471161 0.0005023554
0.27130276 -0.07911706 0.0052115903
0.28216779 -0.077940375 0.0043705814
0.29247048 -0.076595858 0.0053106407
-0.18053636 -0.063292637 0.0038215369
-0.16608205 -0.06688524 0.0013654006
-0.15818797 -0.067538276 0.0078652799
-0.20882158 -0.055746842 0.0026948883
-0.23196679 -0.049020249 0.0059649409
-0.27987877 -0.032887496 0.0079898033
-0.29435056 -0.027699988 0.0019194061
0.037749991 -0.016248617 0.0026448651
0.048039436 -0.016385123 0.007414923
0.06407892 -0.01659791 0.008200218
0.073463261 -0.016722405 0.0044255382
0.14547811 -0.017677791 0.00032242225
0.25871113 -0.015620563 0.0020484787
-0.26890251 -0.0015969205 0.0022112806
-0.23418899 -0.0021135537 0.0063381456
-0.22865155 -0.0017849701 0.0019376229
-0.19303702 -0.00069303729 0.0036643529
-0.18995933 -0.001654548 0.0011142285
-0.15724999 -0.0026785431 0.0088619366
-0.12427117 -0.0027107452 0.0052169175
-0.052637167 -0.004106136 0.0073669488
-0.033134159 -0.0038115333 0.0020113087
-0.015115643 -0.0044197096 0.0053229919
0.098289937 -0.0065556932 0.0081703765
0.1084844 -0.0065218299 0.0067105265
0.11155857 -0.00611958 0.0032920267
0.13537702 -0.0069282195 0.0066250484
0.14200589 -0.0066050752 0.001451998
0.15580194 -0.0068979263 0.00085489452
0.18526712 -0.007663114 0.0063219587
0.21982229 -0.0078550484 0.0011368241
0.24119957 -0.0086032655 0.00686531
-0.22579448 0.00044748792 0.0029857915
-0.18850096 0.00081206131 0.0037626182
-0.17643975 0.0015243095 0.0012520459
-0.25418785 0.012806324 0.0024270474
-0.24396065 0.013906974 0.0024133758
-0.23345768 0.010962856 0.0028535649
-0.21825376 0.012209581 0.0031731047
-0.19156963 0.017779831 0.0037255676
-0.22139975 0.022305861 0.003133774
-0.24561389 0.031032844 0.0021875389
-0.2219297 0.036050323 0.0020714987
-0.20876968 0.035694338 0.0029696841
-0.25657365 0.043020409 0.0023845399
-0.24151337 0.045876089 0.0020638271
-0.22376832 0.043656617 0.0017003883
-0.25277489 0.055291809 0.0023999559
-0.22431378 0.057326354 0.0030702078
-0.25040528 0.065049417 0.0021992163
-0.23280263 0.069703951 0.001976457
-0.23340932 0.076571651 0.0020910571
-0.2407544 0.083475642 0.0024360819
-0.24475339 0.091462038 0.0025005902
-0.015218046 -0.091647431 0.0122303
-0.023406141 -0.08779791 0.012230299
-0.018372083 -0.082170807 0.010150879
0.011873411 -0.087282769 0.0122303
0.040010098 -0.084192768 0.0122303
0.16214451 -0.081120528 0.012753216
0.19470464 -0.081103317 0.01275022
-0.13517398 -0.070640355 0.011269918
-0.12471621 -0.070430137 0.016048776
-0.078015715 -0.079718344 0.010297553
-0.059714101 -0.07939212 0.017230118
-0.033282761 -0.079210803 0.017631326
0.0072601885 -0.079027057 0.018019544
0.16031694 -0.079891965 0.015722206
0.17481327 -0.078724027 0.018523224
0.20320043 -0.079193138 0.01735172
0.22524241 -0.079943962 0.015508464
0.28542882 -0.070634596 0.019443762
0.30239502 -0.073805444 0.010560348
-0.15699269 -0.064424247 0.017998805
0.24520373 -0.065606192 0.017007235
-0.2268385 -0.044890136 0.018252127
0.30859774 -0.047887154 0.015246141
-0.27549049 -0.031291708 0.014067501
-0.2964156 -0.022536609 0.010906217
-0.27238494 -0.027800882 0.018115725
0.2772333 -0.028023656 0.01158923
-0.29754436 -0.010214931 0.01088723
-0.28267771 -0.01467647 0.016225334
0.079789884 -0.016806338 0.012711788
0.088950507 -0.016927868 0.016753545
0.2125106 -0.010078428 0.015097263
-0.29020822 -0.009692979 0.012631415
-0.28283954 -0.0059423456 0.011173693
-0.26311207 -0.0080640651 0.016917149
-0.24858984 -0.0047590598 0.016369527
-0.16116731 -0.0067956694 0.019711899
-0.13548103 -0.0052149734 0.015921682
-0.096325822 -0.0051907934 0.014880747
0.095893085 -0.0082412725 0.015193498
0.1318935 -0.0092564439 0.016245488
0.1870625 -0.0089925826 0.013464908
-0.084150411 -0.074355215 0.022015456
-0.06324704 -0.074402079 0.026047893
-0.039268825 -0.076641276 0.023069382
-0.024601193 -0.074076682 0.026374724
0.0079641007 -0.072834574 0.027911408
0.044705529 -0.071727097 0.029262654
0.052000791 -0.074572586 0.025234461
0.067594878 -0.077305168 0.021934681
0.084722131 -0.074170858 0.025976326
0.12684929 -0.077592522 0.021321075
0.17000063 -0.073082052 0.027181458
0.18770814 -0.075009398 0.024624351
0.20667452 -0.077476062 0.02136126
0.23488684 -0.070554055 0.029704915
-0.11229062 -0.062733755 0.029725853
0.29533294 -0.061933525 0.02219969
0.27199057 -0.054987714 0.029840818
0.29823032 -0.052494358 0.021994824
-0.24815112 -0.034627087 0.020939548
-0.2529062 -0.01690888 0.022379421
-0.21591309 -0.016457744 0.02559644
-0.19651002 -0.01592702 0.027319947
-0.18882237 -0.017401673 0.028631385
-0.15012243 -0.014432274 0.028302079
0.0044603935 -0.014477617 0.028367527
0.026367594 -0.014353525 0.025867797
0.052522629 -0.010181971 0.021563446
0.070296511 -0.01486677 0.027376447
0.11377068 -0.016906939 0.02904574
0.14500141 -0.013671482 0.024118619
0.19629548 -0.015579365 0.025437681
0.21671659 -0.018483654 0.028757349
0.23255838 -0.01821249 0.028043421
0.24360172 -0.015289633 0.023970267
-0.2362591 -0.0066984235 0.027609121
-0.22043279 -0.0090463208 0.022613868
-0.20271274 -0.0083890148 0.020398524
-0.16370226 -0.0079910923 0.021263184
-0.11570293 -0.0091175623 0.022856269
-0.086915895 -0.0090270126 0.02281329
-0.0585991 -0.0086695477 0.02223045
-0.025107138 -0.009301764 0.022168901
0.016455553 -0.009103599 0.020361837
-0.024895411 -0.070933618 0.030384636
-0.012230808 -0.070145883 0.030941717
-0.028041966 -0.063830405 0.035846733
-0.0068111876 -0.068297125 0.032340012
0.086937599 -0.066629782 0.033268966
0.13789099 -0.06288489 0.035661541
0.20369725 -0.069155611 0.030894725
-0.021231713 -0.059335221 0.037991993
0.023813959 -0.05796545 0.038329348
0.11172132 -0.056303822 0.038569368
0.13704959 -0.0543749 0.039237488
0.15941441 -0.059250064 0.037105151
0.20728642 -0.057398856 0.037628341
-0.14924616 -0.048999824 0.033276286
-0.12739842 -0.046636358 0.036621429
0.24530962 -0.049248613 0.03804414
0.25081092 -0.040696889 0.037141077
-0.014708167 -0.031757824 0.039790306
0.060504623 -0.033815984 0.039774988
0.10354084 -0.036468994 0.039771229
0.22225976 -0.035042893 0.038416736
0.23479888 -0.037743814 0.038787883
-0.16368689 -0.027998473 0.034389623
-0.12399264 -0.025836438 0.035620771
-0.11235611 -0.026517557 0.036366247
-0.054766417 -0.029051799 0.039131634
-0.041868687 -0.022375545 0.035864864
-0.03142935 -0.024111915 0.036816061
0.022521084 -0.023862828 0.035998221
0.048375174 -0.024068581 0.035751421
0.098692283 -0.021074608 0.036296085
0.11143519 -0.020271959 0.031989481
0.12903698 -0.02169355 0.033999093
0.13635889 -0.023736857 0.034106173
0.14118987 -0.024647284 0.034742691
0.15155837 -0.025392218 0.035151992
0.1750316 -0.024043214 0.033749536
0.21845351 -0.026565569 0.034950458
-0.14483719 -0.017469203 0.030748578
-0.057019293 -0.015874635 0.031113785
-0.035337262 -0.015070394 0.030045725
0.027546857 -0.017132914 0.030755643
0.045762327 -0.017349372 0.033470087
0.056367546 -0.019627316 0.032218445
0.079026259 -0.01882894 0.031879857
0.14244907 -0.019011764 0.030399363
-0.22773698 -0.0077561168 0.030803602
-0.010659532 -0.050081797 0.040797062
0.012979684 -0.050493516 0.040583719
-0.085369296 -0.041089144 0.040726528
-0.078374483 -0.047288992 0.040529896
-0.036353469 -0.040919498 0.041584335
-0.0053755264 -0.043448877 0.041634966
0.0021016924 -0.040110447 0.041140355
0.039748672 -0.045541182 0.041055687
-0.078518696 -0.036654696 0.040546283
-0.050052173 -0.036828637 0.041166063
0.023394465 -0.039131016 0.040824562
0.091572888 -0.0209294 0.049259804
0.026510159 -0.019602375 0.048618123
0.031647712 -0.019707162 0.045705333
0.053954918 -0.01776927 0.041862667
0.074155003 -0.018667534 0.043748785
0.096275732 -0.019611165 0.040320151
-0.24384272 -0.0069082892 0.044267464
-0.22863737 -0.0077578332 0.048578613
0.057325639 -0.020230889 0.05582533
0.10093333 -0.021120315 0.056428432
0.074618295 -0.018781485 0.056601025
-0.23752561 -0.007038292 0.052127827
-0.22489293 -0.0084129795 0.055762075
0.014255611 -0.01935243 0.065253064
0.026531907 -0.01960282 0.067002811
0.031662203 -0.016930699 0.060740776
0.076689325 -0.018928468 0.064326011
0.080112457 -0.019097045 0.066890009
0.05427165 -0.020168602 0.071012609
0.095955722 -0.021018792 0.073268302
0.10365625 -0.021175863 0.078278132
0.12040514 -0.021517497 0.070483066
0.015128897 -0.019370243 0.073291659
0.031448804 -0.017057426 0.079411834
0.098128468 -0.021063112 0.086740524
0.11710206 -0.021450128 0.086342484
0.12719387 -0.021301081 0.08643508
0.13799153 -0.021830445 0.08262074
0.019228395 -0.016536973 0.083726428
0.025322348 -0.019578148 0.083258815
0.040352378 -0.019884702 0.088459872
0.065030642 -0.0185817 0.0867939
0.089889817 -0.020895071 0.093567707
0.096250288 -0.021024808 0.095516257
0.12507911 -0.021260366 0.093554847
0.061370496 -0.018472094 0.093745865
0.08858417 -0.019701829 0.098974645
-0.2536315 -0.0068249013 0.094537087
0.085039429 -0.020796143 0.10679331
0.096150234 -0.021022772 0.10767286
0.12133881 -0.021536557 0.10878416
0.13120665 -0.021701988 0.10988504
0.013956019 -0.016738648 0.1018381
0.02643365 -0.019600816 0.10418998
0.049235553 -0.018035799 0.10679052
0.091194615 -0.019858215 0.1047489
0.10583933 -0.021220408 0.11391006
0.13242635 -0.021715052 0.11035821
0.02117914 -0.016762013 0.11576017
0.063812159 -0.018728245 0.11422329
0.074683495 -0.019196792 0.11319617
0.088775456 -0.019849794 0.11812857
-0.24971244 -0.0078800255 0.1150777
0.11588984 -0.02142542 0.12724534
0.12239482 -0.021526257 0.12897052
0.013987364 -0.016125791 0.1243913
0.094032742 -0.020168044 0.13020942
0.015216392 -0.017766502 0.13822836
0.038580317 -0.019848559 0.13334052
0.057168182 -0.018578501 0.1335959
0.064467177 -0.02037655 0.14672014
0.10530093 -0.021088116 0.14448963
0.040620826 -0.019890178 0.14899914
-0.26027012 -0.0045021675 0.14372465
-0.25731152 -0.0075772982 0.14235663
0.087216556 -0.044801064 0.15802294
0.046840724 -0.036109455 0.1587666
0.056382678 -0.020211658 0.15440825
0.063477233 -0.020356359 0.15449631
0.025702326 -0.017283808 0.15955961
0.037738334 -0.019831385 0.15766625
0.082269095 -0.019849613 0.15719648
-0.25188035 -0.0077936719 0.15594707
0.032488246 -0.052927677 0.16696876
0.042358801 -0.055470325 0.16835836
0.056310911 -0.054853454 0.16418432
0.090812713 -0.058928378 0.1693542
0.10730362 -0.052816667 0.16275391
0.11122224 -0.050202839 0.16490245
0.0281136 -0.042745598 0.16404784
0.036538728 -0.047527801 0.16347647
0.089067668 -0.047533639 0.16457765
0.028231282 -0.039118357 0.16069131
0.031935733 -0.031609263 0.16377605
0.066154495 -0.035409942 0.16465278
0.10732384 -0.034112811 0.16011152
0.11023046 -0.032079048 0.16521759
0.10971889 -0.02512438 0.1683163
0.11154166 -0.025639236 0.16471352
0.016412791 -0.01939643 0.16508982
0.044459302 -0.018233327 0.16259234
0.051502578 -0.018594734 0.16986461
-0.2506364 -0.0078432215 0.1652458
0.054128665 -0.060371444 0.17451337
0.061982591 -0.060699597 0.17858717
0.060105149 -0.059500873 0.17029977
0.086501494 -0.055173788 0.17592843
0.099856645 -0.05476068 0.17209491
0.053076401 -0.043295972 0.17496273
0.082560569 -0.039194033 0.17745098
0.047065925 -0.020021632 0.17549577
0.050082717 -0.027196093 0.1757108
0.067638554 -0.026334075 0.17253019
0.078404009 -0.021658966 0.17739238
0.084687024 -0.029095702 0.17037661
0.098584577 -0.02262843 0.17275736
0.016456917 -0.01939733 0.17591545
0.021503765 -0.019500267 0.17842458
-0.25460419 -0.0076851719 0.17319867
0.084797643 -0.054108202 0.18247066
0.10646409 -0.054107375 0.18458691
0.11319961 -0.05889136 0.18090563
0.0281136 -0.031006381 0.18523434
0.067291386 -0.035639487 0.1897718
0.028943729 -0.024568317 0.18062872
0.047070131 -0.022635922 0.1807816
0.06519419 -0.020391379 0.18638082
0.090076841 -0.025817741 0.18873599
0.11684284 -0.025493827 0.18070108
0.0253572 -0.019578859 0.18154888
0.06566675 -0.019337308 0.18665332
0.02870471 -0.041816313 0.19423193
0.03168688 -0.04443112 0.19459531
0.069749177 -0.044159815 0.19064501
0.071529493 -0.041331444 0.19679435
0.088538691 -0.042105611 0.1911608
0.085836768 -0.03647767 0.19580387
0.10913902 -0.030644974 0.19207735
0.047161452 -0.020023581 0.19696572
0.023190046 -0.01699399 0.19493988
0.088487744 -0.020457232 0.20320748
0.036800403 -0.019812256 0.20839788
0.053086434 -0.020144427 0.2102842
0.069680378 -0.020482898 0.2160899
0.013900545 -0.017821256 0.216213
0.041188486 -0.018459434 0.21327026
0.051818877 -0.018929671 0.2139228
0.014696505 -0.016014174 0.2223307
0.035676405 -0.018941261 0.22413902
0.052065607 -0.019045547 0.22834045
0.063667513 -0.019560408 0.22927879
0.059891928 -0.020283243 0.23021701
0.07324627 -0.020534981 0.23849633
0.027150111 -0.019615429 0.23969933
0.03545671 -0.018366044 0.23489432
0.054318443 -0.020169564 0.24547961
0.077162683 -0.020299185 0.24956657
0.083609201 -0.02059908 0.24424845
0.034058545 -0.018247785 0.24401546
0.071634732 -0.020073872 0.25186402
0.013839141 -0.019020556 0.25720301
0.026227441 -0.018623389 0.25531554
0.06300389 -0.019686371 0.25055006
0.051214799 -0.020106265 0.26311472
0.077686317 -0.020405255 0.26097488
0.018208485 -0.017877027 0.26886439
0.021831991 -0.019506959 0.26971111
0.031502724 -0.019704204 0.26816756
0.04237565 -0.018897889 0.26630038
0.056178223 -0.01948704 0.26420987
0.052061819 -0.020123545 0.27156612
0.025737114 -0.019586608 0.27660725
0.03270461 -0.018091595 0.27408251
0.045637809 -0.019138496 0.27971509
0.076871991 -0.051687315 0.28806996
0.014168799 -0.047882609 0.2865831
0.052975412 -0.036072616 0.28491554
0.077464141 -0.038432341 0.28520972
0.087780446 -0.03319262 0.28768906
0.045035422 -0.019548468 0.28218007
0.053098965 -0.01948159 0.28196344
0.06249027 -0.019932762 0.28744483
0.026159717 -0.053408913 0.29632336
0.031329736 -0.052663483 0.29563057
0.059016746 -0.059328534 0.29649657
0.064953983 -0.058150105 0.29422131
0.074487098 -0.053069748 0.29563534
0.081971571 -0.052832082 0.29466715
0.0037080902 -0.046464268 0.29632753
0.058094118 -0.047374327 0.29134977
0.07438127 -0.044704579 0.29967669
0.046132356 -0.030118832 0.29577619
0.067189239 -0.031654507 0.29357985
0.054572001 -0.024243638 0.29448399
0.018849218 -0.060067303 0.30217335
0.025674613 -0.060290311 0.30314642
0.041314356 -0.060927119 0.30316281
0.02429118 -0.055281878 0.3069281
0.062780969 -0.054956771 0.30117619
0.085717842 -0.057727177 0.30608732
0.092057362 -0.058614355 0.30239552
0.08244998 -0.042411484 0.30205005
0.096349359 -0.040563487 0.30582124
0.052180752 -0.039609224 0.30254924
0.042858027 -0.024724895 0.30224538
0.055867184 -0.023162648 0.30485743
0.069169126 -0.027268598 0.30239767
0.029331483 -0.01770247 0.30371529
0.040794764 -0.019889051 0.30843937
0.042249568 -0.051551864 0.31321111
0.052508157 -0.056235436 0.31648436
0.025695032 -0.037305143 0.31747374
0.044436906 -0.035103995 0.31624037
0.089364864 -0.039138954 0.31920436
0.017416341 -0.029674064 0.31265891
0.033575494 -0.024400016 0.31349191
0.059949197 -0.020108817 0.31182751
0.062061682 -0.020131826 0.31254041
0.024148909 -0.019554216 0.31287631
0.031467345 -0.019703485 0.31212118
0.042289466 -0.0199004 0.31030777
0.0099628456 -0.04580478 0.32146221
0.014553957 -0.019358518 0.3374207
0.031894486 -0.019688126 0.33419722
0.04759033 -0.019876113 0.33478692
0.028141618 -0.019590015 0.34876227
0.029416675 -0.019596387 0.35127145
0.036208443 -0.019676398 0.35189536
