# .PCD v0.7 - Point Cloud Data file format
VERSION 0.7
FIELDS x y z
SIZE 4 4 4
TYPE F F F
COUNT 1 1 1
WIDTH 842
HEIGHT 1
VIEWPOINT 0 0 0 1 0 0 0
POINTS 842
DATA ascii
-0.066673175 -0.05019448 -0.30010843
-0.086774558 -0.030602697 -0.30296576
-0.054604616 -0.031355314 -0.30178678
-0.047472209 -0.039368667 -0.30313852
-0.084077716 -0.051635012 -0.29378015
-0.059649628 -0.050682757 -0.29620022
-0.043127 -0.033037152 -0.29762763
-0.083538063 -0.026823241 -0.29346609
-0.081822596 -0.050715357 -0.28937945
-0.069229744 -0.050761156 -0.28943405
-0.093411446 -0.045356117 -0.28501478
-0.10506237 -0.03467853 -0.28746486
-0.096614569 -0.030309785 -0.28855819
-0.073102318 -0.038920954 -0.28420898
-0.064833052 -0.03962113 -0.2841709
-0.039706916 -0.038700551 -0.28960669
-0.078356415 -0.040763572 -0.27865648
-0.087668851 -0.039517667 -0.27999794
-0.05983226 -0.039878201 -0.27740252
-0.076946661 -0.041865222 -0.26102924
-0.05651154 -0.042847224 -0.25810286
-0.077410668 -0.040988225 -0.24571157
-0.062038578 -0.044521272 -0.24285232
-0.056286193 -0.044919148 -0.24232984
-0.074773468 -0.042669266 -0.23477535
-0.064649239 -0.042118616 -0.22425626
-0.057884593 -0.045960918 -0.22142628
-0.032397456 -0.044857573 -0.22793645
-0.052050639 -0.042359777 -0.1954691
-0.036675133 -0.049164481 -0.19631274
-0.054617539 -0.044241816 -0.18576959
-0.043369096 -0.048952945 -0.18472414
-0.03595515 -0.047282588 -0.18667714
-0.0084472187 -0.042581327 -0.18406576
-0.036019307 -0.050442152 -0.17056695
-0.025996603 -0.050973415 -0.17875068
-0.049981982 -0.046305947 -0.17476285
-0.046907675 -0.044527646 -0.16559926
-0.027995523 -0.051946115 -0.1560491
-0.03688354 -0.049243025 -0.1560365
-0.017796269 -0.043273363 -0.15460666
-0.01152881 -0.053851273 -0.14706124
-0.0010810052 -0.054080863 -0.14516385
-0.0016633777 -0.043366503 -0.14963979
0.015300206 -0.047128659 -0.14839174
0.0084788892 -0.055209249 -0.13101582
0.017719209 -0.054252952 -0.13191736
0.013567139 -0.044640467 -0.13553441
0.009506261 -0.057563201 -0.11021419
0.027406646 -0.055785406 -0.11440098
-0.0088864937 -0.045712814 -0.11629353
0.0037920412 -0.044803403 -0.1125745
0.019711634 -0.045182496 -0.11678079
-0.020260653 -0.080947205 -0.10373264
0.0056198053 -0.080709495 -0.10294072
-0.023123963 -0.072799154 -0.10627977
-0.0096622379 -0.072183177 -0.10688242
0.018066447 -0.078030787 -0.10115524
-0.034185957 -0.066966414 -0.10195927
-0.0071753464 -0.063036703 -0.10201098
-0.007888848 -0.055913664 -0.10777844
-0.0018035388 -0.045803502 -0.10542871
0.0018070324 -0.045580711 -0.10563081
-0.024843359 -0.084625781 -0.096517071
0.0071026543 -0.084402107 -0.094289809
0.013026321 -0.058220331 -0.097728603
0.031636409 -0.057765402 -0.095005132
-0.017884981 -0.0480747 -0.090980254
0.019924939 -0.045417618 -0.091970712
0.042532071 -0.048067458 -0.095782012
0.14650744 0.0028114289 -0.090194881
-0.024235291 -0.08125028 -0.085533753
-0.0082578082 -0.084275879 -0.088158153
-0.023944888 -0.074818209 -0.082387201
0.015783161 -0.068574339 -0.086069085
0.022808172 -0.069323823 -0.088903375
0.0089161322 -0.058171302 -0.086694099
0.015565787 -0.058892891 -0.084644496
0.030976512 -0.05933626 -0.082668886
0.0077286847 -0.04611687 -0.088785738
-0.1335001 -0.0044685779 -0.084930897
-0.17200552 0.0079095084 -0.086267442
-0.16116251 0.0023154712 -0.088638902
-0.12067647 0.0029632691 -0.082972333
-0.1131319 0.0066180574 -0.082999162
0.14911777 0.0029810877 -0.088985264
-0.12313 0.014322951 -0.083735645
0.039112978 -0.059763514 -0.073456317
0.059306487 -0.054145187 -0.076677896
0.033495959 -0.046698999 -0.07009314
-0.17787662 -0.010858037 -0.074196488
-0.1493541 -0.017870294 -0.078815788
-0.11489139 -0.017558284 -0.070960648
-0.168089 -0.005773806 -0.074105792
0.16578251 -0.00044321129 -0.070653498
-0.20074315 0.0045769126 -0.078380384
-0.17456877 0.0098267496 -0.078951135
0.17657185 0.0030302973 -0.072323918
-0.16098058 0.022563372 -0.071361959
-0.14264677 0.022365326 -0.073660009
-0.35877794 0.086614341 -0.070111297
-0.024013631 -0.053043857 -0.062298305
0.012648433 -0.059369214 -0.063773185
0.044909123 -0.059968267 -0.06796661
0.0071109999 -0.047358342 -0.066223137
0.045529395 -0.047668807 -0.061477967
-0.1558051 -0.021422423 -0.06659174
-0.13277735 -0.021461219 -0.063465051
-0.12017982 -0.020622034 -0.063046217
-0.17228656 -0.013051209 -0.06932243
-0.19563508 -0.00895028 -0.060487416
0.17020762 -0.00050766539 -0.064552478
0.16507466 0.0035331582 -0.062801972
0.18536018 0.0019859734 -0.066110522
-0.20031747 0.011366975 -0.061004803
-0.12454137 0.017754002 -0.06985373
-0.1549044 0.023377784 -0.068869382
-0.11660719 0.021063343 -0.069320783
0.058868304 -0.060339209 -0.055167824
0.066722989 -0.048903253 -0.055047046
-0.13567838 -0.012665179 -0.053810704
-0.12245499 -0.018667106 -0.057311889
-0.20189564 0.009135901 -0.058535151
-0.17082761 0.018803701 -0.058176063
-0.16329707 0.016650314 -0.052599341
-0.14065829 0.014858339 -0.050095174
-0.138578 0.015996169 -0.050797984
-0.11299393 0.015457293 -0.057627857
-0.15795209 0.020821879 -0.057357788
-0.37233034 0.087477863 -0.055880941
-0.36697173 0.087740779 -0.055896867
0.0029543564 -0.095583431 -0.047372133
-0.002850529 -0.082298607 -0.04923179
0.014781613 -0.08912912 -0.047302105
0.045225002 -0.062181294 -0.043948445
0.05219299 -0.061276302 -0.049749181
0.073117331 -0.058776833 -0.04708945
0.080515929 -0.056304965 -0.04237505
0.01874006 -0.048314504 -0.040721245
0.030279316 -0.047842853 -0.040799074
-0.19121872 -0.0060227243 -0.046483457
-0.18155453 -0.0064360863 -0.044822767
-0.17640425 -0.0040119719 -0.048284363
-0.16143826 -0.0035744556 -0.046250492
-0.15404686 -0.0035664092 -0.046981007
-0.14913341 -0.0064141606 -0.045510978
-0.15965259 0.00075134949 -0.042569123
-0.14275038 0.00098350481 -0.045401648
-0.13875422 0.0011768979 -0.045571983
-0.12492085 0.00011560603 -0.046099894
0.17195536 0.0037307858 -0.049930952
0.19663368 6.4743515e-05 -0.043173008
-0.35183394 0.0894766 -0.045115449
-0.33558893 0.086162843 -0.04119454
0.0090012606 -0.093180165 -0.036768846
0.0079659419 -0.080405347 -0.036564957
-0.00029929599 -0.077324167 -0.036121987
0.0160992 -0.061338767 -0.031162772
0.047142956 -0.062703639 -0.037234943
-0.031148983 -0.052666441 -0.034486234
-0.022947345 -0.054222915 -0.038141102
-0.0098665208 -0.057000399 -0.037677016
0.15487048 -0.051020369 -0.031521779
0.19233105 -0.052720875 -0.030372966
-0.063316047 -0.041520257 -0.034835309
-0.014657499 -0.048799362 -0.030968938
-0.0049939179 -0.048703123 -0.031234846
0.024298152 -0.049820345 -0.031162964
0.061629929 -0.044381812 -0.03500697
0.11254951 -0.047100514 -0.033999879
0.14868119 -0.046184123 -0.034574337
0.15173182 -0.045734175 -0.034856409
0.16324854 -0.046012238 -0.034681987
0.20467302 -0.049509041 -0.032415289
0.23303342 -0.045802303 -0.034629043
0.27536845 -0.041954238 -0.035096254
0.28189 -0.042970076 -0.03448781
-0.1608586 -0.035616506 -0.030935574
-0.1156335 -0.038910456 -0.033992082
-0.10448506 -0.033468992 -0.036278062
-0.095625043 -0.030293036 -0.037200112
-0.035999913 -0.039128978 -0.036477722
-0.0030322401 -0.03590833 -0.037296712
0.036212303 -0.037257038 -0.037302759
0.13132611 -0.036389083 -0.037730064
0.14461802 -0.037674427 -0.037489861
0.15757011 -0.034306403 -0.038119186
0.1753574 -0.031916883 -0.03856577
0.18578075 -0.035750452 -0.037849292
0.27495107 -0.035706539 -0.036357701
-0.029660258 -0.023525657 -0.039437223
-0.018579347 -0.029369805 -0.038468517
0.022310032 -0.029620064 -0.038651314
0.046824493 -0.024262603 -0.03937136
0.052799635 -0.024142811 -0.039352871
0.14370495 -0.026870068 -0.039508846
0.20127164 -0.028956987 -0.039118722
0.29145455 -0.025542997 -0.033527501
0.30190545 -0.027618852 -0.031424388
-0.18472901 -0.01497726 -0.031090029
-0.16212536 -0.011036498 -0.030764103
-0.14366184 -0.011751662 -0.034393165
-0.092570335 -0.015878875 -0.037474841
-0.025553532 -0.01488317 -0.037780903
0.0012223824 -0.017733369 -0.038287085
0.070180573 -0.018858409 -0.038329698
0.082273543 -0.018303253 -0.038211495
0.092712536 -0.010029987 -0.03667555
0.1358242 -0.011626793 -0.036972053
0.1811063 -0.012736982 -0.037178002
0.22712398 -0.013231882 -0.037157804
-0.22032017 -0.0047721658 -0.033494812
-0.2003749 -0.00083485839 -0.039750405
-0.1954509 -0.008307578 -0.037501644
-0.18393436 -0.00085835217 -0.038342774
-0.16890222 -0.0087651629 -0.038074404
-0.15548611 -0.0059029106 -0.032358311
-0.1299141 -0.0039732968 -0.033396244
-0.065935776 -0.0075952313 -0.036406022
-0.011758669 -0.0062085651 -0.035463363
0.024295442 -0.0043932577 -0.034041822
0.040689416 -0.0086988071 -0.036475703
0.098512754 -0.0052611562 -0.034183722
0.17275321 -0.00063564361 -0.032768257
0.18966836 -0.0017537894 -0.031976625
0.21499094 -0.0088435058 -0.036438666
-0.072530024 0.0017507263 -0.030653354
-0.032407455 0.0017777453 -0.030432109
-0.018828629 0.0010460154 -0.030846663
0.074640512 0.0010696946 -0.030213796
0.20369887 0.00034113612 -0.035541467
-0.36265996 0.086038806 -0.039208397
-0.34660619 0.085210189 -0.033889636
-0.33321238 0.088690743 -0.035072982
-0.00032988226 -0.07855162 -0.028721523
0.014761806 -0.061511509 -0.026169091
0.04696092 -0.063499264 -0.028767407
0.051696517 -0.063522182 -0.025837375
0.076743983 -0.061976586 -0.028295072
0.089304022 -0.062654465 -0.020327615
0.17462084 -0.060755361 -0.022730922
-0.084786087 -0.053665482 -0.024523906
-0.06849052 -0.057386037 -0.020647142
-0.043739013 -0.055419937 -0.024791025
-0.0086678127 -0.051157191 -0.029609811
0.0022210628 -0.051786441 -0.029451497
0.013943797 -0.05152256 -0.029871203
0.045953728 -0.056920014 -0.027028047
0.096676052 -0.059807565 -0.024334313
0.10125317 -0.057185709 -0.027647356
0.143383 -0.056363214 -0.028110586
0.15026878 -0.059151478 -0.025082123
0.21382241 -0.054695196 -0.029073061
0.29001403 -0.05664362 -0.02550547
0.30443704 -0.052865796 -0.025914341
0.32188672 -0.051246542 -0.023785239
-0.15527123 -0.045687798 -0.024977537
-0.10633778 -0.046899453 -0.029064935
0.3241958 -0.046476915 -0.024859481
-0.1706811 -0.035087846 -0.029950099
-0.21853201 -0.029531859 -0.025408097
0.31405121 -0.02325115 -0.026771126
0.33153743 -0.028811648 -0.02116213
-0.2051284 -0.01133528 -0.028772909
-0.23173387 -0.0073027019 -0.024130136
-0.21615699 -0.0085527925 -0.024628129
-0.18340194 -0.0033020745 -0.027978104
-0.13329503 -0.005138102 -0.027492857
-0.19545358 0.0037390529 -0.022500886
-0.17076632 0.0075029293 -0.021728963
-0.12408346 0.009461401 -0.021790843
-0.11322419 0.0092919096 -0.022497542
-0.068157524 0.0097335763 -0.023125736
-0.038863644 0.0089181494 -0.02409959
0.008933913 0.0081277676 -0.024633333
0.052303966 0.0060553006 -0.027024923
0.061270162 0.0025775135 -0.029368369
0.082373954 0.0062454534 -0.026463721
0.1010094 0.0091154957 -0.022422582
0.12933718 0.0092854053 -0.022183282
0.13545515 0.0090827635 -0.022468612
0.16498947 0.007226279 -0.024915336
0.20399676 0.0028809998 -0.029059619
0.27839473 0.0018639877 -0.022904161
-0.089229256 0.011388382 -0.020186918
-0.007942548 0.010971742 -0.020809336
-0.34321839 0.089690022 -0.02443184
-0.032850675 -0.060143724 -0.018333122
-0.021858867 -0.061362837 -0.017123623
0.0055150022 -0.060262628 -0.017310541
0.046069194 -0.066173665 -0.013048972
0.076504648 -0.06305106 -0.019446252
0.2343144 -0.066440888 -0.014387812
-0.13871862 -0.055887595 -0.013774222
-0.12859358 -0.053179681 -0.019669402
-0.070446022 -0.058563296 -0.018805552
-0.25629371 -0.035094921 -0.011307186
-0.27372044 -0.022905352 -0.015123012
0.33364475 -0.027448134 -0.018790593
-0.30010682 -0.016122345 -0.010084783
-0.29508242 -0.014616284 -0.011630138
0.321549 -0.01307198 -0.011321928
-0.28441173 -0.0012211702 -0.012646737
-0.24690756 -0.001981061 -0.019721186
-0.27170953 0.0035733539 -0.012255302
-0.21095872 0.0062570614 -0.019244229
-0.18126467 0.0094442945 -0.017760729
-0.18657872 0.014193726 -0.010117101
-0.13442008 0.011448252 -0.018319227
-0.12288188 0.015386036 -0.012823286
-0.11104278 0.015910119 -0.011129524
-0.098746151 0.015782598 -0.013011668
-0.072079226 0.016839221 -0.010484443
-0.015442954 0.011990281 -0.019360157
0.0063165762 0.014396907 -0.015620114
0.013968809 0.015105697 -0.014508657
0.025397822 0.013192188 -0.017252497
0.04863888 0.015600691 -0.013294728
0.052158441 0.013106911 -0.017097831
0.066158533 0.01366988 -0.016135199
0.076546706 0.014003809 -0.015539759
0.20835444 0.011908723 -0.018489754
0.22108456 0.012542993 -0.017342761
0.23195413 0.015102442 -0.011696383
0.2457301 0.013409911 -0.013980994
-0.36013746 0.086654708 -0.014149283
-0.34027213 0.089654639 -0.011449517
-0.33726558 0.085046731 -0.012230517
0.08607877 -0.070170768 -0.00059256889
0.29935107 -0.072989248 -0.0029018722
-0.047387183 -0.064446442 -0.0061621983
-0.002068866 -0.066436768 -0.0044744844
0.017153252 -0.066879526 -0.0057707997
0.04812023 -0.068289898 -0.0045675407
0.050313745 -0.067348763 -0.0093979724
0.071050741 -0.069604829 -0.0023989764
0.089592479 -0.068648718 -0.0077465242
0.10806869 -0.069914415 -0.0015965916
0.11379018 -0.068795465 -0.0068263668
0.20554067 -0.069587246 -0.002225803
0.27005073 -0.068589546 -0.0047823321
0.33874038 -0.062921599 -0.0075320066
0.35692978 -0.061406761 -0.00067258964
-0.20776495 -0.050300889 -0.0039691729
-0.15983734 -0.055483937 -0.0084554888
-0.14920123 -0.056308601 -0.009587097
0.3693181 -0.055929452 -0.0033478932
-0.21071655 -0.049809165 -0.0039945589
-0.26756614 -0.035071664 -0.0068339184
0.36318815 -0.03537878 -0.0064408816
0.34136894 -0.020777905 -0.0050448896
-0.30245227 -0.012993643 -0.0098846238
-0.30865017 -0.0052018063 -0.008533678
-0.29091784 0.005823127 -0.0067005605
-0.2722764 0.006507203 -0.0089638289
-0.2868875 0.014218323 -0.0031015319
-0.27721545 0.017051872 -0.0037007895
-0.23740093 0.01293435 -0.006257697
-0.22573373 0.012606638 -0.0077864686
-0.207414 0.014546094 -0.0042537008
-0.15552807 0.015936619 -0.0088184932
-0.13929865 0.016671481 -0.0056862114
-0.12570396 0.016604131 -0.0065567316
-0.11186285 0.016726388 -0.0069225319
-0.030995669 0.018276474 -0.0024531297
0.014195124 0.01850871 -0.00029253436
0.03715862 0.017685547 -0.0037538176
0.043620259 0.016928587 -0.0071575269
0.058488727 0.017215941 -0.0054095639
0.060774609 0.0179564 -0.001853543
0.15865135 0.01673964 -0.0071848854
0.24810787 0.015192559 -0.0054941154
0.2685346 0.012288889 -0.0066131121
-0.30713874 0.035374776 -0.0016042977
-0.28224927 0.03049694 -0.0038508731
-0.26321766 0.035080094 -0.0027712174
-0.29813427 0.04837279 -0.0037972243
-0.30079016 0.055431224 -0.0039177127
-0.29615575 0.058956973 -0.0041001001
-0.28843731 0.060117695 -0.0031508547
-0.34207818 0.077787966 -0.0011392713
-0.323228 0.070899352 -0.0035962202
-0.28870428 0.075223953 -0.00025450828
-0.35578614 0.088231727 -0.0068825795
-0.33577859 0.085467547 -0.0019763201
-0.30997565 0.08787787 -0.0064164908
-0.33035994 0.094822377 -0.0015375119
0.30353987 -0.084393337 0.0035185572
0.14363167 -0.070337683 0.003220909
0.16500159 -0.07040409 0.001250225
0.23867412 -0.070028827 0.00096297171
0.29823074 -0.070693545 0.0034606562
-0.12373355 -0.060886651 0.0006186933
-0.074564382 -0.064581379 0.0049387575
-0.050761968 -0.064720817 0.0093590738
-0.04143925 -0.066256613 0.0016119434
-0.035613656 -0.065310225 0.0092400722
-0.025696998 -0.06669046 0.0021063162
-0.015997915 -0.067039207 0.00082446524
-0.003182651 -0.067120247 0.0038711657
0.0020682008 -0.067935824 0.0018749593
0.020834561 -0.067779973 0.0074484525
0.054629181 -0.069911271 0.0019415081
0.14037225 -0.069598399 0.0078389524
0.21309918 -0.06926243 0.008739179
0.25525108 -0.069431439 0.006437907
0.28573713 -0.069465652 0.0041922764
0.30970258 -0.067581117 0.0088137109
0.31511572 -0.068284936 0.0034372704
0.33166713 -0.066660605 0.0091975546
0.35783941 -0.061501715 0.00086279085
-0.21110363 -0.050975945 0.0017894539
-0.20105137 -0.05274789 0.0026410355
-0.19775078 -0.052986234 0.0040387232
0.37447792 -0.04074442 0.0001448495
0.342314 -0.020492634 0.0055632172
-0.31361842 -0.016294565 0.0060874172
-0.31085563 0.0079648439 0.0016321319
-0.30078816 0.0087421183 0.0061686682
-0.28375235 0.00874642 0.0077078305
-0.31699085 0.010146711 0.0022335534
-0.2626954 0.011844805 0.0088910088
-0.24459337 0.012187378 0.0080401059
-0.22721583 0.014332282 0.0041174637
-0.19651124 0.015633281 0.006380518
-0.17273033 0.0171996 0.0012753152
-0.13432536 0.017186403 0.008492006
-0.11012818 0.018271729 0.0006950302
-0.076570779 0.018189592 0.0083785225
-0.015208445 0.019130573 0.0023056725
-0.0087047108 0.01806259 0.0078122569
0.04974363 0.018833583 0.0021106352
0.052810628 0.017385202 0.0096900864
0.084587246 0.018395783 0.0044319704
0.13951027 0.017744062 0.0074981176
0.19556871 0.017600901 0.0081716459
0.23288211 0.017454185 0.004906442
-0.3300615 0.029233828 0.0023355074
-0.24551269 0.026382888 0.0035694607
-0.23433422 0.020038862 0.0013783319
-0.32846108 0.043591216 0.0011292137
-0.26914755 0.045476921 0.0072343266
-0.32410181 0.053857371 0.0056348834
-0.30499202 0.053179312 0.0085635921
-0.29459831 0.056864507 0.0089608841
-0.33266979 0.069981992 0.006866537
-0.31578943 0.060878757 0.0084139109
-0.29175746 0.060245924 0.0082629137
-0.27461439 0.062356532 0.00089955004
-0.35040212 0.078327909 0.0018132032
-0.33975673 0.078501016 0.0063991528
-0.31877261 0.077197701 0.0088302568
-0.30807102 0.071220785 0.0090330113
-0.37314466 0.086074471 0.0044008321
-0.36705267 0.088014379 0.00069863466
-0.3449558 0.082335517 0.0072052609
-0.33307427 0.084978461 0.0077448268
-0.32759058 0.084983438 0.0084329499
-0.30548948 0.08106675 0.0076155188
-0.36438313 0.094418429 0.0027474363
-0.34689718 0.097243696 0.0030223946
-0.33104604 0.095407464 0.0045790551
-0.32111323 0.093659453 0.0060036816
-0.31091595 0.09363772 0.0010266894
-0.098667413 -0.060269717 0.017686984
-0.038819402 -0.063395061 0.017950542
0.017892059 -0.066764854 0.011772499
0.050718188 -0.066872105 0.016869847
0.067291401 -0.068086013 0.013986261
0.09231136 -0.068837091 0.011871271
0.14941958 -0.068600819 0.012447916
0.1638855 -0.068341143 0.013534248
0.1852684 -0.068266876 0.01368355
0.20568088 -0.06769336 0.016190805
0.21123084 -0.068442732 0.012613242
0.25992522 -0.068391278 0.01131468
0.28696984 -0.065191172 0.019722153
0.3177098 -0.063267916 0.018278267
0.33239061 -0.067121185 0.010031448
-0.15164638 -0.054715648 0.01832534
-0.23406002 -0.043106325 0.013555551
-0.22706644 -0.045986176 0.010075092
-0.21088441 -0.045147847 0.0192832
-0.19360361 -0.049241655 0.018167451
-0.18421358 -0.049630806 0.019965403
-0.28242636 -0.030847486 0.011216925
-0.27082354 -0.032957379 0.013065522
0.35542375 -0.032247968 0.015643353
-0.28281608 -0.028126234 0.014304027
-0.2759043 -0.022458937 0.019733565
0.34267634 -0.028168503 0.019878296
0.33610958 -0.019845234 0.013451365
-0.31512249 0.0010662159 0.010940292
-0.30628979 0.0025990871 0.01163217
-0.29148766 0.0051297024 0.012630343
-0.23884383 0.0078503909 0.018018009
0.27952212 0.0099243838 0.010524238
0.28175569 0.0082570985 0.014556244
-0.21551941 0.013228967 0.01365857
-0.14437616 0.015742648 0.015299918
-0.10471891 0.014655734 0.01967828
-0.095448092 0.016892355 0.012784417
-0.08497633 0.017364604 0.011534426
-0.019438891 0.017138951 0.01258532
0.10678999 0.017166171 0.010216926
0.16526511 0.015285127 0.018751925
0.23390372 0.014353824 0.018994309
0.26313481 0.013343344 0.01239038
-0.34524381 0.089384153 0.013660697
-0.31462067 0.085757963 0.010085521
-0.063784733 -0.060165361 0.021815144
0.0072512482 -0.060491215 0.028150059
0.016409773 -0.061655544 0.029267447
0.05372759 -0.063333735 0.02366836
0.068894476 -0.063186988 0.023371357
0.084025063 -0.061794043 0.026933549
0.12685332 -0.062751651 0.025107617
0.13297021 -0.061529472 0.026821163
0.20601839 -0.064327009 0.022636555
0.23801744 -0.060910173 0.027266545
0.26288256 -0.063504867 0.023216972
0.32433519 -0.060444452 0.02100575
-0.14988601 -0.050520077 0.024805047
-0.11722466 -0.054771811 0.024263924
-0.10506313 -0.055661082 0.024364356
-0.07317017 -0.056556396 0.026601261
-0.050523154 -0.057700716 0.026183121
0.013955548 -0.058965668 0.027636953
0.036699884 -0.058249269 0.029733475
0.043521255 -0.059533283 0.028239623
0.31393039 -0.059974838 0.023984797
0.33599615 -0.054952435 0.022470415
0.34661889 -0.051612329 0.021409802
-0.17934962 -0.048812628 0.021964824
-0.16706619 -0.044029288 0.029548807
0.3506453 -0.048703209 0.020939391
0.34579086 -0.038552068 0.023065038
0.35202822 -0.037798222 0.020402474
-0.24165563 -0.019758426 0.02830404
-0.26605347 -0.0071804533 0.023012675
-0.24379081 -0.0028603594 0.02592059
-0.19801173 -0.0061477632 0.028237551
0.292243 -0.0061050216 0.028283749
-0.20320447 0.0081609851 0.022440204
-0.19490261 0.004566418 0.026696473
-0.039269138 0.0095493123 0.028024875
0.13582504 0.0089804176 0.027629372
0.16704151 0.0036820895 0.025555743
0.17178854 0.0055236123 0.02838609
0.18384759 0.0019822726 0.0246742
0.19845977 0.0096082073 0.026745185
0.2031202 0.001922605 0.029909818
0.27353776 0.0068627642 0.022086181
-0.092560872 0.011484573 0.024826378
-0.049263828 0.011230462 0.025662158
-0.033542037 0.012286134 0.023896169
-0.0026795939 0.011508975 0.024669204
0.0093869362 0.014593778 0.020234201
0.037870441 0.010009319 0.026473217
0.054581303 0.014395187 0.020171052
0.066950969 0.012940237 0.022125842
0.15513663 0.011733603 0.023752457
-0.33610684 0.089579917 0.02559147
-0.32180703 0.086324133 0.027798969
0.053248331 -0.062819093 0.036199268
0.06046737 -0.062341422 0.037254591
-0.1001425 -0.050556764 0.032070443
-0.096632421 -0.051654175 0.031309817
-0.07743717 -0.051136296 0.033033784
-0.053732947 -0.051404834 0.033564217
-0.015540749 -0.054940224 0.034980707
0.091773361 -0.056218576 0.033276841
0.10170083 -0.051705491 0.03609138
0.11472125 -0.052590363 0.035517123
0.13758904 -0.058841757 0.030590067
0.15465434 -0.052175254 0.035717558
0.24751052 -0.056502268 0.032668859
-0.16517246 -0.04242067 0.030817913
-0.15683161 -0.044191912 0.030777203
-0.10293546 -0.040388785 0.038755521
-0.060286231 -0.046576615 0.03660718
-0.054460417 -0.048331942 0.03557945
-0.037888713 -0.04734458 0.036610372
0.043946952 -0.04771731 0.037984356
0.17320339 -0.04828411 0.038198426
0.28482905 -0.047912333 0.037035741
0.29440433 -0.049195223 0.034847274
0.29216677 -0.035745069 0.039298002
0.28531313 -0.023895252 0.039750673
0.29813954 -0.029840134 0.038091086
-0.23039034 -0.01871351 0.030546864
-0.22878931 -0.019114938 0.030738542
-0.1932414 -0.019111207 0.035924003
-0.15178949 -0.018238626 0.039949484
-0.14111073 -0.013711924 0.039887398
0.28228113 -0.016500767 0.038001649
-0.20221645 -0.002434067 0.039547823
-0.19175324 -0.0049366644 0.031474981
-0.16734111 -0.00070300326 0.033161182
-0.1551818 -0.0040271906 0.03336069
-0.129371 -0.0048712762 0.03588447
-0.041379783 -0.0039304248 0.039172709
-0.02721413 -0.0025105453 0.038117565
0.021371052 -0.00077540049 0.036641784
0.079685107 -0.0035687196 0.038135126
0.1725512 -0.0031444354 0.037868105
0.21499859 -0.0050163907 0.039046291
0.2280633 -0.0043925527 0.038426511
0.25002387 -0.0017762256 0.03577704
0.265591 -0.0099996747 0.037342481
-0.12306502 0.0074214768 0.030039238
-0.11032404 0.0038295735 0.033470213
-0.10643081 0.0061377916 0.031973984
-0.080845669 0.0055905525 0.032929186
-0.065676644 0.0064732162 0.032488115
-0.043822128 0.0018603473 0.03536386
-0.0037115142 0.0074771633 0.030638866
0.010524223 0.0030336792 0.034296446
0.053461365 0.00084131421 0.035470083
0.13198483 0.0029587823 0.034026965
0.15486185 0.0070732664 0.03031457
0.17376469 0.0035508801 0.0370159
0.20498408 0.0037363344 0.035731718
0.25550571 0.004593642 0.030604422
-0.36019313 0.08585608 0.039882977
-0.33949122 0.089334406 0.037870236
-0.32555056 0.086646415 0.036484238
-0.0012572737 -0.090414599 0.040279824
0.0015975598 -0.076953702 0.045158353
-0.0021647201 -0.065920629 0.046073806
0.003961659 -0.064632446 0.04435125
0.028502991 -0.061455976 0.048759285
0.049489677 -0.06205786 0.046529029
0.055141509 -0.061896861 0.04506107
0.024347242 -0.0480709 0.044684157
0.041085523 -0.047615934 0.040701453
0.088101462 -0.041459564 0.041798744
0.098978296 -0.044050317 0.040915459
0.1057018 -0.043959353 0.040973835
0.13467029 -0.042143062 0.041660689
-0.075054869 -0.039229963 0.041037157
-0.061124854 -0.034406692 0.042263389
-0.058315247 -0.033784892 0.042405326
0.062022865 -0.037693843 0.042423725
0.10697445 -0.036874216 0.042655706
0.1160291 -0.035408352 0.042929679
0.15448816 -0.032797225 0.043417566
0.19960895 -0.03802599 0.042440452
0.25576913 -0.033696745 0.042719264
0.27380133 -0.033955298 0.041834682
-0.14238265 -0.025972255 0.040311582
-0.062995002 -0.025984073 0.043911982
-0.0070299255 -0.028942104 0.043682799
0.047353566 -0.026727013 0.044393227
0.1892696 -0.027506057 0.044406276
0.20822889 -0.029911367 0.04395669
-0.10174607 -0.017998902 0.042814437
-0.086646989 -0.013030491 0.042256791
-0.074703649 -0.016413517 0.043121886
-0.022554837 -0.016394611 0.043029644
0.0018836431 -0.016154252 0.042920027
0.015038986 -0.012618231 0.042247429
0.1533334 -0.013474585 0.042331114
0.2284672 -0.019513454 0.043356989
0.25733411 -0.018917833 0.041461915
-0.20626085 -0.0062688319 0.049879871
-0.14228177 -0.0069837202 0.048275068
-0.10431486 -0.0050836354 0.040199157
-0.094948985 -0.0060668429 0.040748935
-0.083904125 -0.0095095159 0.041610837
0.0018030629 -0.007294544 0.041042533
0.052933931 -0.0085345991 0.041442644
0.13680822 -0.0083678821 0.041155625
0.18063663 -0.0086616706 0.041340515
0.20721602 -0.0080109239 0.040867869
0.24556926 -0.009248795 0.040359154
0.16812125 0.0016357008 0.045929361
0.1882863 0.0014461325 0.042563893
-0.36124781 0.088877819 0.040111512
-0.34490716 0.085226811 0.040777765
0.015609404 -0.083681688 0.050553441
-0.029242322 -0.051692955 0.053856991
-0.019134304 -0.050264899 0.05193191
-0.16824028 -0.010647827 0.0536296
-0.21375573 -0.0029964061 0.054661982
-0.18560012 -0.0059089959 0.051245928
-0.17369673 -0.0050133439 0.052844111
-0.15923114 -0.0030350839 0.05059047
-0.17363115 0.0035864164 0.056126308
-0.13288739 0.00031136803 0.05050046
-0.12625581 0.0018489138 0.050480224
0.15850997 0.0026314373 0.05368191
0.16317606 0.0018357516 0.056631111
0.17055856 0.0058024419 0.055762075
0.1936619 0.0024126982 0.050276976
-0.12599935 0.011080884 0.052783459
-0.11408931 0.010405174 0.058236569
-0.36094674 0.085369244 0.054258563
-0.35831234 0.085409775 0.058094937
0.036960982 -0.060837984 0.066768423
-0.025958937 -0.052620959 0.068600357
-0.01091737 -0.056449503 0.064983085
0.059548184 -0.059014916 0.068562329
0.069147453 -0.054799959 0.065284923
-0.014630418 -0.04906927 0.063668445
0.010023843 -0.04741212 0.06682191
0.026867596 -0.047054578 0.061021913
0.043256149 -0.047562819 0.060123473
-0.12083109 -0.020201709 0.065313242
-0.18527476 -0.010281461 0.064958252
-0.17619115 -0.018034587 0.066679895
-0.15768343 -0.019440375 0.06257347
-0.11350499 -0.016654668 0.067924716
-0.2165771 0.0095683038 0.067145243
-0.168089 0.0024120291 0.060149763
0.16013406 0.0054493449 0.069150649
-0.21304512 0.010992117 0.069589555
-0.19839616 0.012835681 0.067612313
-0.13153733 0.016094921 0.065622218
-0.15687466 0.021646058 0.064345926
-0.12361231 0.023051456 0.068724275
-0.36012182 0.085459635 0.06281437
0.033979289 -0.060314819 0.074093416
0.034063458 -0.059965238 0.07781142
0.045747675 -0.059257746 0.076804221
0.011935603 -0.046941862 0.073841892
0.0262188 -0.046404485 0.073108591
0.035056755 -0.046846382 0.071359366
-0.14555083 -0.021924339 0.073066823
-0.12444648 -0.020968666 0.075286776
-0.19677153 -0.010062568 0.076221623
-0.17758635 -0.012867718 0.071040004
-0.168089 -0.017351193 0.07671015
-0.13315326 -0.013499275 0.07356979
0.16854008 0.0052964445 0.079296894
0.17615058 0.0022137589 0.073689319
-0.19130857 0.01438153 0.070380896
-0.18849511 0.014778158 0.071055181
-0.12044854 0.017126497 0.077448115
-0.11482985 0.019067574 0.077394225
-0.17464793 0.02025752 0.07714501
-0.15613931 0.022280471 0.078271456
-0.36384156 0.089250877 0.072908014
-0.016989488 -0.075801961 0.085087739
0.0085293241 -0.072809182 0.086148947
-0.0062925145 -0.06670785 0.086351171
0.0012722234 -0.065920129 0.087351255
-0.001000715 -0.057577152 0.083440535
0.033106282 -0.059719805 0.080997661
-0.02445198 -0.049589984 0.085016921
-0.13522018 -0.015685149 0.083292544
-0.20298386 -0.0025544611 0.082306474
-0.18603818 -0.0068689664 0.082182452
-0.17720926 -0.0059505245 0.0837503
-0.20631248 0.00413235 0.082068861
-0.19358797 0.0096310452 0.081421994
-0.17654967 0.0073875878 0.084806204
0.16852292 0.0028706458 0.089279033
0.17067075 0.0026413316 0.084827088
-0.1750921 0.014974126 0.084300511
-0.12357338 0.012935337 0.089071237
-0.16549881 0.021362763 0.08008229
-0.030766001 -0.083892614 0.097914413
-0.040923428 -0.077532321 0.090846084
0.027098062 -0.07252299 0.099823117
-0.042694449 -0.06602639 0.096772648
-0.021707591 -0.061738938 0.092669055
-0.018138099 -0.064957656 0.096200541
0.016044555 -0.06423372 0.09533006
-0.026333949 -0.051621277 0.096298762
-0.01908873 -0.053733688 0.096697405
-0.15796623 -0.0033108545 0.092510119
-0.012975212 -0.084356107 0.10303375
0.007252106 -0.08356896 0.10181352
0.010739447 -0.082851678 0.10141768
-0.025734689 -0.077892512 0.10780613
-0.01513344 -0.077924103 0.10883754
-0.0032268311 -0.074508503 0.10891026
-0.029472321 -0.067699119 0.10689478
-0.018442981 -0.065362707 0.10673651
-0.0019557448 -0.061174557 0.10029383
0.0056134025 -0.059628714 0.10026006
0.021332964 -0.058175031 0.10306243
-0.0013984791 -0.04594516 0.10768534
-0.030314371 -0.050077535 0.1113614
-0.012918673 -0.055341605 0.11111759
-0.0089819767 -0.055693038 0.11843158
0.011718359 -0.057176739 0.1191889
0.030214254 -0.055747241 0.11609399
0.024248376 -0.045660056 0.11651574
-0.033861883 -0.048282303 0.12893195
-6.688619e-05 -0.044395827 0.1263193
-0.0054592579 -0.055031702 0.13897583
-0.023702757 -0.04625028 0.13428754
0.014919114 -0.05364304 0.14195156
-0.039055537 -0.047549233 0.14532064
0.00059973006 -0.043512054 0.1412051
0.012273338 -0.044528142 0.14372891
-0.0094296895 -0.054023165 0.15092625
0.0066813258 -0.052551683 0.15536998
-0.042521711 -0.045313526 0.15641211
-0.033379454 -0.045107637 0.1524034
-0.0035639682 -0.043179579 0.15818205
-0.036206156 -0.050196633 0.16748498
0.0073220567 -0.050115868 0.16358304
-0.049515978 -0.045690738 0.16991071
-0.0062999516 -0.042925883 0.16175537
-0.0057967152 -0.050833136 0.17587535
-0.0011534803 -0.048407409 0.17897803
-0.029776571 -0.050429672 0.18654308
-0.011842336 -0.050326876 0.18339723
-0.036636926 -0.041996837 0.18973151
-0.022788007 -0.041356474 0.18836525
-0.017307632 -0.04972253 0.19128162
-0.055183571 -0.046612184 0.20203564
-0.018862221 -0.04391605 0.2090556
-0.05506188 -0.046557467 0.21543047
-0.02463492 -0.041353904 0.21791074
-0.068852298 -0.043773431 0.2239475
-0.059513628 -0.045654014 0.22425361
-0.06443546 -0.044669773 0.23907509
-0.045573641 -0.045995448 0.23622866
-0.029922139 -0.041605227 0.23177916
-0.053444415 -0.039038066 0.23745942
-0.045505904 -0.039146379 0.23047797
-0.055733401 -0.045243289 0.24381566
-0.070051737 -0.042563751 0.26558307
-0.058942445 -0.037343252 0.26891008
-0.066490784 -0.041842144 0.27335966
-0.086942606 -0.048293978 0.28640747
-0.075661071 -0.046796247 0.28432637
-0.067103498 -0.040042385 0.28661871
-0.052280992 -0.04108806 0.28438956
-0.10182078 -0.033066168 0.28745371
-0.090700269 -0.037930332 0.2837525
-0.042849775 -0.039256424 0.28742743
-0.06717056 -0.051615283 0.2929824
-0.082649931 -0.026865773 0.2917031
-0.062290754 -0.027116712 0.29514068
-0.083747506 -0.037503429 0.30659655
-0.079128973 -0.036818385 0.30673042
-0.055797588 -0.035407614 0.30419981
