# .PCD v0.7 - Point Cloud Data file format
VERSION 0.7
FIELDS x y z
SIZE 4 4 4
TYPE F F F
COUNT 1 1 1
WIDTH 887
HEIGHT 1
VIEWPOINT 0 0 0 1 0 0 0
POINTS 887
DATA ascii
-0.061746828 0.0014168487 -0.374807
-0.050145179 0.0026684608 -0.371499
-0.04899564 0.0033213573 -0.37830529
-0.043943293 0.002760692 -0.36895925
-0.043639868 -0.0023785797 -0.35522854
-0.035205424 -0.0030837776 -0.35046092
-0.047522806 0.0013343724 -0.35470963
-0.057313126 -0.0012866289 -0.33656874
-0.037307493 1.3080906e-05 -0.33388668
-0.036824431 -0.0053537879 -0.32568794
-0.017694233 -0.00037605513 -0.32470471
-0.028243229 -0.00689374 -0.31172097
-0.019686546 -0.0065383418 -0.31613952
0.00033056038 -0.0067345435 -0.30952203
-0.047143459 -0.0076406086 -0.29480916
-0.019717477 -0.0087567577 -0.29339111
-0.050573114 -0.0054913037 -0.28163099
-0.035339773 -0.009509569 -0.28135535
0.00055301358 -0.0036669413 -0.28379658
0.019408925 -0.0078642238 -0.28908199
0.024832385 -0.0058054756 -0.28271249
-0.0083480272 -0.010598553 -0.2744776
-0.041082572 -0.0096406182 -0.27673656
0.012607359 -0.011474369 -0.26044756
0.021732841 -0.010947354 -0.26068914
0.0089738723 -0.0053886347 -0.26302177
-0.054993995 -0.010578389 -0.25276992
0.018570481 -0.011552854 -0.25699389
-0.041916739 -0.0076092323 -0.25015089
-0.012531761 -0.0057261386 -0.25829583
-0.004836461 -0.0060061696 -0.25403732
0.01229341 -0.0059603658 -0.25688779
-0.052027099 -0.010427176 -0.23228794
0.025984136 -0.013344031 -0.23705481
-0.0012929641 -0.0073998393 -0.23650679
0.019463316 -0.0079766884 -0.23229942
-0.046973132 -0.012322934 -0.22560364
-0.026860245 -0.014759039 -0.22790135
-0.014059907 -0.015349678 -0.22545162
0.022507574 -0.014480535 -0.2283567
-0.039054438 -0.0092627527 -0.22923863
-0.024371717 -0.0088884113 -0.2246815
0.015558189 -0.0085730851 -0.2223216
-0.024700943 -0.015995562 -0.21530865
0.022089608 -0.016159179 -0.21302547
0.01617411 -0.0094777932 -0.21058738
0.02827069 -0.017104134 -0.20166709
0.032977164 -0.015974989 -0.20978412
-0.035778701 -0.012180794 -0.19253486
0.0015223138 -0.010747893 -0.19394858
0.045778606 -0.017056135 -0.191881
-0.022134831 -0.012072308 -0.18285477
0.04612628 -0.012431856 -0.18742153
-0.0034580736 -0.056124657 -0.17045526
0.0042267777 -0.052997574 -0.1718933
0.015673596 -0.055467565 -0.17108256
-0.045807675 -0.045131505 -0.17187132
0.0039933687 -0.04290159 -0.17439607
0.061853655 -0.043123256 -0.17385554
-0.012004077 -0.036986031 -0.17367002
-0.0088685341 -0.026983585 -0.17070843
0.044414438 -0.015518616 -0.17623761
0.006996436 -0.063114829 -0.16516285
0.039878547 -0.064896807 -0.1631425
-0.076336473 -0.051868413 -0.16460007
-0.050749779 -0.054123431 -0.16854814
0.076082014 -0.0560214 -0.16956179
0.12563531 -0.057801738 -0.16103205
-0.057217952 -0.049672503 -0.16901749
0.1193177 -0.047816001 -0.16661617
0.12540779 -0.040316526 -0.16431217
-0.078535691 -0.035775695 -0.16318274
-0.05164098 -0.031174358 -0.16815476
0.11706334 -0.034296714 -0.16488807
-0.061457019 -0.024949174 -0.16054112
-0.022417938 -0.020414615 -0.16129142
-0.005894891 -0.022576744 -0.16793789
0.095434979 -0.023739152 -0.16313556
-0.045782901 -0.017280726 -0.16457781
0.01913874 -0.012121968 -0.16901988
0.032354124 -0.013871783 -0.161557
0.042447552 -0.013203766 -0.16053644
0.058361016 -0.014618577 -0.16504714
0.061897725 -0.01538934 -0.16136275
-0.017698789 -0.070013277 -0.15351865
-0.0055521764 -0.070723489 -0.15186435
0.01009346 -0.071048692 -0.15014175
-0.042520057 -0.068074144 -0.15719359
0.010669185 -0.069022603 -0.15605175
0.051474348 -0.067145415 -0.15993887
0.12448131 -0.061395042 -0.15848461
-0.093670696 -0.05888059 -0.15623978
0.14076351 -0.058621664 -0.15104623
-0.089043543 -0.030375334 -0.15544787
-0.062072426 -0.024131726 -0.15920442
-0.014464214 -0.020941101 -0.15796492
-0.008111909 -0.021236267 -0.15624154
0.0038186493 -0.021260083 -0.15807116
0.11518964 -0.024843831 -0.15734896
0.12606853 -0.027767379 -0.1548726
-0.051482745 -0.017200701 -0.15276085
-0.049091566 -0.01702288 -0.15407293
-0.038159654 -0.014994645 -0.15367194
0.053271372 -0.013046029 -0.1575169
0.069030464 -0.017802976 -0.15253426
0.001517516 -0.071468331 -0.14009017
0.020085085 -0.071762741 -0.1447174
0.032418814 -0.071327128 -0.14802665
0.041432012 -0.071661264 -0.14548832
0.094217516 -0.071168154 -0.14923441
-0.1156754 -0.047318891 -0.14423637
-0.09293884 -0.029706147 -0.14687523
-0.086225048 -0.02540092 -0.14303614
-0.020132428 -0.021922 -0.14215401
0.0087798815 -0.022050122 -0.14836624
0.019193247 -0.022630105 -0.14023876
-0.004699077 -0.01375662 -0.14791374
0.015387634 -0.013841912 -0.14136906
0.064131223 -0.015922831 -0.14220473
0.016872264 -0.0095604686 -0.14865674
-0.039997298 -0.071383283 -0.13947937
0.049369324 -0.071203314 -0.13807677
0.13615701 -0.049399827 -0.13398771
-0.07907749 -0.024380572 -0.13704418
-0.019137437 -0.022423789 -0.13588643
-0.0043545924 -0.023217406 -0.13119832
0.0059897681 -0.023162697 -0.13381624
0.028566511 -0.023208804 -0.13110641
0.12426263 -0.027997892 -0.13082729
-0.050326362 -0.017378639 -0.13301136
0.0025573589 -0.014556884 -0.13238962
0.071647562 -0.017493241 -0.13640703
0.035609599 -0.0093551017 -0.13417897
-0.076313615 -0.061850503 -0.12926927
-0.020506913 -0.063471049 -0.12259787
0.029849581 -0.066159792 -0.12564011
0.070499592 -0.066250555 -0.12639271
0.08528614 -0.063476093 -0.12312957
-0.052420072 -0.059205052 -0.12182524
0.13937399 -0.052928023 -0.12871571
-0.090934873 -0.048520789 -0.12454246
0.14044158 -0.043543708 -0.12944886
0.12818359 -0.03581031 -0.12549354
-0.021307502 -0.020712411 -0.12141252
0.015115159 -0.024220716 -0.12073012
0.020641871 -0.024200838 -0.12050298
0.065839365 -0.021803372 -0.12763591
-0.034592226 -0.016235208 -0.1266923
-0.012840769 -0.019680906 -0.12172285
0.064660326 -0.016417589 -0.12386072
0.0762586 -0.018506676 -0.12584504
-0.012980754 -0.058451977 -0.11839056
0.039002184 -0.059304975 -0.11833799
0.10701478 -0.056498259 -0.11918457
0.011281128 -0.048294075 -0.11318032
0.10965897 -0.046864837 -0.11736812
-0.00026452352 -0.034613572 -0.11188242
0.0040428787 -0.033305302 -0.11204104
-0.041850571 -0.022538126 -0.11312284
-0.037742641 -0.027904343 -0.11716495
-0.018678891 -0.02383887 -0.11380415
-0.0061012097 -0.025308549 -0.11702192
0.020661758 -0.024474265 -0.11351193
0.043230355 -0.023970012 -0.11453249
-0.029818878 -0.016749829 -0.11755954
-0.0088667609 -0.015690193 -0.11123814
0.0047644591 -0.015420735 -0.11487056
0.048087958 -0.015478991 -0.11947089
0.053118117 -0.015772827 -0.11585866
0.062995806 -0.016417636 -0.11948362
0.0027929039 -0.064823009 -0.10042855
-0.051438116 -0.021856619 -0.10008757
0.014993601 -0.024502002 -0.10302725
0.0065075876 -0.015115704 -0.10324545
0.024176747 -0.015018957 -0.1073407
0.032899678 -0.015018376 -0.10848439
0.059244491 -0.015685279 -0.10327138
-0.24303585 0.037354194 -0.10126759
0.005865966 -0.10074626 -0.093533702
0.011631992 -0.10548589 -0.091585994
0.0013534166 -0.078820169 -0.096114516
0.00031780766 -0.067591533 -0.095225565
-0.032234017 -0.016456205 -0.097743787
-0.0068277642 -0.015272232 -0.095573135
0.010291213 -0.014771867 -0.092146561
0.032233335 -0.014732332 -0.097905181
0.044599853 -0.014836794 -0.095527038
0.053979505 -0.0150727 -0.091956712
0.064736485 -0.015966352 -0.099237159
-0.26319891 0.037647672 -0.092314489
-0.25139651 0.037767489 -0.095404044
-0.0066983798 -0.10237702 -0.081813402
0.0019394762 -0.088931836 -0.080416381
-0.010627239 -0.079728253 -0.081813402
0.072813019 -0.022669232 -0.085657716
-0.032581922 -0.016194213 -0.08683344
0.064274341 -0.015547222 -0.089232869
-0.23183221 0.037142619 -0.089460619
-0.22897613 0.036395703 -0.081641294
-0.051075418 -0.021973716 -0.074417606
0.044015236 -0.014208839 -0.071864218
-0.24429835 0.034004331 -0.071549267
-0.23272748 0.034598369 -0.071642429
0.011896346 -0.024483152 -0.068589859
0.0032716456 -0.014364948 -0.06753315
0.038009036 -0.013837219 -0.0607199
0.057329103 -0.014240213 -0.060432538
-0.25572604 0.038774624 -0.062787741
-0.24253969 0.038847029 -0.067159496
-0.23316136 0.038609944 -0.069622837
-0.22203398 0.038202714 -0.063482068
-0.059357852 -0.025066126 -0.051141605
-0.017763916 -0.021124134 -0.051912703
-0.0057231081 -0.024212033 -0.056529637
0.0050483486 -0.024430638 -0.051365759
0.016492229 -0.020559063 -0.05204545
0.030843025 -0.022974681 -0.051604018
0.066151753 -0.023321215 -0.051917255
0.085938372 -0.024248973 -0.050371617
-0.03307493 -0.014260771 -0.051053036
0.0073141837 -0.013912454 -0.052307695
0.012610514 -0.016122241 -0.051739603
0.02465074 -0.018658832 -0.052303944
0.052799955 -0.013999942 -0.05880338
0.092843369 -0.017624553 -0.052035373
0.10869201 -0.014647382 -0.051134303
0.12864883 -0.01584175 -0.050613731
0.10360189 -0.009628756 -0.050304044
-0.2527 0.034024891 -0.052974619
-0.24905832 0.033951152 -0.056831628
-0.23617071 0.039134972 -0.059710935
-0.078604117 -0.041012503 -0.041567791
0.090582438 -0.040479898 -0.041049939
-0.10342731 -0.034080803 -0.043543126
-0.076639324 -0.036730528 -0.045534659
-0.047548231 -0.037675392 -0.045569576
-0.0036483621 -0.034696616 -0.047062099
0.0069617387 -0.039390933 -0.043336123
0.060414575 -0.030605687 -0.049089029
0.079163805 -0.037116345 -0.044829339
0.089639455 -0.035193894 -0.046097662
0.10430941 -0.035396781 -0.045793131
0.11742674 -0.039656304 -0.041701913
-0.13095169 -0.022633649 -0.043793425
-0.059786171 -0.021113317 -0.045096699
0.054268192 -0.023850778 -0.047735512
0.074340418 -0.029019596 -0.049931105
0.14987594 -0.025976103 -0.045966264
0.16518021 -0.02588697 -0.043223314
-0.0094460808 -0.019440569 -0.045096699
0.0063852239 -0.017187972 -0.045096699
0.045272905 -0.016412193 -0.045999117
0.1585086 -0.010950651 -0.044080518
-0.11247587 -0.0058741043 -0.040685512
-0.10279648 -0.0080043431 -0.043434855
-0.073851734 -0.0059966315 -0.04671599
0.01995543 -0.0014675196 -0.045815133
0.023818715 -0.00055793708 -0.045333475
0.047223583 -0.0031587393 -0.047215536
0.082409322 -0.0059312321 -0.048959974
-0.02975185 2.7620234e-05 -0.043388069
0.076242514 0.0029698538 -0.042548012
-0.23463558 0.03413086 -0.049262125
-0.13972178 -0.043205634 -0.030131925
-0.052906159 -0.044646867 -0.038442589
-0.016807895 -0.047141768 -0.034022234
-0.00043069199 -0.046972688 -0.033909071
0.018195985 -0.044434063 -0.037668385
0.056210957 -0.043996546 -0.037608072
0.084634811 -0.04595045 -0.033821054
0.14814343 -0.043980017 -0.033178691
0.16702349 -0.04057217 -0.033952139
-0.16745208 -0.038458757 -0.031290829
-0.11810292 -0.039254088 -0.037679583
0.21688566 -0.028303802 -0.033316441
0.22598323 -0.029518619 -0.030971605
-0.19626158 -0.015199608 -0.032960523
0.18901944 -0.011097506 -0.0380891
0.20699826 -0.019295659 -0.036278889
-0.16250485 -0.0053657698 -0.031173982
-0.11313717 -0.0028982584 -0.037713967
-0.094858877 0.0052932668 -0.030569367
-0.060923323 0.0070390292 -0.033709772
-0.059566095 0.0045434418 -0.037728943
-0.002274232 0.0085074687 -0.033294603
0.082247123 0.0094358018 -0.034009095
0.094140306 0.0061435914 -0.038390398
0.13123578 0.0082215518 -0.032645747
0.11331059 0.010637566 -0.030037392
-0.25371897 0.039688759 -0.035318207
-0.2038611 0.036905833 -0.038445104
-0.065603875 -0.05064819 -0.028788701
-0.018020274 -0.052222401 -0.023381088
0.011259688 -0.051503006 -0.024388937
0.031010365 -0.052326404 -0.020571264
0.098789141 -0.050865255 -0.023409765
-0.17880873 -0.04138742 -0.026322626
-0.1651403 -0.044731982 -0.022629756
-0.15584654 -0.044379886 -0.024990728
-0.10405855 -0.049841501 -0.024374245
0.19766474 -0.041783921 -0.027273027
0.20102803 -0.045780201 -0.020038228
0.21763021 -0.036315475 -0.028323794
0.23805888 -0.032281026 -0.027121942
0.24440838 -0.03830811 -0.02006964
0.25575793 -0.027241869 -0.025533807
0.26172787 -0.011057467 -0.021039139
-0.21050864 -0.0071048187 -0.024093403
-0.16520157 -0.0016295449 -0.025707472
0.21331587 -0.0022902226 -0.0263946
0.22118925 -0.008654234 -0.029895691
-0.12803178 0.0027781851 -0.026885977
-0.075945042 0.011147531 -0.023454698
-0.048407305 0.01311636 -0.020283841
-0.0025283564 0.01362288 -0.021809362
0.010302318 0.012278519 -0.026793532
0.03828495 0.013319414 -0.025758103
0.13294858 0.013548933 -0.020026131
-0.22309372 0.034270987 -0.020834632
-0.21476749 0.037075732 -0.02428722
-0.20068353 0.039106965 -0.021358822
-0.12465997 -0.051019423 -0.014993813
-0.11962388 -0.050130457 -0.019476375
0.0018401965 -0.054385871 -0.014952533
0.1367477 -0.053490184 -0.010530109
0.16499291 -0.050106689 -0.016823648
0.17991188 -0.050618075 -0.012333719
-0.20465976 -0.042703547 -0.01913105
-0.18038918 -0.047662169 -0.010737585
0.19118397 -0.047926199 -0.018221365
0.20852661 -0.047622491 -0.01248215
0.23527086 -0.040490858 -0.019551208
0.25366348 -0.040519737 -0.013208579
0.033312201 -0.030618735 -0.017102716
0.26959109 -0.036442563 -0.014571313
-0.2737413 -0.022220716 -0.016494911
0.071764156 -0.026238833 -0.012326322
4.9410242e-05 -0.012144722 -0.01557851
0.037207749 -0.011290159 -0.017328005
0.27771097 -0.012172187 -0.015572184
0.28120452 -0.012755536 -0.014278494
-0.26339489 -0.0082696266 -0.010357358
-0.20754011 -0.0023553083 -0.0160009
-0.021875057 -0.0024157986 -0.011221824
-0.00081210298 -0.0075576203 -0.012600003
0.061771534 -0.0072241612 -0.015003717
0.24074124 -0.002378179 -0.017578308
0.25555852 -0.0079149455 -0.017698148
-0.18315408 0.0017761557 -0.01178283
-0.16817573 0.0021767279 -0.016536569
-0.15392686 0.0035508755 -0.017645799
-0.13761212 0.0072410177 -0.011640945
0.20434563 0.0046616714 -0.019252909
-0.00866473 0.015860057 -0.010988541
0.008512523 0.020343434 -0.014680386
0.059587561 0.028857192 -0.011460841
-0.25178272 0.034254532 -0.016665019
-0.23665465 0.033930581 -0.017575854
-0.19230972 0.036804087 -0.012742096
0.047410227 0.03397052 -0.011233479
0.23808439 -0.098268196 -0.0012041993
0.25205651 -0.096058778 -0.0058451849
-0.15881896 -0.050001536 -0.0053691897
-0.12133545 -0.052758597 -0.0061973631
0.0088166613 -0.055358186 -0.0063863434
0.1495432 -0.053449564 -0.003500083
-0.25311226 -0.041971251 -0.0012605927
-0.17812684 -0.048730966 -0.003325179
0.21546148 -0.048770078 -0.00013880449
-0.29502326 -0.037236508 -0.0019570542
-0.0042619379 -0.0308617 -0.0077176467
0.019943433 -0.030861698 -0.0081576193
0.052976198 -0.0308617 -0.0013401958
0.076172821 -0.0308617 -0.0014654651
0.28346249 -0.036452767 -0.0026761112
-0.035901099 -0.023395259 -0.0058820122
-0.00048593001 -0.020646341 -0.0050101476
0.08154285 -0.029938629 -0.0094198249
-0.14579046 -0.010438945 -0.00050653156
0.30135691 -0.018221477 -0.0054022875
-0.30010289 -0.0035481835 -0.00041985061
-0.27843213 -0.0092413928 -0.0044239089
-0.26649037 -0.0078596221 -0.0048118224
-0.14643425 -0.0088691041 -0.00063742127
-0.00081210304 -0.0084358668 -0.0044151931
0.085239135 -0.0053196419 -0.0081435228
0.24704975 -0.0036438941 -0.0076545388
0.25241888 -1.1722674e-05 -0.0011532209
0.26800144 -0.0077190576 -0.0092207827
-0.23372206 0.0052037174 -0.0085251695
-0.18167835 0.0030495704 -0.0045477981
-0.17617941 0.0036523803 -0.007769567
-0.16134578 0.0048633972 -0.0096074995
-0.00081210298 0.0061464603 -0.0010508695
0.0033239599 0.0092022037 -0.0072400505
0.083747238 0.0016032066 -0.0086994674
0.20402913 0.0081985081 -0.009039836
0.22269499 0.005425056 -0.0035973447
0.23313165 0.0026958592 -0.0092997439
-0.2880429 0.019296922 -0.0024473667
-0.065449439 0.015775289 -0.002371486
-0.044836335 0.018235773 -0.0056295646
-0.032866381 0.010193654 -0.0092888251
-0.016221803 0.015685895 -0.0011825461
0.08631134 0.017449312 -0.0066396734
0.090832606 0.01787743 -0.0051131863
0.10254222 0.017145086 -0.0096293306
0.18734199 0.010787467 -0.0084028561
-0.29395169 0.023511924 -0.001128814
-0.27080193 0.020869497 -0.0050356155
-0.19889854 0.028026087 -0.0052523222
-0.047532253 0.02094635 -0.0020835581
0.0021605343 0.021057829 -0.009662265
0.089066103 0.021580644 -0.0023578764
-0.28997442 0.039437525 -0.0014389162
-0.27380064 0.031094093 -0.0043293168
-0.26611111 0.035974361 -0.0067605544
-0.22863598 0.035791162 -1.9266e-07
-0.20347236 0.035118163 -0.0056477087
-0.19297522 0.033413164 -0.0036260455
-0.18993166 0.038769908 -1.9266e-07
0.022076575 0.037570875 -0.0033302605
0.042964332 0.038885344 -0.0053332169
0.054241613 0.033338774 -0.0099922279
-0.22376865 0.042416446 -0.0047157947
-0.19385645 0.048860159 -0.00067964027
-0.23239821 0.059237562 -0.0044748988
-0.29052708 0.06442076 -0.00054448657
-0.27331033 0.073207378 -0.0030663721
-0.26229692 0.074489117 -0.0038352711
0.25411692 -0.089487538 0.0049910401
-0.089406699 -0.05494098 0.008698645
-0.052932121 -0.056531377 0.0035572082
0.019140176 -0.055330779 0.0050319652
0.040664744 -0.055445407 0.00035641546
0.092102319 -0.054811716 0.0020600534
0.10362321 -0.054537222 0.0050289873
0.12571403 -0.05487933 0.0013287382
0.16399741 -0.052270859 0.0078100828
0.17542808 -0.052154616 0.0030144299
-0.2331419 -0.043685742 0.0061654737
-0.29185489 -0.034285821 0.0077852653
-0.28627869 -0.036613539 0.0062740929
-0.27949357 -0.038429692 0.0047634505
0.0090030143 -0.030861698 0.0032434999
0.039376032 -0.0308617 0.00029513595
0.056038219 -0.0308617 0.0049329465
0.066894844 -0.030861702 0.002258508
0.27460784 -0.038591761 0.0060217017
0.28344309 -0.036717109 0.00022318467
0.010373442 -0.024466326 0.0099597406
0.025996789 -0.027370805 0.0089949537
0.045650601 -0.024031654 0.00099179533
0.082301296 -0.02163058 0.0091955336
0.30062813 -0.025023842 0.0081239128
-0.19310281 -0.010239494 0.0074817045
-0.25071785 -0.0044920444 0.005787692
-0.24406971 -0.003531731 0.0080445502
-0.21232541 -0.00014184517 0.0018675005
-0.1673454 -0.00073875696 0.0044753482
-0.15470383 -0.0047751316 0.0022837939
-0.00048593001 -0.0036311159 0.0046618679
0.048475672 -0.0073346132 0.0096843001
0.050136834 -0.0060636885 0.0096843001
0.065407664 -0.0079811728 0.0096843001
0.086663619 -0.0021635445 0.0076127043
-0.24511975 0.0064091953 0.0079776431
-0.19665378 0.0016053251 0.0019920929
-0.18536538 0.00095699285 0.0067742728
-0.14549434 0.0024855814 0.0004460084
0.21150476 0.0076869568 0.0011767072
0.22033776 0.0049791387 0.0097597996
-0.28338075 0.019777467 0.0032053154
-0.26564342 0.017189205 0.00581339
-0.20550804 0.012979423 0.007597913
-0.15815845 0.01046462 0.0020632222
-0.11662355 0.010702951 0.0007329926
-0.096435681 0.012178359 0.0092761116
-0.062099263 0.015823599 0.0025916602
-0.033167798 0.018075654 0.008670155
-0.00081210298 0.01164897 0.0017647051
0.08523912 0.015881833 0.0081435349
0.14213413 0.015314328 0.0066805393
0.16414413 0.01321729 0.0067277243
-0.24360219 0.021054924 0.0073718424
-0.19735928 0.024015013 0.0055874442
-0.034971785 0.026063951 9.9165491e-06
0.0033239599 0.021672711 0.0014240288
0.084586866 0.023901679 0.0034908196
-0.25022361 0.035521276 0.0012046993
-0.23266272 0.033072833 0.0059883525
-0.21929881 0.031017235 0.0065634092
-0.19102211 0.036711149 0.0084412061
-0.010634548 0.031697843 0.0041384478
0.05835823 0.031995811 0.0095291566
-0.28765303 0.040304821 0.0018837363
-0.26482725 0.042058691 0.0050043664
-0.25558546 0.043953937 0.005638672
-0.20337456 0.044731136 0.0032290886
-0.26788953 0.057534095 0.0041468749
-0.2159836 0.052028973 0.0037545441
-0.2041133 0.057735737 0.00076728023
-0.24360025 0.07224983 0.0038031936
-0.10315441 -0.051638059 0.018962741
-0.08433874 -0.053462904 0.018023727
-0.063641347 -0.056076679 0.010182898
-0.017560933 -0.054647811 0.015022758
0.00034031458 -0.055060454 0.010957504
0.043302186 -0.053501755 0.01591754
0.10750737 -0.053633429 0.013866951
0.12652671 -0.052222181 0.018652724
0.1505174 -0.051960751 0.014094826
-0.18716076 -0.047251791 0.010228822
0.19642444 -0.048062071 0.015797544
-0.26373351 -0.033164583 0.01631875
0.03881494 -0.0308617 0.014698764
0.26199943 -0.038370647 0.014006302
0.27111021 -0.035966054 0.01458521
0.014072446 -0.024421502 0.015990054
0.0244174 -0.022345206 0.015779715
0.078421205 -0.029456362 0.010342967
-0.014053571 -0.010961708 0.012597358
0.001385057 -0.015108121 0.015702432
0.029009335 -0.015711498 0.016853865
0.29046395 -0.018258208 0.013904763
-0.20089433 -0.0012055575 0.014769519
0.065389797 -0.0018172722 0.014055673
0.23398456 -0.0018527041 0.019380238
0.24896322 -0.0079214554 0.017442044
0.2732546 -0.0070569497 0.011280298
-0.016126683 0.0020406325 0.012232768
0.0026392867 0.0089774914 0.015328877
0.070038296 0.0083003212 0.012855837
0.24049589 2.1495391e-05 0.012746414
-0.055972412 0.014302059 0.015670191
0.023418296 0.015521564 0.01713171
0.076081909 0.016015712 0.011879146
0.11748797 0.015555339 0.016271833
0.0056179431 0.02669269 0.012206363
0.02773927 0.022654541 0.015318368
0.039689168 0.029769797 0.013296549
-0.26217103 0.03993113 0.013114551
-0.10514215 -0.050804332 0.021264751
-0.0048663653 -0.051604792 0.024845844
0.059644964 -0.050748009 0.024563629
-0.032673098 -0.049830478 0.029447455
0.05459791 -0.049651526 0.027505158
0.10885941 -0.049746584 0.026627788
0.11788768 -0.048484366 0.028913196
0.12380645 -0.048134699 0.029524961
0.14737883 -0.049692731 0.022431733
0.15450442 -0.049268529 0.022190602
0.17747125 -0.045621276 0.024918094
0.18753766 -0.047481909 0.020258266
0.23104222 -0.040451027 0.020819519
-0.24192688 -0.035021231 0.02052043
-0.22320196 -0.034557693 0.026196167
0.26657313 -0.020567292 0.023804963
-0.24433784 -0.019704545 0.024060767
-0.23056161 -0.008250583 0.020283729
-0.20235267 -0.0075489813 0.026104322
-0.15899622 -0.0025269166 0.02872923
0.25358891 -0.0093876477 0.021889361
-0.15103279 0.0026858582 0.021267872
-0.098301224 0.005604241 0.029125899
-0.072372846 0.010395026 0.026764298
-0.023721123 0.012081599 0.025597643
0.076265737 0.014225405 0.024340337
0.13200717 0.012288628 0.024679568
-0.27458128 0.035875279 0.028528661
-0.26658624 0.039434902 0.021602523
-0.24895206 0.040230386 0.022150761
-0.10495298 -0.045152452 0.032908849
-0.089814648 -0.043410283 0.037299845
-0.071863502 -0.04816673 0.033397052
-0.021530604 -0.043815888 0.038905896
0.024375707 -0.045628503 0.03575626
0.073114671 -0.044437312 0.03669998
0.10282797 -0.042827465 0.038372293
0.12467327 -0.042606793 0.038411703
0.13431543 -0.045018401 0.033863276
0.15614264 -0.04332104 0.032750431
0.164781 -0.041989267 0.032775238
-0.14421937 -0.038759865 0.034378547
-0.13992439 -0.032138705 0.039846435
0.17185956 -0.035653841 0.037650727
0.18376999 -0.031119976 0.038021248
-0.17367625 -0.02306743 0.03814698
0.19441384 -0.022642421 0.038483221
-0.15640718 -0.01542243 0.03929355
-0.15251976 -0.0089023663 0.036293965
-0.13078347 -0.0068681524 0.038447615
0.17136979 -0.0069661513 0.039506167
-0.092858151 0.00073608803 0.03753747
-0.075318344 0.0074844733 0.031422582
-0.064734846 0.0040386985 0.038154017
-0.056139775 0.0060693454 0.035696782
-0.021340355 0.0035891766 0.039702591
-0.0024614986 0.005546038 0.03802513
0.029187132 0.0058381325 0.038477369
0.035424609 0.0089033525 0.034044217
0.070050254 0.0074497685 0.037712783
0.18090563 0.000553758 0.031640083
0.035377059 0.010929747 0.030282991
-0.24979688 0.039920408 0.031321891
-0.23149869 0.039993685 0.037555348
-0.11192755 -0.031764783 0.04378118
-0.040982265 -0.033172484 0.048185263
-0.018587582 -0.03785551 0.045289136
-0.0027824678 -0.039010502 0.043889504
0.013172656 -0.031266358 0.048983485
0.096190147 -0.039958294 0.041567497
-0.1307839 -0.025230629 0.043328404
-0.11937067 -0.022042371 0.045412678
-0.091623485 -0.026760237 0.048142426
-0.060444299 -0.021377511 0.047970407
-0.0026803075 -0.024274632 0.049628686
-0.10092166 -0.015114644 0.046843957
-0.094687626 -0.010344842 0.046065614
-0.027811117 -0.01624275 0.045096301
0.053781249 -0.014674805 0.045096301
0.13392977 -0.013579892 0.049196534
0.15886907 -0.01235964 0.044276737
0.16791053 -0.014656237 0.043006256
-0.038299583 -0.0095946584 0.049746066
0.020843383 -0.0012147548 0.045679018
-0.073287413 0.00022650161 0.041755486
-0.037981372 0.00059182348 0.042571217
0.063433617 0.00042884878 0.045220744
-0.27100614 0.03857822 0.040829923
-0.2634705 0.039091602 0.040936735
-0.24718121 0.039509334 0.046731528
-0.042977285 -0.022593491 0.050803371
-0.030480379 -0.023292312 0.056245334
-0.015298173 -0.023926262 0.051780239
-0.006443162 -0.024203487 0.055935398
0.028096735 -0.024450239 0.055224225
0.052554164 -0.02387365 0.057227023
-0.029820096 -0.015215294 0.052885447
-0.018178605 -0.014798727 0.058182355
0.00065247715 -0.014210997 0.057996336
0.017855994 -0.013717389 0.05039994
0.052556328 -0.014004394 0.059285715
0.092532605 -0.014479442 0.051452748
0.12540928 -0.014463649 0.050737873
-0.27804324 0.035936281 0.051813189
-0.22970438 0.039047524 0.05858127
-0.2145378 0.037668888 0.056765981
-0.035050437 -0.015874034 0.067412734
-0.012811475 -0.014784096 0.067951955
-0.0013067434 -0.014386371 0.063469343
0.016422911 -0.014101053 0.066067591
0.03486358 -0.013966457 0.066614769
-0.25258511 0.033968639 0.065134309
-0.229269 0.034787785 0.068174288
-0.046207588 -0.01708241 0.079175174
-0.035477687 -0.016188579 0.077994645
-0.025537951 -0.015566642 0.076038636
0.036385953 -0.014303459 0.079369508
0.050072342 -0.014520131 0.079460457
-0.27313024 0.037434913 0.079453088
-0.26979867 0.037809689 0.075565115
-0.23373064 0.038309701 0.075235218
-0.22637942 0.035398088 0.077992551
-0.0045176814 -0.10181972 0.081813402
0.016119279 -0.08197397 0.084776871
-0.02355253 -0.02360991 0.082357541
0.046723641 -0.023952162 0.088706538
0.083518982 -0.02192039 0.084485069
0.052918952 -0.014719228 0.081965402
0.064324617 -0.015514798 0.088280462
0.077188462 -0.01669568 0.086636737
-0.27592686 0.036280826 0.086505622
-0.2625947 0.0379337 0.083697379
-0.24572515 0.038126193 0.0857784
0.0090194438 -0.098609626 0.093533702
-0.04792653 -0.022137566 0.09528058
-0.0015538491 -0.024331152 0.097860485
0.049109586 -0.023857839 0.091704123
0.06456092 -0.023108823 0.092737339
0.081620961 -0.021864098 0.097213313
-0.0065589398 -0.015244802 0.094695494
0.042717725 -0.014772424 0.09401527
0.054794904 -0.015175534 0.094159618
0.0047903522 -0.032402974 0.10883126
0.019250946 -0.024486506 0.10815409
0.030362945 -0.0243493 0.1071137
0.055996239 -0.023464512 0.10561373
0.0049399962 -0.015155643 0.10339128
-0.2748093 0.034871325 0.10376142
-0.25431415 0.034665138 0.10856417
-0.23507874 0.035707988 0.10330686
-0.061124705 -0.05120033 0.11926536
0.018556274 -0.051914819 0.11443674
0.053979196 -0.055010896 0.11599717
0.063961267 -0.054973692 0.11646356
0.09484084 -0.058916997 0.1199659
-0.055241048 -0.044136301 0.1169074
0.064424373 -0.049406186 0.11418011
0.0728001 -0.040623639 0.11395926
0.084598072 -0.045769144 0.11512882
-0.0089885807 -0.030367987 0.11493957
0.0039917873 -0.035850208 0.11301416
0.081883118 -0.032175437 0.11670463
0.098550975 -0.037117321 0.11655509
-0.031595703 -0.024432493 0.11914289
-0.01287783 -0.024496369 0.11292094
0.027069926 -0.023454554 0.11655936
0.0787187 -0.021452084 0.11683466
0.029893082 -0.015100297 0.11892863
0.03309055 -0.019017484 0.11962174
0.075677447 -0.01825803 0.11791454
-0.066342115 -0.06158188 0.12655884
-0.052307621 -0.065102585 0.12782507
-0.035242841 -0.063785069 0.12314235
0.0069253705 -0.062037937 0.12087122
0.090850115 -0.0664111 0.12708688
0.10385429 -0.065312386 0.12596519
-0.06069475 -0.056275301 0.12128563
0.1168606 -0.055461407 0.12181917
-0.090966552 -0.040218443 0.12644649
-0.086243555 -0.042157069 0.12369179
-0.089607701 -0.038798023 0.12912324
-0.051067751 -0.021073196 0.12741517
-0.048467487 -0.020481203 0.12659775
-0.010413546 -0.023891183 0.12025019
-0.0045607584 -0.021912374 0.12250146
0.060382411 -0.022154931 0.12763259
-0.025210507 -0.018181272 0.12316686
0.066263564 -0.019851137 0.12271114
0.037878335 -0.071297243 0.13879037
0.093572073 -0.071183212 0.137924
0.11866386 -0.067227028 0.13526048
0.12589273 -0.063435823 0.13183373
0.13315031 -0.064428635 0.13827023
-0.089607701 -0.053058192 0.13664696
-0.089607701 -0.035837665 0.13344498
-0.033118695 -0.02207078 0.13106416
0.12286937 -0.024495458 0.1364819
0.13139352 -0.027153961 0.13805978
-0.014606396 -0.014676352 0.1377473
0.022833342 -0.014264138 0.13345172
0.040836502 -0.014174709 0.13953869
0.10777858 -0.019076779 0.13541055
-0.0090588275 -0.071918383 0.14353497
0.0017847437 -0.071076676 0.14992918
0.010635719 -0.071484074 0.14683431
0.10372724 -0.071606204 0.14113738
-0.089607701 -0.062444359 0.14214224
-0.10966434 -0.045483112 0.1440226
0.13649338 -0.035127565 0.14796001
-0.093417838 -0.02936776 0.14430618
-0.075004816 -0.022443492 0.14109042
0.009592629 -0.022450581 0.14329158
0.049160913 -0.021439083 0.14261213
0.12127712 -0.022719247 0.14420722
-0.027019437 -0.011788147 0.14024945
-0.015662232 -0.011140248 0.14031066
0.00035231072 -0.014100573 0.14045328
0.054368809 -0.010053183 0.14077586
0.073714212 -0.015411666 0.1438641
0.099001475 -0.016974371 0.14917926
-0.0087630423 -0.070951752 0.15087807
0.022183515 -0.071020149 0.15035868
-0.097600199 -0.062550046 0.15126112
-0.081580199 -0.064749412 0.15155667
0.01126573 -0.069208108 0.15560681
0.051715471 -0.068630747 0.15699181
0.066078767 -0.06987796 0.15379475
-0.09091261 -0.058722913 0.15789574
0.13615701 -0.045883164 0.15117159
-0.096109182 -0.03482962 0.15742949
-0.089614406 -0.033051223 0.15242058
-0.074467123 -0.026370287 0.15656665
-0.039237715 -0.020290283 0.15024823
-0.048313819 -0.015387937 0.15042767
-0.036103237 -0.014131554 0.15428561
0.011439964 -0.013144236 0.15332437
0.04108768 -0.011553095 0.15837896
0.057060748 -0.014646839 0.15611285
0.062315337 -0.01358129 0.15549365
0.070263878 -0.015011132 0.15603188
0.086349696 -0.017793417 0.1568235
0.11087149 -0.019802928 0.15048584
0.040550463 -0.06280788 0.16585182
0.0059766746 -0.059465624 0.16813396
0.087067172 -0.054292612 0.16974765
-0.089843124 -0.04795054 0.16079684
-0.07262405 -0.041848131 0.16628632
-0.075426474 -0.034009997 0.16324645
0.12875654 -0.035259195 0.16099556
0.088549912 -0.028808389 0.16815022
0.09382394 -0.02468342 0.16420537
0.11247082 -0.029482421 0.16357718
-0.042922482 -0.018909954 0.16577868
-0.037697177 -0.013989192 0.16802759
-0.0060199709 -0.012887294 0.16210136
0.014673748 -0.012506818 0.16332221
0.036532663 -0.019770345 0.16815233
0.054518316 -0.014007317 0.16902232
0.066284813 -0.018835744 0.16300519
-0.044060677 -0.05119627 0.17103715
-0.027311536 -0.054038972 0.17087652
-0.0045127533 -0.050841797 0.17262416
0.0083889607 -0.050558075 0.17298114
0.023094647 -0.053174667 0.17217016
0.071378469 -0.054380868 0.17046815
-0.043742441 -0.042022474 0.17261595
-0.0029098969 -0.046210527 0.17379168
0.029070038 -0.042634219 0.17504476
0.045222811 -0.046621121 0.17445283
-0.04672439 -0.033919245 0.17054924
0.0043800343 -0.038854212 0.17443822
0.021329034 -0.03621139 0.17463067
-0.014633342 -0.029652035 0.17157231
0.010898609 -0.02960016 0.17262062
-0.0016465881 -0.012019833 0.17393732
0.022548145 -0.019994669 0.17141709
0.060702324 -0.017283384 0.17352194
-0.043586351 -0.013413776 0.18399931
0.015470391 -0.01908784 0.18417305
-0.050115839 -0.015896877 0.19930884
-0.045589905 -0.015336524 0.19546409
-0.010302967 -0.010579424 0.199673
0.022963686 -0.010416818 0.19954459
0.051589444 -0.013225123 0.19440536
-0.035681609 -0.011177731 0.20496461
-0.012004796 -0.010232784 0.20432356
0.0076351743 -0.017812913 0.20074543
-0.048981108 -0.011793776 0.21301103
-0.043771137 -0.011432673 0.22503056
-0.031604655 -0.01511836 0.22166745
-0.0083535165 -0.015891811 0.22051021
0.0037632582 -0.015128549 0.22796337
0.042102847 -0.01385875 0.22268392
-0.023442235 -0.0085985893 0.22734334
-0.054466262 -0.010532551 0.2378462
-0.03877835 -0.0086058471 0.23622987
0.003162472 -0.0076607219 0.2328251
0.034452308 -0.0091904309 0.23299903
-0.022538811 -0.013346449 0.24472992
-0.037815936 -0.0077240854 0.24540122
-0.001154043 -0.0070164804 0.24120972
0.026736263 -0.0075749615 0.24634448
-0.0077971704 -0.012046466 0.25986943
-0.0017040477 -0.0062393481 0.25083697
-0.011898177 -0.011963978 0.2608332
0.016281508 -0.010922358 0.26382643
-0.022059202 -0.0056565851 0.26177752
-0.034912631 -0.010377128 0.2720353
-0.012515293 -0.010989887 0.2708388
-0.0054655927 -0.010321517 0.27688012
-0.043772414 -0.0095447861 0.2759583
-0.0071765329 -0.0046116211 0.27145121
0.021068692 -0.0054887491 0.27347776
0.030243829 -0.0082607092 0.27307793
-0.011449264 -0.0037279411 0.28278029
-0.0059338445 -0.0095444452 0.28457335
-0.054275535 -0.0069981711 0.29618061
-0.044221051 -0.0076442943 0.29686689
-0.028277632 -0.0033575329 0.29101771
-0.0041480996 -0.0053160656 0.29806396
0.013649125 -0.0076256436 0.29469532
0.010368205 -0.0029844516 0.30077487
-0.042364921 -0.0018593426 0.31516442
-0.021702018 -0.0037491168 0.31670317
-0.017919302 -0.0010032752 0.31700531
-0.0060985438 -0.00086786953 0.31922102
-0.052463621 -0.00418864 0.32954863
-0.0013828918 -0.00039415935 0.32868814
0.010618134 -0.0041021132 0.32706788
-0.050246581 -0.003814911 0.33532593
-0.045138899 -0.0042466456 0.33386371
-0.031588133 -2.8107082e-05 0.33154488
-0.025779601 -0.0037443254 0.3446897
-0.021384254 0.00090184109 0.34082615
-0.022156207 -0.0026151948 0.35569528
-0.014973425 -0.0028742333 0.35143101
0.003151387 -4.7944195e-06 0.3595404
-0.054375451 0.00071134255 0.35363573
-0.026068725 0.0016743186 0.35083634
-0.011608955 0.0021053385 0.35829157
-0.04046993 -0.0018730315 0.36193949
-5.2479329e-05 -0.00053401903 0.36442915
0.0018765486 0.00064395205 0.36039117
-0.021376226 -0.00092523993 0.37203297
-0.044029623 0.0029053818 0.37082046
