# .PCD v0.7 - Point Cloud Data file format
VERSION 0.7
FIELDS x y z
SIZE 4 4 4
TYPE F F F
COUNT 1 1 1
WIDTH 831
HEIGHT 1
VIEWPOINT 0 0 0 1 0 0 0
POINTS 831
DATA ascii
-0.16841795 -0.021350697 -0.33390129
-0.15545815 -0.021271082 -0.33594781
-0.14307237 -0.020837214 -0.33599484
-0.15851939 -0.017043926 -0.33680648
-0.14726542 -0.019911939 -0.33807451
-0.14924216 -0.023272762 -0.32854587
-0.13214207 -0.022427717 -0.32428581
-0.1250028 -0.024473462 -0.32212836
-0.12126528 -0.023792984 -0.30594191
-0.11737031 -0.028268015 -0.30534521
-0.13668182 -0.028638491 -0.29891938
-0.12202907 -0.030196436 -0.28283358
-0.097802766 -0.025725352 -0.278988
-0.0060223918 -0.060307723 -0.26074082
-0.09938065 -0.027615286 -0.26586947
-0.076343887 -0.027443685 -0.26072085
-0.010640282 -0.070444748 -0.25388592
-0.054617226 -0.06102014 -0.25297257
-0.033439863 -0.068536945 -0.25410146
-0.006869182 -0.065145917 -0.25739819
-0.022324217 -0.052126326 -0.25928727
-0.054194923 -0.049691252 -0.25007755
-0.030201925 -0.043425307 -0.25175634
-0.027871722 -0.045884114 -0.2549901
-0.0025441416 -0.047849115 -0.25735137
-0.072802275 -0.033001997 -0.25506815
-0.065586247 -0.032948337 -0.25175068
-0.08158315 -0.028108828 -0.25261056
-0.053360462 -0.070912831 -0.24435191
-0.0063491436 -0.072336212 -0.24937293
-0.067047253 -0.058498494 -0.24253698
-0.055629931 -0.047429197 -0.24457371
-0.0061712763 -0.042783078 -0.24676041
-0.10636459 -0.032704506 -0.24456756
-0.095246524 -0.033402715 -0.24921149
-0.081787966 -0.033680715 -0.24800426
-0.065265052 -0.03377771 -0.24607523
-0.055464473 -0.030983977 -0.24152291
-0.024571192 -0.037571378 -0.24487911
-0.018188441 -0.037221622 -0.24268539
-0.076181285 -0.029027153 -0.24290523
-0.0095895641 -0.071004145 -0.23657979
-0.071581647 -0.060515709 -0.23771513
-0.020326171 -0.069051392 -0.23137692
-0.0019655838 -0.064850844 -0.23396741
-0.010195845 -0.057045259 -0.23048268
-0.053474169 -0.043094397 -0.23496081
-0.10109244 -0.035277184 -0.23160677
-0.095677495 -0.034928568 -0.23187752
-0.084098302 -0.03594096 -0.23337799
-0.063887164 -0.034292698 -0.23496056
-0.047990464 -0.034956668 -0.23138478
-0.070601001 -0.029854929 -0.23471795
-0.043719415 -0.068904355 -0.22914717
-0.050480112 -0.053463563 -0.22460161
-0.08236789 -0.035727512 -0.22584985
-0.053185221 -0.033410937 -0.22366276
-0.047382642 -0.032706887 -0.22554812
-0.098435596 -0.039743666 -0.21138144
-0.075441778 -0.037218709 -0.21676719
-0.065213576 -0.037172113 -0.21380009
-0.055452578 -0.036890112 -0.21904692
-0.035005581 -0.035128191 -0.21477997
-0.044417948 -0.035294697 -0.20496689
-0.038433209 -0.034904435 -0.20552924
-0.084325708 -0.038512696 -0.19565667
-0.074536979 -0.037557263 -0.19243875
-0.035617672 -0.039720654 -0.19243962
-0.015755855 -0.036805648 -0.19511923
-0.045047272 -0.040243339 -0.1856814
-0.022540325 -0.040908433 -0.18237448
-0.051081542 -0.035305567 -0.18570702
-0.046637878 -0.035109565 -0.18363692
-0.052280769 -0.045494441 -0.17396109
-0.049144164 -0.042795461 -0.17380093
-0.05199011 -0.037928846 -0.17617519
-0.038605191 -0.036151975 -0.17166837
-0.05686998 -0.041950919 -0.16651499
-0.034409896 -0.042774778 -0.16158698
-0.029969551 -0.04228764 -0.16721857
-0.004945511 -0.03478419 -0.16038829
0.0077486951 -0.036060654 -0.16358474
0.0839388 -0.066763915 -0.15196113
-0.05392874 -0.043485064 -0.15147325
-0.026215741 -0.043657962 -0.15386832
0.060813375 -0.081172265 -0.14321318
0.045319218 -0.076389849 -0.14414258
0.075753942 -0.073573492 -0.14860888
0.046061046 -0.067669638 -0.14706635
0.057529602 -0.067993395 -0.1497664
0.075527668 -0.067913994 -0.14919935
-0.042113759 -0.050461866 -0.1403504
0.068437956 -0.057040296 -0.14765449
0.071901828 -0.05263555 -0.14264867
0.084082022 -0.051891554 -0.14032212
-0.040716685 -0.04149662 -0.14291877
-0.023921333 -0.04358932 -0.14237238
-0.009102474 -0.044316567 -0.14979982
0.01811352 -0.045311861 -0.14227813
-0.036669962 -0.039908499 -0.14813861
-0.027772635 -0.038620785 -0.14926679
0.012194021 -0.036018252 -0.14060643
0.027343171 -0.039875053 -0.14484991
0.086304948 -0.082019635 -0.13008937
-0.06120339 -0.052069578 -0.13500381
-0.056057736 -0.051235519 -0.1379654
-0.047294579 -0.050646394 -0.13966402
0.041808069 -0.056150943 -0.13553543
-0.030285757 -0.044979177 -0.13981722
-0.025825489 -0.040405329 -0.13734311
0.0020212512 -0.046177145 -0.13259767
0.026583049 -0.046405859 -0.13227221
0.036159527 -0.045946505 -0.13259585
0.020347353 -0.035943303 -0.13935918
0.077128418 -0.080319457 -0.12487915
0.032369807 -0.07508193 -0.12549461
0.078452125 -0.071103692 -0.12914327
0.080760606 -0.07742174 -0.12577441
0.030341951 -0.06308946 -0.12442541
0.094201632 -0.067891501 -0.12376858
0.016195694 -0.053936962 -0.1273881
0.077850036 -0.056520462 -0.12327354
0.086435623 -0.05678742 -0.1252435
-0.011489325 -0.04603003 -0.12273034
0.0039541526 -0.048839793 -0.12193148
0.013394756 -0.046746593 -0.12872906
0.043971613 -0.0723252 -0.11881129
0.053410124 -0.067461416 -0.1160017
-0.029622328 -0.048023663 -0.11235648
0.015212943 -0.048448004 -0.11892686
0.033541262 -0.049562961 -0.11624681
0.03100498 -0.038616143 -0.11080855
0.041965257 -0.0381511 -0.11892355
-0.019409567 -0.052648231 -0.10340513
-0.0044232034 -0.052507646 -0.10359763
0.024582848 -0.051697128 -0.10436161
-0.033017565 -0.047587954 -0.10479718
-0.019667033 -0.049264818 -0.10508726
-0.0095771281 -0.043722395 -0.10585643
0.0064145415 -0.042536005 -0.10076016
0.045856852 -0.049970858 -0.10934404
0.00088686915 -0.092102736 -0.090489596
0.014140578 -0.083790205 -0.092498772
-0.0037404415 -0.060605101 -0.092500441
0.0046373168 -0.067300811 -0.095075719
-0.034294572 -0.050112501 -0.09765628
-0.02048756 -0.050554864 -0.096539438
-0.015270067 -0.053784102 -0.099316999
0.0010433272 -0.052414827 -0.091914237
0.011865076 -0.053545594 -0.093307145
0.029794654 -0.052929305 -0.099092372
0.0346912 -0.054369997 -0.092747852
0.066570967 -0.051785193 -0.091487795
0.0060329232 -0.042865511 -0.098927096
0.033672743 -0.040589407 -0.094838776
0.067988642 -0.049382824 -0.096852474
0.054868165 -0.038812492 -0.097791456
0.060367513 -0.039230131 -0.091648303
0.29293117 -0.036699213 -0.090553373
0.0046675568 -0.095259421 -0.085790552
0.014435823 -0.0908788 -0.081318326
-0.014613248 -0.082359567 -0.082796529
-0.003054955 -0.085430354 -0.084107168
0.0024627305 -0.080742076 -0.085410997
-0.025266942 -0.051534809 -0.081085458
0.024781372 -0.055211131 -0.087085262
0.20978525 -0.050980113 -0.080621146
0.24225743 -0.051995754 -0.084808715
0.28041914 -0.054014575 -0.083448172
0.0068135429 -0.044975333 -0.086098626
0.010375179 -0.045133229 -0.081849627
0.027349558 -0.04210398 -0.088828817
0.03808701 -0.041477136 -0.085255459
0.22374845 -0.043461576 -0.086327478
0.24040696 -0.041434877 -0.089718349
0.29530984 -0.044004217 -0.088561103
0.30393866 -0.043921769 -0.087158352
0.18037888 -0.034776159 -0.08134912
0.23571858 -0.03027267 -0.089818485
0.31397367 -0.039772399 -0.086920045
0.33673549 -0.033670072 -0.081367247
0.23953645 -0.02193483 -0.088756725
0.28130391 -0.020025078 -0.088751182
0.29591045 -0.020816814 -0.087838545
0.31258336 -0.023846107 -0.083686784
0.21410686 -0.019665908 -0.083888441
0.28093573 -0.019674733 -0.088621035
0.29097244 -0.016361084 -0.085986026
0.30226249 -0.013127105 -0.081014827
0.015607895 -0.093354851 -0.078200996
-0.0093422029 -0.082509883 -0.079070963
0.0059599169 -0.088383831 -0.074803002
-0.014984241 -0.05099437 -0.070682839
0.015608536 -0.056627482 -0.07636825
0.04572713 -0.057544477 -0.078805894
0.066356331 -0.057718061 -0.079828799
0.078118891 -0.055125937 -0.075395174
0.10710708 -0.050686125 -0.070542037
0.11895438 -0.051652677 -0.070945978
0.15920939 -0.054230273 -0.070342869
0.17651588 -0.053725872 -0.073387951
0.21774323 -0.055748489 -0.078153417
0.23981644 -0.059119474 -0.077757657
0.29734564 -0.057998259 -0.075781718
0.31292519 -0.055531185 -0.074674286
0.3210876 -0.055036813 -0.070344165
0.00776543 -0.046500273 -0.076462522
0.01636612 -0.045111176 -0.076351568
0.033814762 -0.043395303 -0.074855663
0.096034244 -0.046183538 -0.073185608
0.138092 -0.04855255 -0.071059927
0.1499916 -0.048823006 -0.072772644
0.15105037 -0.048353266 -0.073130354
0.11518415 -0.035487603 -0.071257517
0.12795284 -0.032112595 -0.073517755
0.15788618 -0.02298199 -0.076662332
0.16592859 -0.013421129 -0.073118225
0.18148556 -0.011157421 -0.073730767
0.29824167 -0.010629631 -0.079436012
0.32038805 -0.014513294 -0.072333261
-0.34332666 -0.0007513655 -0.074096829
0.18934526 -0.0080882916 -0.072370976
0.2218554 -0.007867571 -0.077073917
0.2333312 -0.0057338392 -0.076008327
0.2439681 -0.0043132752 -0.075666986
0.25297019 -0.0030667121 -0.07378567
0.26031181 -0.0046603666 -0.076462172
0.27195609 -0.0055680024 -0.077070475
0.28268558 -0.0067451261 -0.077858828
0.29778978 -0.009059919 -0.07760746
0.26397189 -0.089420952 -0.060528927
0.16622566 -0.063193575 -0.060213704
0.18738094 -0.061895508 -0.065279238
0.23521996 -0.065855585 -0.064224951
0.27551782 -0.063920408 -0.061948542
-0.020235172 -0.053229414 -0.064156681
-0.012816394 -0.053550974 -0.066059329
0.0079127233 -0.056848995 -0.066893004
0.027480094 -0.058856804 -0.062616527
0.083567895 -0.058252621 -0.067259409
0.099123128 -0.055056356 -0.068910614
0.12237179 -0.056008771 -0.063315384
0.13525462 -0.059676886 -0.067206971
0.15339614 -0.054203726 -0.069471799
0.3203139 -0.054862522 -0.062641628
-3.5135221e-05 -0.049279012 -0.067855537
0.027345175 -0.044943299 -0.06871821
0.067801893 -0.040349066 -0.065207705
0.079219855 -0.046661973 -0.067885444
0.042409834 -0.032734808 -0.060451455
0.065163687 -0.035308633 -0.063608475
0.092591807 -0.037893996 -0.068137154
0.052061833 -0.024323639 -0.060827985
0.071201272 -0.022154093 -0.063016698
0.086212032 -0.023581244 -0.065922044
0.10761052 -0.02322926 -0.069055401
0.33603227 -0.026996907 -0.062530845
0.10340605 -0.018024486 -0.0662117
0.11011669 -0.016299818 -0.066512205
0.1254058 -0.018211497 -0.06966497
0.32390717 -0.017220089 -0.062319294
-0.34038574 -0.0024695876 -0.065679856
-0.3108733 -0.0031284178 -0.061070748
0.14086704 -0.0078885611 -0.064671367
0.29964042 -0.0053269248 -0.067273706
0.22887918 0.00070737529 -0.061259452
0.23518589 0.00063887134 -0.062732808
0.2713519 -0.087958038 -0.059009992
0.039168049 -0.071273357 -0.05177635
0.26599938 -0.078103863 -0.058325417
0.27173972 -0.071817212 -0.055486679
-0.026821632 -0.060247522 -0.052098587
0.047783595 -0.065006822 -0.059956439
0.09327621 -0.061508276 -0.052139055
0.10652046 -0.067817628 -0.056613352
0.11533865 -0.067432061 -0.056921773
0.12469549 -0.067450248 -0.055258319
0.15030804 -0.064275868 -0.058234066
0.19629773 -0.066841535 -0.050768714
0.2146486 -0.066959344 -0.051864792
0.25015426 -0.06669683 -0.057333909
0.26718909 -0.067533366 -0.054702319
0.28223738 -0.061380673 -0.052821431
-0.021657327 -0.054145291 -0.05436524
-0.014648205 -0.051761009 -0.054765195
0.012628851 -0.059477463 -0.058071475
0.020130187 -0.052605905 -0.050269127
0.066823527 -0.059065349 -0.051272888
0.083434224 -0.058491468 -0.05457028
0.090230212 -0.058050685 -0.056188423
0.10339515 -0.058491133 -0.057632282
-0.026460465 -0.04611773 -0.051280878
-0.00057607959 -0.041234992 -0.055131409
0.017777488 -0.048481748 -0.059317939
0.037332159 -0.040380243 -0.058684036
0.049822781 -0.043656178 -0.059557062
0.31701091 -0.046951879 -0.050630741
-0.016195975 -0.029177465 -0.051012702
0.044696197 -0.022672759 -0.059170574
-0.31087404 -0.0011729986 -0.058105733
-0.30787778 -0.001578212 -0.058862247
0.10575942 -0.0055123717 -0.056146398
0.11164913 -0.004622607 -0.055873927
0.12053574 -0.0047209007 -0.057366852
0.1420877 -0.0012056598 -0.054046437
0.17589141 -0.0014942194 -0.059941594
0.19821098 0.00075187697 -0.056260586
0.23578611 0.0012169045 -0.052510157
-0.0014828151 -0.071596757 -0.040869348
0.041193046 -0.071323261 -0.048777401
0.066090368 -0.070979148 -0.041500002
0.072481722 -0.070764914 -0.043522559
0.094620064 -0.070167631 -0.047596015
-0.051238146 -0.065855607 -0.041877545
-0.0265046 -0.067887485 -0.049337618
0.028615747 -0.06279435 -0.04007446
0.11655474 -0.067882851 -0.044043768
0.12563841 -0.06570904 -0.047894202
0.13614085 -0.066643164 -0.043044675
0.16956012 -0.066829629 -0.043919738
0.21160012 -0.066411197 -0.047046907
-0.034623362 -0.053279731 -0.041349247
0.26348883 -0.059864275 -0.040962171
-0.041999675 -0.042918205 -0.045780189
-0.037062921 -0.04016408 -0.047301255
-0.014498398 -0.043671213 -0.04968524
0.30151162 -0.042642973 -0.04076067
-0.065877639 -0.038663119 -0.043075759
-0.032118686 -0.012780774 -0.042240106
-0.02085942 -0.015063888 -0.045755878
0.3027074 -0.012582684 -0.049235605
-0.32404083 -0.0063059554 -0.049026702
-0.31646976 -0.0026212689 -0.046778094
-0.30833453 -0.006889855 -0.049334496
-0.29172665 -0.0075052143 -0.043564692
0.016852686 -0.0050459201 -0.04189349
0.058756839 -0.0021198832 -0.043515779
0.07294973 -0.0029986014 -0.047002289
0.14637724 0.0015192076 -0.041028738
0.17500785 0.00083604467 -0.040231165
0.044641431 -0.071702078 -0.034589272
0.10483253 -0.070232376 -0.032265153
-0.0059379786 -0.062206738 -0.036009312
0.0013593696 -0.063180529 -0.034958273
0.012404206 -0.06484361 -0.032623023
0.063761652 -0.066587381 -0.032365762
0.084420167 -0.067011133 -0.032301549
0.10823138 -0.066686362 -0.033376198
0.11629283 -0.068160266 -0.032628238
0.12540162 -0.067939937 -0.034692999
0.14552838 -0.065946922 -0.034337264
0.16344416 -0.065897465 -0.035583697
0.1946426 -0.065404311 -0.0390516
0.22671285 -0.060818154 -0.034577176
-0.093605116 -0.053427756 -0.032195799
-0.088797942 -0.054645397 -0.031982385
-0.063168608 -0.056006297 -0.03485943
-0.018316656 -0.059939448 -0.037072398
0.25783995 -0.050742213 -0.030330436
-0.10903317 -0.045063775 -0.03341978
0.27354342 -0.045709655 -0.032276139
-0.14039277 -0.032926369 -0.030487051
-0.11421917 -0.036245719 -0.035688937
-0.1059524 -0.032266542 -0.035323963
-0.12587912 -0.024234634 -0.032733202
-0.09550862 -0.011571791 -0.031578254
0.24405096 -0.010580118 -0.030513279
0.27583918 -0.014351977 -0.036089454
-0.28493109 -0.0050564362 -0.033550516
-0.066680118 -0.0063010938 -0.030739959
-0.045230333 -0.0039150063 -0.030876737
0.16822489 -0.00088010664 -0.032845184
0.17886965 -0.00076789228 -0.034749724
0.24960661 -0.0048064766 -0.03788425
0.047238898 0.00095054676 -0.031532045
0.06964577 0.00078214041 -0.036301747
0.098319814 0.0014706157 -0.033288613
0.10528271 0.00099874835 -0.030772531
0.13174088 0.00050027348 -0.031044627
0.16769117 0.00071718148 -0.038206112
-0.013943927 -0.093451649 -0.022526134
-0.0087955948 -0.088145465 -0.02484831
0.0050715506 -0.084884822 -0.02577582
-0.015703732 -0.071057908 -0.025966376
-0.0003898085 -0.076327518 -0.020037141
0.078504786 -0.070895031 -0.021728467
0.088226736 -0.070701689 -0.029749777
-0.081282608 -0.063331611 -0.021916676
-0.062858365 -0.0638358 -0.023521032
-0.043608543 -0.066337481 -0.023994304
-0.036649212 -0.068701461 -0.02542446
-0.023423176 -0.065439291 -0.025684671
0.022253785 -0.066289939 -0.028252508
0.061577141 -0.066125631 -0.021770291
0.098360986 -0.066391297 -0.029520577
0.13812514 -0.065197468 -0.029873863
0.14177275 -0.067570433 -0.027349241
-0.11127222 -0.05791907 -0.024947913
-0.069331862 -0.059903227 -0.028219108
-0.16758713 -0.042351555 -0.021153374
-0.1360558 -0.049340423 -0.025108699
0.22634877 -0.049702719 -0.023861414
0.23963866 -0.045791239 -0.024255484
0.24208921 -0.044948861 -0.024276908
0.26580977 -0.0438281 -0.02917967
-0.16245428 -0.036602639 -0.025120039
0.23844519 -0.034577601 -0.021375433
0.26204205 -0.028702125 -0.026525941
-0.16034852 -0.013320478 -0.022473797
-0.14819661 -0.012580775 -0.023879426
-0.12375605 -0.010709844 -0.02630036
0.24640545 -0.015072261 -0.027407557
-0.31732911 -0.0070157335 -0.027374126
-0.1345965 -0.0087965922 -0.023013959
-0.11985891 -0.0090861041 -0.025736153
-0.086603858 -0.0025518232 -0.022283746
-0.074599512 -0.001345753 -0.021155894
-0.057508834 -0.0032114778 -0.028063765
0.16603774 -0.0032103877 -0.027054911
0.19875072 -0.0050229947 -0.029704841
0.2081148 -0.0063397726 -0.029420936
-0.032777801 0.00052187883 -0.022652023
-0.0078953654 0.00047696993 -0.026823936
0.016838755 0.0011993707 -0.023988478
0.065896943 0.0014400817 -0.028523754
0.082358852 0.0010851482 -0.027912717
0.11129971 0.00042541721 -0.027374076
0.12789157 0.00033383199 -0.029599939
-0.0071244594 -0.08890605 -0.017703997
0.0073582944 -0.086917818 -0.015316897
-0.0043503884 -0.074645609 -0.016534422
0.0062309098 -0.072037697 -0.013384679
0.017301926 -0.072069757 -0.018254472
0.032951303 -0.071787052 -0.010167121
0.048119593 -0.071711496 -0.017416146
0.052246321 -0.071507499 -0.012976149
0.06690374 -0.071119279 -0.015360245
0.081390113 -0.070641883 -0.012658507
-0.11036704 -0.06251765 -0.018709395
-0.10775511 -0.063743934 -0.016428435
-0.069447786 -0.065610953 -0.018209543
-0.038771331 -0.067324549 -0.017230514
0.085337393 -0.06294398 -0.016552981
0.10563239 -0.067971557 -0.013100162
-0.14136472 -0.057768278 -0.013224714
0.090095952 -0.058150157 -0.010086978
0.10875331 -0.058339413 -0.013198731
0.11600672 -0.059653245 -0.016047608
0.14006752 -0.05170558 -0.012099052
-0.18523137 -0.044671088 -0.013563646
0.17599811 -0.046125323 -0.014618627
-0.19927835 -0.039006483 -0.012309222
0.16847563 -0.031490397 -0.010560809
0.18391882 -0.031427816 -0.012937535
0.19308597 -0.033120554 -0.014205601
-0.21474767 -0.020311289 -0.011790525
-0.20082273 -0.026201513 -0.016400423
-0.19883841 -0.025117306 -0.017222334
-0.10621837 -0.023549683 -0.015064723
0.17255065 -0.025230836 -0.011992935
-0.30430374 -0.010805098 -0.015976638
-0.19295061 -0.017944865 -0.017782252
0.13201177 -0.010397452 -0.013444953
0.15925892 -0.014317303 -0.014588182
0.17448117 -0.01452165 -0.016764797
-0.16494426 -0.0032764622 -0.011263034
-0.14280739 -0.0044545452 -0.016498545
-0.10780339 -0.0042256527 -0.013484193
0.054732416 -0.00024577568 -0.016974686
0.10962749 -0.0067218062 -0.013816179
0.12156504 -0.0060423482 -0.016534686
-0.013218435 0.0012174051 -0.014257665
-0.0011211857 0.0010306736 -0.014694883
0.010205623 0.0011247701 -0.017146839
0.029183406 0.00051885645 -0.015455662
-0.017478241 -0.086365335 -0.009186184
0.0049624378 -0.071847737 -0.0042558387
-0.12928356 -0.063266583 -0.00012826794
-0.1156501 -0.06443686 -0.0091865826
-0.068479791 -0.066433191 -0.0042632949
-0.059665997 -0.066745818 -0.0080962107
-0.10402356 -0.056492217 -0.0007559089
0.057827987 -0.058425844 -0.0055021206
0.076822877 -0.055769175 -0.0055827112
0.11306273 -0.0527303 -0.0087600145
0.12294981 -0.050520375 -0.0085448911
-0.19083333 -0.049735259 -0.0032160943
-0.18761756 -0.047915276 -0.008614176
-0.10490973 -0.047745261 -0.0065339096
0.098912619 -0.049856599 -0.0043716831
0.11479428 -0.0466878 -0.0022842465
0.13276593 -0.044525117 -0.0073116552
0.14951348 -0.043499641 -0.0094471984
-0.10444404 -0.022428337 -0.0034970033
0.09030804 -0.022348635 -0.00020121504
0.11343101 -0.02591664 -0.0028369077
0.14723572 -0.027557552 -0.0078103058
-0.30660748 -0.011363517 -0.0051128664
-0.2518687 -0.013012103 -0.00052847143
-0.22206652 -0.013285303 -0.0074025951
-0.10418638 -0.014673034 -0.0018182509
0.083952636 -0.01138583 -0.0053081047
-0.29997319 -0.00785603 -0.0098960716
-0.233582 -0.0069545363 -6.4393389e-06
-0.21594791 -0.0065659657 -0.0044165845
-0.10464849 -0.0063901418 -0.00483082
-0.010317581 -0.0014292477 -0.0041300878
-0.0033939499 -0.0017730141 -0.0043591433
0.036692709 -0.0038189744 -0.0064210892
0.042851947 -0.007510154 -0.0028662751
0.071603738 -0.0072091874 -0.0073474636
-0.10764632 0.0015245186 -0.0023480749
-0.047307312 0.00099580269 -0.0073460797
-0.0014604578 -0.071692631 8.871546e-05
0.003746714 -0.071593225 0.0078209853
0.025065551 -0.071438119 0.0057418682
0.033299226 -0.071554363 0.0003270118
-0.14380151 -0.060491055 0.004221519
-0.11322469 -0.065278098 0.00019040052
-0.10951198 -0.064842492 0.005656892
-0.087304577 -0.063643262 0.0085556824
-0.062098384 -0.061436236 0.0059415465
-0.053980269 -0.063992649 0.0040415204
-0.024962049 -0.069155835 0.0095620323
-0.018394994 -0.062046316 0.0014040414
0.084624976 -0.060855746 0.0049589211
-0.014364963 -0.059726305 0.0038520426
-1.6739592e-05 -0.052216537 0.0089865029
0.081715681 -0.050770618 0.0048463121
0.099573411 -0.054126922 0.00046822894
-0.22384155 -0.041591197 0.0043475386
-0.21335685 -0.043777004 0.00052196113
-0.20332563 -0.048365097 0.004381449
-0.10275371 -0.043248184 0.0075229304
0.010421973 -0.049056515 0.0095389262
0.061241135 -0.04749433 0.0024044013
0.078665711 -0.046002686 0.0003620733
-0.24971163 -0.032493759 0.0082645956
0.052619766 -0.03874962 0.0068742298
0.075116143 -0.03566258 0.0035450845
0.080141187 -0.039350186 0.0022760625
0.092656396 -0.034782462 0.00097367261
-0.29485872 -0.013283441 0.0042719832
-0.25519574 -0.019708386 0.0047912663
-0.0065553002 -0.01281919 0.0096839406
0.04540037 -0.013772086 0.0024529761
-0.28002065 -0.0073095197 0.0004198094
-0.26167032 -0.0076650912 0.00019511027
-0.20742521 -0.00084667094 0.0016100183
-0.046831045 -0.0026524523 0.0044339732
-0.0083663166 -0.0092113093 0.0071675638
-0.18239114 0.00082271645 0.0017779527
0.0088339513 -0.071386494 0.011100845
-0.13688728 -0.060068239 0.01187144
-0.091111936 -0.060639981 0.014446853
-0.014463643 -0.068442091 0.017661158
-0.002629196 -0.068072654 0.016775407
0.031834904 -0.068157613 0.010499971
0.043008983 -0.061171442 0.010411721
-0.19487303 -0.051049013 0.012033165
-0.18861973 -0.051908039 0.015756398
-0.12382648 -0.058417633 0.017646655
-0.062227119 -0.057248291 0.014467984
-0.053392816 -0.053228781 0.0163801
-0.032557413 -0.052751675 0.01355823
-0.029035538 -0.055890743 0.010558425
-0.018674865 -0.052285023 0.011794597
0.021312149 -0.059644111 0.014950387
0.047685128 -0.059794404 0.016916128
-0.23033236 -0.041484371 0.010856308
-0.21651332 -0.045250706 0.015074057
-0.10140312 -0.044852071 0.01632903
0.0038853511 -0.040976539 0.013752479
0.010951579 -0.040265672 0.012764704
0.027988559 -0.043032818 0.013398236
0.04370413 -0.045296922 0.013469998
0.075970404 -0.040474009 0.018680541
-0.10232308 -0.032483913 0.010330052
-0.010079063 -0.033417907 0.016915418
0.016734706 -0.039213702 0.012786521
-0.26321834 -0.027770417 0.012118244
-0.10127746 -0.022466611 0.017148275
-0.28337181 -0.016037567 0.013113864
-0.29403937 -0.0029138958 0.017369051
-0.25014418 -0.00076815975 0.0102868
-0.14909455 -0.00095641566 0.016144877
-0.11184434 -0.0027851914 0.014988462
-0.096827924 -0.0018198455 0.010207962
-0.28829172 0.00034414034 0.019302767
-0.22398677 0.0039395615 0.019183885
-0.21865378 0.0013814307 0.013019428
-0.20081314 0.0012128548 0.01465675
-0.15157685 0.00026076971 0.013462186
-0.24653001 0.01227829 0.015140407
-0.22339155 0.010521939 0.011693398
-0.22321755 0.020180732 0.017377077
-0.26664788 0.034298297 0.018724769
-0.24547432 0.036178336 0.015758917
-0.021555837 -0.0545885 0.020635569
-0.2095803 -0.042982984 0.026776057
-0.18665642 -0.047331773 0.026477035
-0.16630086 -0.047633238 0.028570049
-0.073435873 -0.043167178 0.024889238
-0.029284611 -0.046791911 0.020487957
0.046757922 -0.043768104 0.02740496
0.082505703 -0.040021151 0.025216477
-0.08490406 -0.039457165 0.027576178
-0.042377256 -0.032998879 0.021926006
-0.096742228 -0.029813893 0.029903768
-0.079981849 -0.02825094 0.027129769
-0.056917444 -0.027243756 0.023462184
-0.24382995 -0.0013748623 0.028054899
-0.21314397 -0.0031021349 0.027985277
-0.19371092 -0.0017993345 0.024267208
-0.18873458 -0.0023845993 0.024784278
-0.1574495 -0.0077103758 0.027918937
-0.2750794 0.00031359663 0.029026004
-0.26888609 0.0067887651 0.020317638
-0.27130136 0.019129669 0.024338739
-0.29598367 0.035739258 0.026633669
-0.28204671 0.032469433 0.02260505
-0.26209137 0.034637235 0.024158712
-0.30697942 0.046542071 0.0281194
-0.29308331 0.04422415 0.027085219
-0.26177821 0.049803454 0.024001965
-0.25386637 0.046963759 0.022574037
-0.31364506 0.067871138 0.028925421
-0.30945674 0.060644515 0.028168984
-0.27372763 0.066076212 0.020611368
-0.2987164 0.071122818 0.028511686
-0.27887505 0.071572036 0.021531563
-0.29842314 0.088978007 0.024897849
-0.28732923 0.08284802 0.025744269
-0.3004148 0.097635336 0.026359353
0.0088019092 -0.094570622 0.035432134
0.011162542 -0.090526916 0.03685661
0.025189888 -0.094049625 0.032351717
0.023970738 -0.085782565 0.035424575
0.031152669 -0.082798742 0.031468987
-0.011019813 -0.054537371 0.03195703
0.0081157992 -0.050397441 0.033044674
0.039407521 -0.057235956 0.031409994
0.043751486 -0.056212619 0.035932109
0.077365063 -0.052303754 0.039768331
-0.17638345 -0.044535998 0.030944318
-0.14459315 -0.040742688 0.032769091
-0.16808487 -0.03466469 0.036425754
-0.12189186 -0.036987934 0.03207374
-0.26171985 -0.021199562 0.034451079
-0.20455208 -0.022712216 0.038242966
-0.18514474 -0.027834769 0.038122673
-0.16972032 -0.022274777 0.036952358
-0.14524835 -0.024498835 0.034849908
-0.11646789 -0.023534095 0.031229075
-0.30399308 -0.014021186 0.032032527
-0.28839338 -0.011024937 0.039761104
-0.22902921 -0.019465199 0.035546251
-0.20164792 -0.015168587 0.036653802
-0.19388461 -0.018241467 0.037534624
-0.17136636 -0.018468581 0.036250729
-0.13098006 -0.01801499 0.031043548
-0.31018323 -0.00013386676 0.030578569
-0.26338452 -0.0066069928 0.034392465
-0.23537283 -0.0042298115 0.030937765
-0.19594009 -0.0096821738 0.033428673
0.035560258 -0.092615336 0.046596374
0.0026597125 -0.083863735 0.044103034
0.027666999 -0.089804061 0.040071063
0.021613171 -0.076328143 0.042485811
0.019678829 -0.069092102 0.040774249
0.022362985 -0.053708069 0.045363352
0.04958009 -0.054657951 0.042920355
0.051778413 -0.053701945 0.047430158
0.079610765 -0.040619642 0.045169588
0.072675094 -0.038727723 0.043585189
-0.29451025 -0.013194982 0.042442568
-0.25052318 -0.014130093 0.04076656
-0.25536764 -0.0080526974 0.046205446
0.0085869767 -0.084095843 0.051459953
0.11943106 -0.0732622 0.053184841
0.12418519 -0.071961969 0.053654313
0.016167097 -0.062272303 0.053159192
0.092310235 -0.063575804 0.056609385
0.11174088 -0.061719503 0.056878705
-0.0066000759 -0.050544854 0.054308467
-0.0033907578 -0.049461946 0.056212392
0.018937357 -0.045988694 0.052418336
0.038978022 -0.041765764 0.057853431
0.07525447 -0.049550485 0.053060342
0.061300367 -0.039002307 0.055138107
-0.26883915 -0.0069283303 0.050249584
0.0755179 -0.082637921 0.069854438
0.12104224 -0.083310895 0.066805512
0.10980657 -0.075738594 0.060091794
0.11133251 -0.06990052 0.067414865
-0.011557295 -0.050585032 0.067807108
0.0057456642 -0.054591365 0.067087322
0.012615673 -0.050064579 0.062154841
0.029282324 -0.051384374 0.060660429
0.033103243 -0.05021286 0.067984194
0.11731378 -0.056269795 0.061419141
0.028553735 -0.049945727 0.068894915
0.041644983 -0.040333264 0.068452179
0.050679509 -0.039811682 0.061766166
-0.29981893 -0.010465726 0.068013377
-0.26084608 -0.0066957036 0.066033594
0.075551637 -0.080618836 0.070085868
0.10552888 -0.084570527 0.075864747
0.11255395 -0.078259304 0.078932658
0.050834566 -0.067873903 0.07875824
0.076716617 -0.055246431 0.078855246
0.10892938 -0.051980108 0.070923679
0.11843482 -0.056211609 0.075763002
0.0060690241 -0.049013399 0.075392082
0.04296127 -0.048643857 0.079924554
0.057930883 -0.045415346 0.077231772
0.060113024 -0.046993982 0.078856312
0.071444824 -0.04625041 0.078440741
0.087983668 -0.047857508 0.072361402
-0.27455655 -0.0046890178 0.076394863
0.099514931 -0.082173429 0.081323892
0.11730485 -0.080513582 0.080082953
0.066381872 -0.074823663 0.081639901
0.084386677 -0.073728509 0.088604957
0.093614362 -0.075564086 0.086700931
0.12619188 -0.074909717 0.080365285
0.094258994 -0.065985262 0.088570163
0.11604877 -0.061849512 0.081624255
0.030094109 -0.050995242 0.081493132
0.052298978 -0.057451159 0.080645241
0.084184453 -0.056686398 0.083984062
-0.0034604787 -0.046531402 0.098601654
0.019078417 -0.040545128 0.095533781
0.044214536 -0.045961484 0.0973178
0.060916785 -0.037912149 0.090223685
-0.29422423 -0.0048552365 0.0906872
-0.010163815 -0.044745315 0.10725974
-0.00060547097 -0.0423586 0.1094694
0.0064505534 -0.046077885 0.10415228
0.010436526 -0.046568196 0.10797549
0.020382693 -0.03937199 0.10353149
0.050521333 -0.035922684 0.1034238
-0.28351927 -0.0019474642 0.10849891
-0.27871537 -0.002874349 0.10696544
-0.024899157 -0.049508464 0.11178991
0.03430707 -0.036243029 0.11626501
-0.30300453 -0.0025796934 0.11798929
-0.00050610211 -0.043905064 0.12634321
0.004365223 -0.044331383 0.12100075
0.02721316 -0.03660845 0.12191595
-0.30892962 -0.0039370228 0.12860963
-0.018298123 -0.043226272 0.13653207
-0.0093956282 -0.043366533 0.13353162
0.035995241 -0.034159817 0.13519433
-0.31172904 -0.0032013624 0.13344267
-0.015648527 -0.042076606 0.14498819
-0.0091398954 -0.042454246 0.14330609
0.0093620699 -0.035967082 0.14889267
-0.012953636 -0.041429799 0.15493368
0.0031683464 -0.035962641 0.15623432
0.032875467 -0.033656508 0.1569318
0.0092028109 -0.039987825 0.16707842
-0.016706545 -0.037345294 0.1753656
0.0278407 -0.062393427 0.18958086
0.062129959 -0.068937972 0.18834932
0.056614272 -0.05432234 0.1871534
0.066708706 -0.053588342 0.18621767
0.055875257 -0.047202982 0.18902412
0.005321736 -0.038164996 0.18732226
0.013622177 -0.033958975 0.1858245
0.026291708 -0.034934919 0.18227255
0.071159184 -0.071812898 0.1944412
0.042003602 -0.069018327 0.19028327
0.015359549 -0.056382917 0.19623977
0.021018868 -0.051701076 0.19247423
-0.021677911 -0.044314492 0.19473076
0.055945393 -0.045002542 0.1915617
0.06892655 -0.045703292 0.19081502
-0.02559242 -0.036288507 0.19808403
-0.015407022 -0.035878759 0.19612364
-0.0012347554 -0.037847128 0.19175413
0.0024517709 -0.037062965 0.19964142
0.016330363 -0.033685077 0.19305138
0.020785147 -0.073227793 0.20651974
0.04754737 -0.07492058 0.20511141
0.063451715 -0.072323315 0.20846531
0.0083486186 -0.064753398 0.2071269
0.0075276783 -0.055199455 0.20033121
-0.0051761619 -0.047424782 0.20849147
0.01364894 -0.046087839 0.20963365
0.040987372 -0.041553695 0.20422345
0.057915725 -0.041900251 0.20219171
0.06636098 -0.043112505 0.20398359
-0.0043827286 -0.037504837 0.20955969
0.0034702765 -0.036533214 0.20574729
0.050649926 -0.038573734 0.2024224
0.032748632 -0.051545821 0.21948999
0.064669892 -0.056775507 0.21434215
-0.029243618 -0.046293732 0.2126749
-0.011250838 -0.042986412 0.21256101
0.023120206 -0.046975587 0.21623486
0.066757187 -0.049986839 0.21344733
-0.022987697 -0.038018204 0.21405587
-0.0061172009 -0.035790138 0.21463419
0.013601879 -0.033983685 0.2124604
-0.001051482 -0.029838132 0.21846452
0.024481419 -0.053341486 0.22044717
-0.035542376 -0.035471994 0.2231553
-0.026586272 -0.035450336 0.22205466
-0.033424549 -0.034285747 0.23196191
-0.018233918 -0.029832041 0.23706141
-0.010843834 -0.033742994 0.24115212
-0.012710011 -0.028109763 0.24804205
-0.0043027978 -0.028572692 0.24778852
-0.031721614 -0.029852632 0.25654742
-0.012984294 -0.027658442 0.25278306
-0.043864943 -0.031011373 0.26786318
-0.034465358 -0.032015685 0.26653677
-0.028179582 -0.032313954 0.26181608
-0.015436034 -0.032088578 0.26236424
-0.029411105 -0.026426295 0.28260663
-0.044761341 -0.02787059 0.29347575
-0.026562441 -0.025421832 0.29118598
-0.054821093 -0.029517842 0.30112824
-0.036856253 -0.025010299 0.30503538
-0.026637448 -0.02538994 0.30091888
-0.061086986 -0.027028888 0.32594734
-0.053251788 -0.02604517 0.32164589
-0.043319397 -0.024074478 0.32145756
-0.05311102 -0.020678546 0.33055416
-0.063964747 -0.0095737297 0.3411738
