# .PCD v0.7 - Point Cloud Data file format
VERSION 0.7
FIELDS x y z
SIZE 4 4 4
TYPE F F F
COUNT 1 1 1
WIDTH 831
HEIGHT 1
VIEWPOINT 0 0 0 1 0 0 0
POINTS 831
DATA ascii
-0.079330996 -0.028284734 -0.33278748
-0.07797499 -0.019406736 -0.33483011
-0.043564923 -0.038293682 -0.30004448
-0.063218549 -0.040287878 -0.29406652
-0.052345868 -0.042936057 -0.28221956
-0.048989013 -0.040179949 -0.28030747
-0.041115686 -0.039178431 -0.28708667
-0.041060958 -0.043988232 -0.27262148
-0.033883419 -0.043815121 -0.2744928
-0.026964195 -0.042357393 -0.2684446
-0.044873979 -0.042692885 -0.25446501
-0.035529666 -0.041940965 -0.253333
-0.020970026 -0.045720708 -0.25176948
-0.036427543 -0.046210714 -0.24455903
-0.024211569 -0.042278074 -0.24406713
-0.046425924 -0.046136949 -0.23612469
-0.02948883 -0.047437716 -0.23151234
-0.013213507 -0.045460779 -0.23047403
-0.035844143 -0.046338476 -0.22432075
-0.020138955 -0.043383252 -0.22959095
-0.016432781 -0.043812577 -0.223103
-0.032136269 -0.048692804 -0.21156099
-0.023888685 -0.04859582 -0.21868089
-0.031509548 -0.05517906 -0.20925403
-0.049165711 -0.048971102 -0.20736113
-0.035089742 -0.049396805 -0.20910041
-0.0045376546 -0.048194498 -0.20656997
-0.0065399935 -0.050470304 -0.19971341
0.01152126 -0.050392017 -0.19735688
-0.033057205 -0.049284138 -0.19032252
-0.016097929 -0.046878658 -0.1918281
-0.0085383598 -0.046382837 -0.19113448
-0.011283321 -0.05157822 -0.18583161
-0.013779047 -0.047408335 -0.18513924
-0.024818998 -0.051440649 -0.17731725
0.01816272 -0.052564465 -0.17605746
0.020323388 -0.053076051 -0.17082059
0.009649639 -0.046938114 -0.17762814
0.011396768 -0.047156028 -0.17454666
0.026143234 -0.053985238 -0.16101021
-0.0027076267 -0.048933007 -0.16223538
0.0062578227 -0.047879383 -0.16721109
-0.01500677 -0.053821161 -0.15418604
-0.0032158955 -0.054270513 -0.1509607
0.019239934 -0.055043593 -0.15207982
0.031052282 -0.054084353 -0.15856126
0.02169246 -0.048441146 -0.15638389
-0.032364309 -0.056273423 -0.1494635
-0.0025315734 -0.05528187 -0.14297391
0.0018668371 -0.055517361 -0.142721
0.013118629 -0.049521632 -0.14590397
0.10293526 -0.073898472 -0.13012028
-0.0051466585 -0.055986129 -0.13066679
0.0032530644 -0.05304113 -0.13376229
0.090428129 -0.09291064 -0.12602177
0.065139055 -0.085713044 -0.12530261
0.077263176 -0.087532878 -0.12833002
0.053966749 -0.076510914 -0.1234254
0.064614043 -0.079141088 -0.12059496
0.071536846 -0.076297008 -0.12989457
0.10041011 -0.075471982 -0.12139285
0.11087689 -0.071115777 -0.1215221
0.12011544 -0.077966131 -0.12345729
0.064532608 -0.06979607 -0.12448997
0.07374315 -0.063910745 -0.12449086
0.10583122 -0.062784553 -0.1235253
-0.0041398616 -0.054023396 -0.12176853
0.014854648 -0.05097723 -0.12979977
0.037396971 -0.054180488 -0.12445812
0.046625845 -0.050864398 -0.12490278
0.066840857 -0.098232336 -0.11273572
0.072222941 -0.097715072 -0.11726111
0.099827379 -0.099053383 -0.1155199
0.11988468 -0.096254393 -0.11161951
0.03657598 -0.088211253 -0.11590647
0.042487755 -0.085580632 -0.11541903
0.064639226 -0.082049936 -0.11031757
0.099787787 -0.08160954 -0.11739437
0.053010162 -0.079014525 -0.11764479
0.043672252 -0.065131798 -0.11315482
0.058114916 -0.067776598 -0.11600725
0.10460126 -0.064413808 -0.11263511
-0.013375758 -0.056478456 -0.11526224
0.010774724 -0.052566737 -0.11818577
0.039612103 -0.051662017 -0.11109405
0.043175109 -0.058358744 -0.11151908
0.053381518 -0.056502737 -0.11345743
0.090753645 -0.056947131 -0.11590455
0.1046536 -0.057542898 -0.1144808
0.11569147 -0.058663819 -0.1129219
0.090366326 -0.10004284 -0.10370384
0.075212091 -0.098591611 -0.10485944
0.080598064 -0.098438039 -0.1013154
0.10507283 -0.099495232 -0.10935396
0.11067937 -0.096822143 -0.10045038
0.046285998 -0.085691333 -0.1006282
0.06463334 -0.081375778 -0.10968065
0.10438551 -0.082853951 -0.10468523
0.037817996 -0.072223477 -0.10945802
0.05062535 -0.074548304 -0.10264512
0.064612873 -0.079017095 -0.10694996
0.10630643 -0.076282054 -0.10535505
0.004211463 -0.063575909 -0.10717642
0.014271894 -0.062587373 -0.1072479
0.071898647 -0.060643852 -0.10642301
0.092664592 -0.063201249 -0.10838955
0.10515928 -0.064125806 -0.10611995
-0.014492398 -0.058204755 -0.1082885
-0.0041134576 -0.058919214 -0.10386386
0.036379118 -0.056635197 -0.10656662
0.047454741 -0.05188885 -0.10821865
0.057848316 -0.059597537 -0.10645632
0.075899906 -0.058901057 -0.10643338
0.094161071 -0.058463853 -0.10368126
-0.3154189 -0.01186886 -0.10365652
-0.30780759 -0.013094654 -0.10068136
0.083567418 -0.096846014 -0.097517572
0.094448887 -0.09326382 -0.092673838
0.10175315 -0.097532004 -0.099664755
0.045104116 -0.083392575 -0.097365327
0.064693458 -0.088248089 -0.098313257
0.045737501 -0.076074213 -0.096161418
0.054190215 -0.072849646 -0.095851019
0.064555347 -0.072412029 -0.097296655
0.1023178 -0.074587546 -0.095404133
0.048864868 -0.060955137 -0.095668264
0.053612497 -0.062901221 -0.096653081
0.061893664 -0.065560728 -0.097029164
0.07445775 -0.066408738 -0.091835968
0.10233645 -0.067887932 -0.099429093
-0.010422988 -0.057718467 -0.096972875
0.016673069 -0.054722581 -0.09065108
0.025976632 -0.053596333 -0.0944295
0.052437633 -0.05301448 -0.092101313
0.066100597 -0.053800732 -0.093771353
-0.32556856 -0.013622798 -0.097287409
0.073254779 -0.084269494 -0.088867456
0.074997954 -0.07523004 -0.088299282
0.10319567 -0.078496963 -0.087824084
0.11034371 -0.07326971 -0.089009687
0.032368112 -0.062372789 -0.08341904
0.050736539 -0.061833464 -0.088357046
0.063660838 -0.062223174 -0.083009124
0.054667003 -0.05375636 -0.081778899
-0.31601033 -0.013654822 -0.087708414
0.068602674 -0.063275039 -0.073773399
-0.004294958 -0.058853142 -0.076353684
0.0014746442 -0.05761458 -0.07989537
0.019359972 -0.05587209 -0.076375619
0.03255542 -0.055393424 -0.070374385
0.057654794 -0.054025162 -0.077993035
0.069564283 -0.054463848 -0.074923247
-0.32564452 -0.015799116 -0.078764915
-0.29033166 -0.014543015 -0.072991997
0.018001229 -0.064527959 -0.064442649
0.052688684 -0.064719819 -0.067250952
0.064616665 -0.064997412 -0.065335035
0.038406625 -0.055918779 -0.060722306
0.072773814 -0.055101588 -0.065722153
-0.29885322 -0.020037752 -0.063293867
-0.30332732 -0.019006906 -0.06884975
-0.28082347 -0.016103838 -0.066852681
1.1203956e-05 -0.092081673 -0.057398725
-0.00477937 -0.063993573 -0.058580652
0.029092107 -0.066389792 -0.057645075
0.057365078 -0.068028577 -0.052447326
0.076323323 -0.067838274 -0.051837906
0.025743663 -0.057178564 -0.058112361
0.044221111 -0.056116506 -0.054832701
-0.28844571 -0.021909585 -0.052614212
-0.27829778 -0.021333084 -0.051733609
-0.27328435 -0.017290618 -0.05477415
0.0072031985 -0.085798249 -0.040132005
0.0079914173 -0.076290846 -0.046663363
0.057939492 -0.07019262 -0.042798065
-0.011573631 -0.064005665 -0.049771372
-0.0044806292 -0.063623071 -0.043355875
0.0061616912 -0.064399578 -0.041336045
0.012240596 -0.06448099 -0.041816592
0.079984248 -0.068897471 -0.046819758
0.025662985 -0.058621597 -0.044859968
0.036329936 -0.057334378 -0.047459938
0.048326511 -0.056654166 -0.046228934
-0.2719917 -0.022179596 -0.045479972
-0.29839489 -0.017474404 -0.049515639
0.0033984501 -0.093676187 -0.0359082
-0.016796691 -0.071492441 -0.031910099
0.0010066641 -0.076673493 -0.031104704
0.027104687 -0.070518002 -0.035902772
0.036296889 -0.071227677 -0.035624634
0.041936547 -0.071391039 -0.03590462
0.058264613 -0.075197734 -0.033962108
0.088768743 -0.071208432 -0.035642974
0.097269475 -0.073381983 -0.033070017
0.008418736 -0.065636575 -0.034283146
0.012109954 -0.066774383 -0.039454557
0.090249009 -0.064327776 -0.036259972
0.10614875 -0.061689485 -0.03581829
0.12830822 -0.067813791 -0.031352811
-0.09302377 -0.056838304 -0.03067583
-0.052515306 -0.056942616 -0.030446224
-0.022913035 -0.055620052 -0.030915378
-0.008334727 -0.054005805 -0.031502713
0.058117997 -0.057068776 -0.036219738
0.064449504 -0.057057787 -0.034237094
0.097138874 -0.058871627 -0.035846081
0.12693983 -0.053514276 -0.031622577
-0.085068017 -0.049124524 -0.033694863
-0.044922065 -0.048647076 -0.033614144
-0.01767261 -0.048840828 -0.033574674
-0.0062232576 -0.040585879 -0.034786597
0.028599946 -0.049097911 -0.033313558
0.12963794 -0.040726621 -0.034619417
0.14009002 -0.045677166 -0.033983998
0.19551826 -0.046301998 -0.0338425
0.20241378 -0.040812552 -0.034528591
0.22484924 -0.044247523 -0.034070954
0.24749164 -0.042610418 -0.03427054
-0.063584343 -0.037600789 -0.034814145
-0.039152116 -0.033478599 -0.034321394
0.015128037 -0.039458405 -0.034905143
0.056023505 -0.037820615 -0.034973416
0.17374724 -0.038162585 -0.03489412
0.18362191 -0.035099175 -0.034770735
-0.30659539 -0.02162895 -0.030126914
-0.17227697 -0.028380688 -0.033179346
-0.16319214 -0.022375079 -0.031365246
-0.14666995 -0.025707908 -0.032489758
-0.13304454 -0.029483795 -0.033853278
-0.11002087 -0.021521641 -0.030386327
-0.082056239 -0.02633629 -0.032368977
-0.034904912 -0.025497558 -0.032200359
0.0076132789 -0.024316959 -0.031880558
0.013391404 -0.022710664 -0.031266034
0.026114535 -0.028611984 -0.033633791
0.076888978 -0.020297837 -0.030532056
0.14606673 -0.023640048 -0.032090399
0.19568801 -0.023582703 -0.032238755
0.20047234 -0.023011679 -0.032029733
0.24192724 -0.025164394 -0.033015765
-0.2846069 -0.018009314 -0.038374558
0.14778082 -0.019217966 -0.030313265
0.17715904 -0.019381138 -0.030515622
-0.044910248 -0.07559678 -0.023028759
-0.038085032 -0.075219922 -0.026893426
-0.010205059 -0.079861134 -0.021008136
0.0094406288 -0.07091783 -0.027782768
0.024356207 -0.07332179 -0.021937883
0.037525732 -0.076460108 -0.026043389
0.059938595 -0.079120785 -0.027871069
0.07366094 -0.074881077 -0.02172781
-0.13299698 -0.066152036 -0.020929806
-0.10320699 -0.063842647 -0.025651172
-0.0648605 -0.067330688 -0.021974392
-0.03793966 -0.069091097 -0.028696325
0.011426228 -0.063516349 -0.025505321
0.032334901 -0.060660746 -0.020484289
0.13680671 -0.061083905 -0.02756035
0.18091701 -0.061374351 -0.025893472
0.19224021 -0.06041684 -0.026515407
0.23820314 -0.06162636 -0.025348719
0.24800009 -0.063430429 -0.0234502
-0.097372837 -0.059154581 -0.029260632
-0.082609475 -0.059421763 -0.028973857
0.0092002321 -0.059897713 -0.025046945
0.012113091 -0.057257727 -0.021708852
0.052093163 -0.05824481 -0.025944065
0.080424026 -0.057718359 -0.023630448
0.15210409 -0.057194259 -0.029103596
0.21985449 -0.057186104 -0.028681196
0.22856581 -0.055710539 -0.029694974
0.24717888 -0.056963295 -0.028721973
0.30160677 -0.058613427 -0.022716194
-0.18319558 -0.047960781 -0.029607203
0.32387254 -0.045753695 -0.020279922
-0.22667453 -0.035444934 -0.025660537
0.31240782 -0.039639868 -0.024310924
-0.30865467 -0.022157861 -0.029371658
-0.2639327 -0.02702439 -0.021040952
-0.25475895 -0.025375614 -0.022456478
-0.22546554 -0.022255022 -0.024765298
-0.080672711 -0.020041313 -0.029465411
-0.079374507 -0.020043466 -0.029475179
0.29200736 -0.026569054 -0.026861763
-0.27175626 -0.018617136 -0.02879425
-0.26479357 -0.01881174 -0.026394
-0.22612306 -0.015281126 -0.020870818
-0.18281734 -0.013528526 -0.024004729
-0.17244263 -0.014790021 -0.024976306
-0.16753255 -0.013128015 -0.024585206
-0.1501707 -0.018145664 -0.02846865
-0.13495082 -0.018282408 -0.028345946
-0.12315579 -0.014560184 -0.025424853
-0.014132762 -0.013373128 -0.0250558
-0.006780752 -0.015201996 -0.026427066
0.026328605 -0.017546151 -0.028334381
0.079578355 -0.015892224 -0.027472958
0.087046549 -0.019166306 -0.029891813
0.11061077 -0.013277614 -0.02577503
0.13587698 -0.013533426 -0.026120119
0.21934617 -0.012164848 -0.025656516
0.23432678 -0.015942488 -0.028487701
0.093275249 -0.0096046068 -0.021762503
0.18345013 -0.0088846199 -0.021842927
0.22322071 -0.0081067244 -0.021324242
0.24136038 -0.0070691351 -0.020260969
-0.12361249 -0.0709102 -0.015034802
-0.086656019 -0.073815502 -0.011940591
-0.065383546 -0.074154198 -0.010833729
-0.034568157 -0.078446925 -0.012220239
0.023951165 -0.07666605 -0.014533373
0.033713564 -0.07477846 -0.017687099
0.054639935 -0.076323844 -0.017349929
0.065751314 -0.079202421 -0.011107979
0.083306424 -0.079061344 -0.0103279
0.091435403 -0.074502639 -0.0169707
0.10771139 -0.077994183 -0.013032909
0.12778096 -0.074785478 -0.015899271
0.13584171 -0.072740898 -0.010109923
0.19849558 -0.07176581 -0.011014285
0.24167672 -0.070821665 -0.012212106
-0.19018117 -0.062430359 -0.012137594
-0.18479988 -0.06298241 -0.013189995
-0.15641306 -0.065503851 -0.01805377
-0.064458579 -0.069607787 -0.019228574
0.057421137 -0.06452971 -0.0169707
0.072243705 -0.068187997 -0.0169707
0.084948562 -0.0694727 -0.016970698
0.15552357 -0.068092659 -0.018741492
0.25895509 -0.066226572 -0.019897377
0.31046137 -0.067090444 -0.012316328
-0.22815457 -0.054083399 -0.011466848
0.041456267 -0.059987057 -0.017415011
-0.27743194 -0.040468685 -0.010700447
-0.25778371 -0.04568946 -0.01133289
0.33879846 -0.048336729 -0.012461832
-0.27447703 -0.031599712 -0.01705841
0.33131576 -0.038761236 -0.014483555
-0.27336466 -0.029614579 -0.010129878
-0.26765949 -0.021249738 -0.017566178
0.31753105 -0.029978737 -0.014653552
-0.29532734 -0.018712297 -0.013596784
-0.28864434 -0.016623195 -0.013165258
-0.27083167 -0.016300779 -0.014777932
-0.25611815 -0.019633004 -0.018038573
0.29851633 -0.019199029 -0.019729758
-0.26117674 -0.0031387834 -0.010341151
-0.25033 -0.009700411 -0.011247054
-0.21268271 -0.0072249761 -0.013074434
-0.19390574 -0.0071177608 -0.014511864
-0.15752022 -0.0047641066 -0.01047835
-0.12789123 -0.0095785027 -0.019713374
-0.10521775 -0.0068447338 -0.015374322
-0.094282135 -0.0071143676 -0.016144983
-0.030936047 -0.0053020641 -0.013486063
0.046992153 -0.0050679836 -0.014427446
0.058572438 -0.0049925391 -0.014481495
0.070062861 -0.0057099066 -0.016207499
0.092662901 -0.0081381388 -0.019990347
0.11984341 -0.0036843 -0.012848455
0.12648152 -0.0036818772 -0.012965616
0.2100831 -0.0041871672 -0.015572359
0.22619841 -0.0031875151 -0.013758967
0.24534154 -0.004893763 -0.016951218
0.25942996 -0.0029462869 -0.010309844
0.26333123 -0.0059856265 -0.015793217
0.27360994 -0.0074457591 -0.014450994
0.25587785 -0.093701564 -0.0012130409
-0.11470357 -0.076019436 -0.0017380085
-0.034408212 -0.078474343 -0.0023801476
-0.022365667 -0.079357497 -0.0033139787
-0.0161444 -0.079375565 -0.0054463511
0.021485627 -0.079249971 -0.0018425734
0.037528824 -0.079232737 -0.002699441
0.068718381 -0.079199232 -0.00608959
0.08192046 -0.079089142 -0.0086313421
0.097692385 -0.078706637 -0.0045249676
0.10226832 -0.078534022 -0.0055901012
0.11305754 -0.077462658 -0.0057132184
0.15583533 -0.074090183 -0.0036197219
0.16604263 -0.072982289 -0.0088713448
0.17433098 -0.073684387 -0.0048796274
0.18867323 -0.073458329 -0.0051694778
0.21232148 -0.073406897 -0.0046014162
0.22147295 -0.073081166 -0.0058688587
0.23008259 -0.072826423 -0.0067947879
0.25699744 -0.073174581 -0.0078367265
0.29909399 -0.071434058 -0.0045262366
0.3043443 -0.0709268 -0.0046355072
0.34218132 -0.060318135 -0.0025074279
-0.23951124 -0.052716833 -0.0079266615
0.34542564 -0.052749097 -0.0072098305
-0.27650362 -0.044627868 -0.0030510845
0.32153529 -0.026881237 -0.0016350789
-0.32535708 -0.017894961 -0.0060423566
-0.28253448 -0.011139615 -0.0079107024
-0.20628017 -0.012675624 -0.007054057
0.30951843 -0.015330124 -0.0011746482
-0.30895549 -0.0085652359 -0.00041754107
-0.28567576 -0.0071072448 -0.0044413116
-0.26404876 -0.0070154024 -0.00079094566
-0.24663222 -0.0056907297 -0.0017919128
-0.20458512 -0.0039657783 -0.004162509
-0.1414458 -0.0035288907 -0.00596161
-0.13627316 -0.0027021489 -0.0016538075
-0.11899665 -0.0023154351 -0.0003806547
-0.067072861 -0.0031682502 -0.0070928331
-0.038565323 -0.0031639782 -0.0079401117
-0.0250079 -0.0031322236 -0.0087994393
-0.010115176 -0.0030177149 -0.0088790553
-0.00053510955 -0.0024759797 -0.0065173209
0.01101942 -0.0019338313 -0.0042420342
0.039669905 -0.0015056832 -0.0033236628
0.14544973 -0.0014870528 -0.0079861376
0.22281757 -0.0003926201 -0.0058244918
0.26965573 -0.0036854162 -0.0074095735
0.28004563 -0.0058322814 -0.0079539688
-0.29016232 0.0003680021 -0.0065154131
-0.27195454 0.00073359878 -0.0094999131
-0.22545846 0.0027104192 -0.0076495898
-0.2753644 0.012273615 -0.0086355843
-0.23064896 0.012783933 -0.0044106888
-0.2277225 0.013202232 -0.0034006785
-0.30927014 0.020557495 -0.0026230291
-0.2535041 0.022851471 -0.0065132696
-0.22972235 0.023179131 -0.0002108536
-0.27919602 0.037687879 -0.007103323
-0.24809526 0.038496431 -0.0019926466
-0.30545402 0.043786541 -0.0047102477
-0.28562665 0.043289505 -0.0068055047
-0.2789368 0.049078673 -0.0061193677
-0.24723047 0.040644731 -0.00099208299
-0.31225225 0.062129881 -0.0040600309
-0.30846485 0.065850601 -0.0047610132
-0.32338592 0.073673628 -0.0018552437
-0.31377959 0.079159394 -0.0040797233
-0.2982403 0.077609584 -0.0046902429
-0.3340961 0.10317835 -0.00021166935
-0.32830599 0.10390496 -0.0017361016
-0.30311686 0.10277562 -0.0010370486
0.26423991 -0.10211349 0.0046750647
-0.15605368 -0.071133673 0.00030904231
-0.14697683 -0.071744099 0.003984178
-0.10785716 -0.075490706 0.008381024
-0.096391305 -0.075755723 0.0064991349
-0.078887641 -0.076736458 0.00065624167
-0.024482798 -0.079515897 0.0074469741
-0.0069005447 -0.079301551 0.0058235605
0.0086152405 -0.079263806 0.0051526874
0.025914315 -0.07924521 0.00036493313
0.043047033 -0.079226807 0.0024569421
0.06680689 -0.079201281 0.0072384444
0.07940805 -0.079146452 0.0062920251
0.10847346 -0.077918604 0.0094674071
0.12293474 -0.07591062 0.0086212754
0.13309088 -0.07320565 0.009298333
0.15423062 -0.073982403 0.0043665743
0.19775629 -0.073073514 0.0070940061
0.21197405 -0.072981894 0.0069268635
0.26382184 -0.07450325 0.0088444576
0.29057986 -0.07174141 0.006167809
-0.20251413 -0.061869025 0.0064928574
-0.18127869 -0.065897539 0.0068141273
-0.17061681 -0.067383409 0.0088720722
0.32862046 -0.066578969 0.0020833141
-0.24292751 -0.051646069 0.0084349271
-0.22467411 -0.057242166 0.0057195537
-0.28358883 -0.040936161 0.0078010238
0.34022039 -0.041904658 0.0097614639
-0.31180459 -0.033603393 0.0055733724
-0.33703604 -0.02573701 0.0030129226
-0.32508004 -0.020186462 0.0076548886
-0.30457044 -0.012204216 0.0030915784
-0.29907912 -0.011916212 0.0047555375
-0.21177532 -0.017021772 0.0087388754
-0.19374332 -0.011669551 0.0037905923
-0.18531832 -0.015846545 0.00078926014
-0.1957038 -0.0061461241 0.0031669342
-0.13183931 -0.0023524081 9.4680057e-05
-0.12760031 -0.0037788963 0.0079145413
-0.10848118 -0.0032941103 0.0060000354
-0.02016883 -0.0029961453 0.0084345993
0.0054727532 -0.0020122982 0.0045161806
0.040376488 -0.0017553685 0.0047619017
0.13906778 -0.001446756 0.0076103411
0.2525425 -0.00011003765 0.0011678912
-0.29345968 0.0016398765 0.0060696891
-0.23591696 0.008286885 0.0074479394
0.19094749 0.00023776962 0.0012604701
-0.31095222 0.014947487 0.0017353999
-0.25402296 0.018884821 0.0073083919
-0.2291332 0.022342902 0.00038318025
-0.30090466 0.031714078 0.0054295594
-0.3112455 0.046381533 0.0037715076
-0.2976729 0.047582742 0.0061200876
-0.27834731 0.042410258 0.0068510748
-0.26369748 0.04138745 0.0053547574
-0.30875891 0.053945489 0.0046134749
-0.32515812 0.064022169 0.00059717975
-0.31512293 0.065114729 0.0036652677
-0.29713023 0.071242683 0.0052758143
-0.33543199 0.09497983 1.7433869e-05
-0.30911976 0.091343641 0.0041442136
-0.054923967 -0.073051594 0.017983178
-0.044443987 -0.076348454 0.010141149
-0.030998709 -0.079058751 0.013416636
-0.0052448548 -0.079706088 0.018004842
0.09351258 -0.078800082 0.014374545
0.16356856 -0.070805609 0.013803864
0.17939025 -0.071083143 0.012926316
0.18511754 -0.072020188 0.010842635
-0.17878158 -0.06095054 0.019064665
0.15402636 -0.068548255 0.018327722
0.17849304 -0.069239482 0.016835254
0.271366 -0.067477457 0.018018808
0.2902784 -0.064592086 0.019480411
0.30726767 -0.061760418 0.019410161
-0.21783444 -0.051305581 0.019510742
0.31774727 -0.059107233 0.01874423
0.33125949 -0.050810177 0.016741725
-0.24210888 -0.046174664 0.016565567
0.32688266 -0.049590006 0.019029893
0.33521566 -0.04517654 0.014419893
-0.30156812 -0.033396408 0.01070314
-0.281822 -0.035767481 0.013895946
-0.26333702 -0.032725118 0.018749287
-0.30189228 -0.025085967 0.014307297
-0.29720479 -0.025160167 0.014073998
-0.26587605 -0.023907872 0.015040926
-0.24810894 -0.023324547 0.016163614
0.30783856 -0.025603294 0.019409413
0.31862414 -0.028699756 0.010614549
-0.26397049 -0.019712264 0.016853988
-0.25702763 -0.019681964 0.017385444
-0.23580295 -0.015443662 0.01953942
-0.26061013 -0.0083524557 0.010818516
-0.25574303 -0.0081341341 0.010714578
-0.2011687 -0.0096080219 0.017939078
-0.19818741 -0.0059482949 0.011524355
-0.18601391 -0.0092033111 0.01854703
-0.14694227 -0.0069373017 0.015623007
-0.039975028 -0.0061346916 0.015196285
0.027876172 -0.0058296351 0.015802266
0.046687968 -0.0050118668 0.014422465
0.052132897 -0.0081170369 0.019658109
0.060658704 -0.002924558 0.010273272
0.13460693 -0.003761508 0.013402451
0.1507898 -0.0073702387 0.019795744
0.20321265 -0.0044133211 0.015386766
0.22949371 -0.0027141657 0.012939373
-0.24354482 0.0008151629 0.010370942
-0.13626502 -0.06352634 0.023983993
-0.041675664 -0.069001898 0.028033135
0.15670678 -0.066583477 0.020665118
0.16541502 -0.065820485 0.021492142
0.23671834 -0.065646283 0.020952571
-0.18673065 -0.05035878 0.027927656
-0.1574398 -0.055070054 0.029150227
-0.14157388 -0.058303729 0.027937762
-0.085628822 -0.058407202 0.029846799
0.20275795 -0.059989769 0.026877221
0.27262327 -0.059817955 0.025929805
0.30741048 -0.055132098 0.023617389
-0.2192547 -0.043370888 0.024770996
-0.20246346 -0.047216993 0.026574545
-0.19432284 -0.047599483 0.027988553
0.28711092 -0.049407169 0.029786743
0.29613066 -0.036567964 0.028977938
-0.28034881 -0.027696757 0.020702453
-0.23613259 -0.023986354 0.023611249
-0.20420897 -0.022537775 0.027930288
0.29633334 -0.02401685 0.023959974
-0.17675233 -0.010783011 0.021093208
-0.13338725 -0.012696858 0.023355152
-0.082512364 -0.015096968 0.025991108
-0.063781358 -0.011036218 0.02195463
-0.033543468 -0.011265104 0.022547878
-0.02114163 -0.012461702 0.024118742
-0.003850773 -0.012565338 0.024425171
0.012919661 -0.016683958 0.027744025
0.0235711 -0.015530454 0.026975781
0.050854445 -0.01283361 0.025068272
0.068326116 -0.017409286 0.028619606
0.07260076 -0.011465789 0.023904666
0.08651372 -0.013678865 0.026032414
0.10217258 -0.013677518 0.026125465
0.11500546 -0.016873036 0.028526265
0.143021 -0.014250032 0.026803359
0.18563387 -0.017335199 0.029307637
0.24552134 -0.014254292 0.027314952
0.25226808 -0.012457961 0.025477625
0.15132385 -0.0093362443 0.022168037
0.23451276 -0.0070155421 0.020248285
0.24309364 -0.0077387393 0.021089317
0.010923 -0.10774507 0.036043957
0.0021890611 -0.095347837 0.036027201
0.0054041911 -0.089188106 0.036027201
-0.030505253 -0.071638323 0.030111091
-0.024554949 -0.074200369 0.030307062
0.039120484 -0.071470939 0.035648111
0.04520417 -0.075384967 0.034018159
0.059425682 -0.078247882 0.030499622
0.071786508 -0.076341733 0.032967579
0.10704283 -0.074169919 0.033298891
-0.0049169767 -0.064561002 0.03800939
0.0064041647 -0.065126374 0.034208391
0.010405358 -0.067346364 0.038110036
0.039404489 -0.06687367 0.036335651
-0.13753338 -0.05296462 0.031499121
-0.083476558 -0.053898674 0.03192284
-0.07518398 -0.051296081 0.032922119
-0.034053173 -0.057012863 0.03052262
0.047530357 -0.057421949 0.038046487
0.053618673 -0.05298648 0.034050629
0.069997914 -0.057641637 0.035787135
0.11626001 -0.052535176 0.033646114
0.15228099 -0.05461973 0.030825401
0.16299199 -0.050255924 0.032511972
0.18729828 -0.052726805 0.031452332
0.19511405 -0.050936081 0.032132603
-0.14810173 -0.040187806 0.03477395
-0.11482815 -0.046831422 0.034096103
-0.10540351 -0.042843927 0.03472463
-0.075512104 -0.044919498 0.034435596
-0.051765412 -0.04812137 0.034005862
-0.029795732 -0.045420837 0.034322105
-0.0010754429 -0.042813621 0.03461916
0.016361207 -0.044956107 0.034062847
0.034472771 -0.044168714 0.03440924
0.074044153 -0.047577605 0.033671174
0.15076379 -0.044165716 0.034281686
0.22719763 -0.046356965 0.033830516
0.23026514 -0.049525063 0.03256876
0.27730668 -0.04891048 0.031364486
0.28606623 -0.04766769 0.030568596
-0.14365356 -0.0359965 0.034897231
-0.1026224 -0.031655267 0.034140751
-0.085614644 -0.035541173 0.034649197
-0.022867225 -0.035145968 0.034668423
-0.01604067 -0.036998212 0.034879792
-0.0019401294 -0.031487353 0.034230329
0.016554147 -0.035153948 0.03458361
0.048866406 -0.035567969 0.034800544
0.063967973 -0.038922224 0.035038065
0.10604125 -0.033868227 0.034649152
0.15340649 -0.036408976 0.035019461
0.2356315 -0.036652833 0.034910277
-0.26471546 -0.024440058 0.032113068
-0.18426195 -0.025573341 0.031387355
-0.046651263 -0.021421196 0.030668829
-0.01553783 -0.026581753 0.032814056
0.015122226 -0.025543308 0.032509614
0.028030135 -0.026883638 0.033083674
0.052910946 -0.023010042 0.031639442
0.10413182 -0.026664883 0.033259466
0.13365906 -0.029885501 0.034177452
0.1951586 -0.022238012 0.031824864
0.20022927 -0.025197903 0.033011358
0.22186008 -0.024539035 0.032825604
0.26868951 -0.024910606 0.031212103
-0.29200271 -0.019002309 0.034740943
-0.26337719 -0.018230267 0.034006193
0.16405688 -0.01926389 0.030543149
0.2258859 -0.019794961 0.030965937
0.016526718 -0.1039425 0.0441094
0.020299114 -0.10231203 0.04127292
0.0083909426 -0.096689865 0.048103768
0.012218335 -0.081609443 0.046444677
0.056018669 -0.07011833 0.043154471
0.0039376635 -0.061471589 0.047181156
0.038216922 -0.069959477 0.042243887
0.026196063 -0.058265388 0.047675014
0.036730528 -0.057867445 0.041740052
0.073356643 -0.056101803 0.048918985
-0.30163926 -0.022128254 0.049098719
0.0066380054 -0.10743666 0.057970781
-0.00071674574 -0.095412135 0.058435455
0.0021736668 -0.093268692 0.053241201
0.021011144 -0.092026301 0.058208317
0.0082980962 -0.085299358 0.050950471
0.017619815 -0.087835237 0.058914967
0.014248864 -0.066212356 0.058612026
0.031603228 -0.067993864 0.050283838
0.043443978 -0.067118734 0.056198172
0.028207388 -0.057687711 0.05114178
-0.31003538 -0.01715906 0.059515323
-0.30327886 -0.017455693 0.052795753
-0.27367732 -0.016520236 0.052682821
0.0073003727 -0.094001599 0.0605313
0.021782031 -0.096294463 0.060914755
-0.010945642 -0.062368542 0.064473011
0.0335203 -0.064903587 0.06551259
0.055377685 -0.054625995 0.069690965
-0.0048522372 -0.061490837 0.07425265
0.09084563 -0.085839793 0.088429183
0.086028695 -0.077828526 0.087093718
0.095257692 -0.079858661 0.087066092
-0.0052067614 -0.060054842 0.087793507
0.015421964 -0.061525505 0.086184859
0.04574196 -0.06190639 0.088197961
0.063896738 -0.062426347 0.081404515
0.0071808556 -0.056773972 0.080547288
0.040944386 -0.05356127 0.086598642
0.073881716 -0.058707662 0.085015155
-0.30194584 -0.013294224 0.086875983
0.073756047 -0.094529435 0.095730305
0.10937475 -0.090799481 0.092748255
0.053944014 -0.081669569 0.095033415
0.060104512 -0.083734691 0.090848178
0.10546938 -0.087136045 0.098247476
0.11705777 -0.086636171 0.091760054
0.043857176 -0.076665893 0.098157346
0.052240208 -0.072237879 0.096888721
0.064566195 -0.073649809 0.092082791
-0.026251243 -0.064676903 0.090698361
0.041708171 -0.061540823 0.091356158
0.076674968 -0.068264648 0.090379097
0.087320827 -0.061365373 0.095050827
0.0983897 -0.062098138 0.094408989
0.11148986 -0.063576415 0.094495758
-0.0043049548 -0.059279926 0.095912881
0.035116993 -0.052860629 0.097497433
0.055800676 -0.052801199 0.096313544
-0.30738777 -0.012863107 0.091981351
0.095300727 -0.10058211 0.10916855
0.056181777 -0.092148736 0.102413
0.064730659 -0.092515402 0.1007489
0.074864946 -0.099509619 0.10763989
0.088723242 -0.099664576 0.10283802
0.10808918 -0.097950608 0.10244707
0.057751287 -0.08486513 0.10129481
0.1042877 -0.083219811 0.10067013
0.033642296 -0.072878867 0.10922793
0.0082663149 -0.066577025 0.10832613
0.014561654 -0.063775696 0.10861011
0.034519143 -0.060430545 0.10063307
0.056067411 -0.062197939 0.10112587
0.061396547 -0.062540501 0.10381315
0.08516255 -0.061381869 0.10643846
0.093770631 -0.063001163 0.10737665
0.001316917 -0.059002168 0.10602868
0.010481562 -0.05911573 0.10655946
0.022838533 -0.059577189 0.10654935
0.03680782 -0.052316733 0.10337199
0.063693479 -0.057071041 0.10244074
0.072825909 -0.058152653 0.10603599
0.091519207 -0.056824993 0.10253712
0.10808955 -0.058419429 0.1075492
0.11754093 -0.058838166 0.10901583
-0.31381467 -0.01251007 0.10292068
-0.30955359 -0.012037924 0.10059936
0.048411667 -0.090782113 0.11285263
0.05068991 -0.094657846 0.11332372
0.063700348 -0.09511818 0.11268249
0.099276856 -0.097394846 0.11967431
0.10229468 -0.09708266 0.11958285
0.11182827 -0.098276317 0.11303204
0.12113926 -0.09080027 0.1169426
0.047526546 -0.08333692 0.11827972
0.050549109 -0.086566567 0.11816883
0.10402829 -0.080606952 0.11755569
0.10857584 -0.075145453 0.11102296
0.019623579 -0.061721306 0.1109991
0.039125293 -0.061393745 0.11146116
0.044343714 -0.064989954 0.11201297
0.085952587 -0.063679978 0.11060899
0.10265102 -0.066936605 0.11059877
0.11131953 -0.064156882 0.11112932
-0.0031084183 -0.058816165 0.11130973
0.0054804161 -0.057107627 0.11048277
0.011890188 -0.057830758 0.11910032
0.03230992 -0.051683083 0.11253908
0.041866139 -0.058975309 0.11247291
0.087878935 -0.095686927 0.12279829
0.095030457 -0.0946052 0.12424791
0.052436016 -0.080995269 0.12603883
0.054049917 -0.070578009 0.12490183
0.10850452 -0.070160419 0.12080833
0.11662457 -0.075640604 0.1282618
0.052580539 -0.066507511 0.12119613
0.095913351 -0.060777012 0.12255739
-0.009519116 -0.055906922 0.12672246
0.026440199 -0.057487968 0.12673914
0.048115745 -0.057376832 0.12407402
-0.010331215 -0.055036176 0.13929416
0.013003502 -0.053896531 0.13212714
0.020061167 -0.056409493 0.13780348
0.040870361 -0.056174196 0.13700975
0.032784551 -0.049773447 0.1376072
-0.014356332 -0.055631571 0.14762262
-0.0089647528 -0.05534444 0.14877138
0.026167739 -0.055717774 0.14472874
0.029783295 -0.04948476 0.14163753
-0.027536413 -0.053106695 0.15236285
-0.011149681 -0.050871965 0.15361656
-0.0042539653 -0.057009958 0.15238294
-0.010247394 -0.053191736 0.1656985
0.023541905 -0.053561375 0.16556796
-0.006447257 -0.049449101 0.16079123
-0.013656236 -0.052151252 0.17734763
-0.0068266131 -0.052589029 0.17525513
0.0035646856 -0.04727583 0.17520018
-0.022744101 -0.047805253 0.18996823
0.013473237 -0.046270657 0.18850024
0.0098723043 -0.045560561 0.19932826
-0.039264325 -0.052737672 0.20941196
-0.041165434 -0.048352577 0.20652394
-0.034891922 -0.048338171 0.20747802
-0.026618516 -0.046840593 0.20175098
-0.01278984 -0.045699958 0.20073959
-0.0052385149 -0.045084339 0.20474927
-0.032422826 -0.048707396 0.211046
-0.040885426 -0.046417825 0.2208523
-0.039149169 -0.045247309 0.22783755
-0.023535226 -0.045775175 0.22772354
-0.05093547 -0.044179339 0.24965033
-0.045047142 -0.044326574 0.2417722
-0.025397202 -0.04658312 0.24304752
-0.03877686 -0.042172238 0.25349194
-0.051136177 -0.044251196 0.26192376
-0.028790401 -0.04485647 0.26240864
-0.046288162 -0.043498032 0.27753192
-0.034445949 -0.044028506 0.27237529
-0.028772637 -0.04005789 0.27675128
-0.061614871 -0.041884597 0.28970885
-0.048700415 -0.042824939 0.28584009
-0.042448997 -0.042256106 0.29284537
-0.058897641 -0.035897184 0.32521009
-0.072944909 -0.025060127 0.33399639
-0.082540728 -0.015030337 0.33636871
-0.088452108 -0.0034494565 0.33966488
