# .PCD v0.7 - Point Cloud Data file format
VERSION 0.7
FIELDS x y z
SIZE 4 4 4
TYPE F F F
COUNT 1 1 1
WIDTH 890
HEIGHT 1
VIEWPOINT 0 0 0 1 0 0 0
POINTS 890
DATA ascii
-0.14457834 -0.042712521 -0.28698662
-0.12192582 -0.04205 -0.27278
-0.15411188 -0.037855227 -0.26416248
-0.12546773 -0.044677094 -0.25710592
-0.11597877 -0.04205 -0.25367814
-0.082174793 -0.042049997 -0.25809211
-0.071439922 -0.042050004 -0.25034595
-0.10390846 -0.04205 -0.24694142
-0.065324023 -0.04205 -0.24972934
-0.15109824 -0.035687517 -0.24296349
-0.14456503 -0.045877248 -0.23514156
-0.14101881 -0.034651499 -0.23283182
-0.15461087 -0.046508193 -0.22359447
-0.14844492 -0.046612438 -0.22168668
-0.13343988 -0.046674229 -0.22055578
-0.12690294 -0.046238672 -0.22852707
-0.0030850098 -0.04205 -0.22106454
-0.13814807 -0.034035046 -0.22680327
-0.092954628 -0.042050004 -0.21178834
-0.13690583 -0.032809079 -0.21481398
-0.12836146 -0.032405466 -0.21086688
-0.15500459 -0.047506113 -0.20533131
-0.16266914 -0.032241683 -0.20926519
-0.15991548 -0.032090388 -0.20778561
-0.16417657 -0.048002061 -0.19625485
-0.14077175 -0.04205 -0.19362605
-0.11522211 -0.045010611 -0.19685054
-0.10989622 -0.048060447 -0.19518629
-0.088409588 -0.048330937 -0.19023602
-0.065777533 -0.04205 -0.19338349
-0.023553874 -0.04205 -0.1987994
-0.16817164 -0.031054929 -0.19765937
-0.14602873 -0.031026971 -0.19738597
-0.16997278 -0.048661854 -0.18417974
-0.14087987 -0.042049997 -0.18736957
-0.09722288 -0.048732646 -0.18288419
-0.086768538 -0.045215935 -0.18619153
-0.042950831 -0.04205 -0.18119635
-0.14385578 -0.029864956 -0.18602215
-0.097947896 -0.049215745 -0.17404282
-0.08156848 -0.04205 -0.17807025
-0.023143256 -0.04205 -0.17675316
-0.0022874339 -0.04205 -0.17850946
0.027728934 -0.04205 -0.17751065
-0.12347177 -0.028803501 -0.17564172
-0.14448869 -0.049669594 -0.16573691
-0.084978253 -0.045925491 -0.16617642
-0.073949955 -0.045858603 -0.16413283
0.038222644 -0.04205 -0.16352336
0.07788305 -0.04205 -0.16603801
0.08826901 -0.04205 -0.16514784
-0.1773859 -0.027998623 -0.16777045
-0.13974667 -0.027598415 -0.16385663
-0.18032354 -0.050338805 -0.15348954
-0.15329352 -0.050088316 -0.15807372
-0.10549171 -0.050295919 -0.15427434
-0.043061171 -0.04205 -0.15829825
0.027260214 -0.04205 -0.15367821
-0.1776545 -0.026957942 -0.15759319
-0.17724425 -0.050778851 -0.14543608
-0.15606019 -0.050913822 -0.14296591
-0.14099221 -0.051038988 -0.1406752
-0.094396658 -0.050898839 -0.14324018
-0.12384667 -0.04205 -0.14531434
-0.11905082 -0.04205 -0.14007688
0.025098097 -0.04205 -0.14036253
0.039144002 -0.042050004 -0.14603472
0.060108349 -0.042049997 -0.14748624
-0.17073543 -0.025308959 -0.14146706
-0.15421376 -0.025186162 -0.14026618
-0.14590833 -0.025608275 -0.14439419
-0.15247852 -0.051515594 -0.13195284
-0.14361206 -0.05140496 -0.13397744
-0.14402549 -0.042050004 -0.13431655
-0.12480423 -0.04205 -0.13608596
-0.11608731 -0.042050004 -0.13068202
-0.048123006 -0.04205 -0.13299942
-0.024166044 -0.04205 -0.13442789
0.056336727 -0.04205 -0.13597199
0.079540879 -0.042050004 -0.13029933
0.10911628 -0.04205 -0.13508028
-0.098973051 -0.051625974 -0.12993258
-0.1161406 -0.042049997 -0.12005694
-0.10243455 -0.042050004 -0.12170833
-0.074765339 -0.04205 -0.12654956
-0.043083057 -0.04205 -0.12443385
-0.0033891685 -0.04205 -0.12304534
0.021239892 -0.042049997 -0.12534243
0.043267652 -0.04205 -0.12042779
0.050200045 -0.042049997 -0.12438364
0.12759331 -0.042049997 -0.12571362
-0.10992378 -0.023951575 -0.1281926
-0.174316 -0.052299879 -0.11759933
-0.057239302 -0.0524466 -0.11491422
-0.083168298 -0.04205 -0.11968309
0.017898709 -0.04205 -0.11795974
0.020156458 -0.042368412 -0.1100208
0.057583921 -0.042050004 -0.11122688
0.063837409 -0.04205 -0.11464443
0.077255949 -0.04205 -0.11946667
0.10119362 -0.04205 -0.11620993
0.13783997 -0.04205 -0.11937021
0.14919798 -0.04205 -0.11966512
0.18065418 -0.04205 -0.1125485
0.17905684 -0.038331211 -0.11083801
-0.15178697 -0.022437818 -0.11338893
-0.11771157 -0.022614289 -0.1151147
-0.15548928 -0.052909337 -0.10644545
-0.067588694 -0.053152855 -0.10198882
-0.042842623 -0.053076558 -0.10338512
-0.12776326 -0.043091737 -0.10816444
-0.071449451 -0.04355038 -0.10698735
0.046827581 -0.04126028 -0.10984237
0.059399027 -0.044206414 -0.10530367
0.073725708 -0.043107945 -0.10812284
0.097291052 -0.042952713 -0.10852123
0.11306339 -0.042528428 -0.10961014
-0.080967993 -0.039104849 -0.10712495
-0.055941567 -0.039937455 -0.10817464
-0.040308595 -0.036375411 -0.10368387
-0.031079443 -0.03594033 -0.10302262
0.027044516 -0.036666468 -0.10403979
0.11003829 -0.035009809 -0.1039729
0.19409807 -0.034849111 -0.10166096
0.12705237 -0.029903602 -0.10003237
0.13250636 -0.0299036 -0.10842554
0.14442566 -0.0299036 -0.10299169
0.15072481 -0.029903598 -0.10092267
-0.13805106 -0.053773269 -0.090634435
-0.10546399 -0.053787991 -0.09036506
-0.078433819 -0.05362343 -0.093376666
-0.033457126 -0.053466916 -0.096241131
-0.081138238 -0.048670426 -0.093846977
-0.062806726 -0.047847461 -0.09595909
-0.047846776 -0.046933591 -0.098304488
-0.033519238 -0.047450446 -0.096978009
-0.01336953 -0.046686735 -0.098938033
0.047676764 -0.046752833 -0.098768398
0.06675148 -0.049212381 -0.092288598
0.093327403 -0.047751639 -0.096205004
0.15197785 -0.049340092 -0.091881543
0.16191037 -0.049438838 -0.091566779
-0.15802705 -0.030494859 -0.095646039
-0.098998152 -0.030910853 -0.096220642
0.066299222 -0.032660455 -0.098637454
0.099644244 -0.032202482 -0.098004773
-0.11021792 -0.029255098 -0.093880519
0.078357972 -0.029359985 -0.094039723
0.12114267 -0.027751299 -0.0915979
0.1630457 -0.028318778 -0.092459299
0.19654423 -0.02979039 -0.09467274
0.20300671 -0.028947292 -0.093413308
-0.13099061 -0.052462086 -0.081930332
-0.111832 -0.054006584 -0.086364537
-0.092082441 -0.054353148 -0.080021985
-0.081094794 -0.052138373 -0.082962155
-0.077587456 -0.053424999 -0.082329869
-0.064061247 -0.053940192 -0.087579548
-0.045242839 -0.053909305 -0.088144839
0.066448949 -0.050567631 -0.087968826
0.085453704 -0.050038423 -0.089655653
0.109446 -0.052612547 -0.081450753
0.14835602 -0.050037533 -0.089658484
-0.18610252 -0.037690036 -0.086320437
0.22606243 -0.03560596 -0.089944623
0.0091624632 -0.023664374 -0.085342832
0.088330418 -0.021129519 -0.081099309
0.12313382 -0.023933042 -0.085792601
0.13552222 -0.021988532 -0.082537353
0.1466594 -0.022521671 -0.083429866
-0.16103762 -0.054442972 -0.07561636
-0.14186929 -0.055519655 -0.071323372
-0.11619994 -0.05507201 -0.073181421
-0.087606817 -0.055163085 -0.072803363
0.00025914982 -0.053904973 -0.0773312
0.012546048 -0.05316947 -0.079675578
0.03303659 -0.054572582 -0.075082079
0.083525501 -0.053734593 -0.077874258
0.15051015 -0.054103829 -0.076697357
0.17695299 -0.053389192 -0.078975216
0.25322565 -0.051506247 -0.07179895
0.25893289 -0.04334379 -0.070773534
0.23090386 -0.02030823 -0.079724409
-0.18210725 -0.016231839 -0.072449096
-0.17409872 -0.018738009 -0.077206858
-0.11432947 -0.016959706 -0.073860005
0.00027315319 -0.015976911 -0.071976185
0.11608911 -0.01858638 -0.076816946
0.14654 -0.016992316 -0.073859841
0.18720597 -0.015446182 -0.070991643
0.1917828 -0.019503228 -0.078376785
0.22199759 -0.014944429 -0.070060857
0.23666734 -0.018061258 -0.075842798
-0.01392979 -0.057206225 -0.064322926
0.0033179466 -0.056290809 -0.068122551
0.027859636 -0.056765106 -0.066153884
0.07940612 -0.057882775 -0.061514787
0.10302516 -0.056421027 -0.067582056
0.17185135 -0.055889048 -0.069790147
0.2553145 -0.056527726 -0.067139164
0.26984161 -0.039645072 -0.065236256
-0.21673416 -0.02718134 -0.067683488
-0.22415541 -0.010253508 -0.060221694
-0.10023418 -0.011806134 -0.063803218
-0.074454211 -0.013314579 -0.066923179
-0.050600547 -0.013245436 -0.066780172
-0.037105504 -0.012223019 -0.064665474
0.011511438 -0.012028926 -0.064264029
0.032300793 -0.013384928 -0.067068681
0.063074313 -0.012752055 -0.065759696
0.086826265 -0.013578739 -0.067469545
0.099075429 -0.013523591 -0.067355484
0.23141378 -0.010928751 -0.061988674
0.27216113 -0.01287281 -0.06346181
-0.005163759 -0.060192458 -0.050009698
0.031390831 -0.060075305 -0.050696746
0.25901568 -0.060016707 -0.051040448
-0.18296176 -0.059877928 -0.051854294
-0.16435459 -0.059095748 -0.056440152
-0.13999231 -0.059956994 -0.051390607
-0.016550429 -0.059137776 -0.056193836
0.06890402 -0.059686203 -0.052978728
0.070534572 -0.059423331 -0.054520208
0.12356066 -0.059781875 -0.052417655
0.15015228 -0.059645098 -0.053219788
0.18831873 -0.059275337 -0.055387583
0.19867019 -0.059643779 -0.053227514
0.22317691 -0.059877921 -0.051854346
-0.23586112 -0.022134705 -0.054674357
0.29397357 -0.014785308 -0.051667925
-0.21435294 -0.0093913535 -0.058809534
-0.18477449 -0.0096007986 -0.05924264
-0.13606523 -0.0081059868 -0.055825435
-0.028612345 -0.0078202346 -0.05516129
0.0040362626 -0.0064832782 -0.052053932
0.030409247 -0.0062592011 -0.051533133
0.059532426 -0.0094940588 -0.059021916
0.13893566 -0.0081001464 -0.05581186
0.16047151 -0.0068760728 -0.052966867
0.23378594 -0.0078240465 -0.055170149
-0.24125043 0.045166902 -0.050942712
-0.23808381 0.047485813 -0.052774444
-0.19841182 0.050171345 -0.054895777
-0.20525131 -0.061431594 -0.04274261
-0.16743174 -0.061180178 -0.044217061
-0.024246097 -0.06103687 -0.045057535
-0.0019896105 -0.061546292 -0.042069934
0.0011730567 -0.06024716 -0.049688883
0.029710993 -0.061116725 -0.044589192
0.065877199 -0.060955703 -0.045533534
0.11119196 -0.061641622 -0.041510858
0.18459429 -0.061664335 -0.041377656
0.19089244 -0.0610855 -0.044772305
0.24850154 -0.061605535 -0.041722476
0.25456861 -0.060538836 -0.047978334
0.29523641 -0.052914489 -0.046319105
0.23912255 -0.024803946 -0.040770479
-0.24205054 -0.015488526 -0.049529001
0.25495601 -0.019118445 -0.04058532
-0.20830607 -0.0027232135 -0.042499345
-0.15716183 -0.0034512011 -0.044420239
-0.10565747 -0.0030277506 -0.043303013
-0.092550173 -0.0024192913 -0.041697294
0.068443127 -0.0021735663 -0.041048829
0.14553383 -0.0039905487 -0.045843206
0.15757923 -0.005491063 -0.049747825
0.30285174 -0.0025074836 -0.040975727
-0.25699449 0.036071826 -0.043758404
-0.26128197 0.041546069 -0.048082571
-0.19726063 0.041071739 -0.047707897
-0.21959539 -0.062265083 -0.037849423
-0.15461233 -0.062873602 -0.031862125
-0.13037309 -0.062358234 -0.036932703
-0.12096599 -0.062607162 -0.034482993
-0.096989751 -0.061903834 -0.039973073
-0.055233091 -0.062203996 -0.038212717
0.0013920777 -0.062548831 -0.035057034
0.010684485 -0.062237076 -0.038018737
0.075283445 -0.062805019 -0.032536786
0.18724494 -0.0625728 -0.034821149
0.19584717 -0.062454917 -0.035981223
0.26642388 -0.062493447 -0.035602
-0.25628459 -0.056941096 -0.030733582
-0.25822669 -0.0417036 -0.03840743
0.24327551 -0.041070983 -0.033767145
0.23364401 -0.031737518 -0.038986526
0.26852852 -0.025769182 -0.038190126
0.27433458 -0.028913427 -0.036460202
0.18313104 -0.019119944 -0.037681937
0.230643 -0.014002722 -0.03631191
0.30907464 -0.01385696 -0.030296592
-0.25051478 -0.0020037701 -0.037444286
-0.24581878 -0.0013398225 -0.038714372
-0.21738164 -0.001502116 -0.039207045
0.049083032 -0.00057734625 -0.036399722
0.054966442 -0.00066959253 -0.036679752
0.15895334 -0.0080178594 -0.031068522
0.20622212 -0.0016659402 -0.039704368
0.21348922 -0.0055111074 -0.039613999
0.25701094 -0.0060261879 -0.038978554
0.28990561 -0.0069639641 -0.033886984
-0.18294288 0.001494149 -0.030111283
-0.1439116 0.00098338514 -0.031661808
0.0084675569 1.7387552e-05 -0.03459429
0.049141996 0.001104009 -0.031295635
0.063767701 0.00038241586 -0.033486173
0.18378901 0.0012434234 -0.030872412
0.19940187 0.00038070223 -0.033491373
0.27661267 0.00081897277 -0.032160919
0.28804001 0.001957387 -0.030157652
-0.2114608 0.019544566 -0.03070333
-0.18798785 0.024019916 -0.034238461
-0.167927 0.021289891 -0.032081984
-0.12942956 0.022919506 -0.033369236
-0.23366517 -0.063734867 -0.023390401
-0.21456802 -0.063594311 -0.024772989
-0.19893055 -0.064076804 -0.020027289
-0.15289888 -0.063256465 -0.02809618
-0.14286086 -0.063384071 -0.026841007
-0.13906352 -0.063386597 -0.026816141
-0.055111371 -0.06313356 -0.029305074
-0.033975583 -0.063508295 -0.025619078
0.042952489 -0.063660316 -0.024123736
0.1282953 -0.063784927 -0.022897981
0.15853518 -0.063908473 -0.021682721
0.22606653 -0.052343719 -0.022466788
0.33522329 -0.050116964 -0.021259194
0.29054376 -0.044078588 -0.022721563
-0.30585513 -0.0336174 -0.020922562
0.14536376 -0.036352318 -0.020988964
0.16089948 -0.030760944 -0.029845439
0.20500074 -0.032962214 -0.020200673
0.22374764 -0.032524154 -0.020536816
0.230643 -0.03756443 -0.025633797
0.30257556 -0.033663284 -0.027959781
-0.30523926 -0.021248892 -0.020465715
0.31895781 -0.023830637 -0.026671395
0.35294899 -0.025775127 -0.020546447
0.1657732 -0.013135831 -0.02526967
0.18469921 -0.017572174 -0.025769077
0.20312172 -0.018884011 -0.025596373
0.27191445 -0.019597579 -0.025502428
0.14850564 -0.0047373371 -0.022516135
0.1949423 -0.0036157153 -0.021794066
0.31806245 -0.0077351378 -0.023757717
0.32698399 -0.0065077823 -0.027390914
-0.25511929 0.002164138 -0.027751029
-0.15961635 0.009640066 -0.022879653
-0.10908385 0.0027501252 -0.025667829
0.033942595 0.0026231066 -0.026119383
0.056411222 0.0041305823 -0.020760268
0.068384141 0.0043398123 -0.02000037
0.077637784 0.0029527028 -0.024947658
0.084421203 0.0029666417 -0.024898108
0.097292542 0.003934965 -0.021455688
0.17759851 0.0016341907 -0.029635005
0.230643 0.0094540622 -0.021115059
0.24399388 0.0023500491 -0.02709011
-0.17488176 0.017261829 -0.028900169
-0.15035813 0.017026573 -0.02871434
-0.14132741 0.015666984 -0.027640384
-0.1355021 0.014063995 -0.026374167
-0.12357744 0.016170518 -0.028038133
-0.10783886 0.015217983 -0.027285716
0.20625737 0.015837345 -0.023367269
-0.19801475 -0.064466141 -0.010624032
-0.12940396 -0.064272016 -0.016367126
-0.072678357 -0.064194642 -0.018656511
-0.059017763 -0.064420111 -0.01198578
0.018237349 -0.064300761 -0.015516788
0.11615454 -0.064164773 -0.019162308
0.12045926 -0.064185061 -0.018939955
0.1419469 -0.064366505 -0.013571817
0.19068633 -0.054631732 -0.010830953
0.2252132 -0.05453011 -0.018428624
0.230643 -0.053154115 -0.01379208
0.24101385 -0.056033418 -0.014433941
-0.33471066 -0.040784925 -0.010696754
0.17347801 -0.040318951 -0.011180672
0.230643 -0.048300616 -0.017609937
0.25745019 -0.040210333 -0.011442913
0.14443398 -0.037012435 -0.018686231
0.22919998 -0.037106108 -0.016161531
0.2587778 -0.039177835 -0.013461631
0.30646801 -0.037919089 -0.015102043
-0.35292572 -0.022095777 -0.010720882
-0.28494 -0.028859679 -0.018545559
0.230643 -0.023287013 -0.010190827
-0.33629382 -0.015800361 -0.010568881
0.34720194 -0.014726435 -0.019744316
0.16374174 -0.00018097859 -0.019158449
-0.26006597 0.0043598064 -0.019914985
-0.19701178 0.0052559143 -0.016089763
-0.061292648 0.00434421 -0.019981589
-0.043657824 0.0052834796 -0.015972115
0.11939304 0.0065805647 -0.01043619
0.14664637 0.0059810434 -0.010785301
0.16839111 0.0016896962 -0.017353844
0.17846228 0.0057947156 -0.013790175
0.22246394 0.0055348659 -0.014899206
0.24647741 0.0054453081 -0.012078493
0.30329439 0.0055041844 -0.011936373
0.32752141 0.0050158268 -0.010388701
0.18097246 0.018097946 -0.01179154
0.19161953 0.017396882 -0.017776962
0.230643 0.017441886 -0.010973658
0.23908693 0.020883255 -0.016142227
-0.23233938 -0.064717181 -0.003197799
-0.22048746 -0.064649716 -0.0051934072
-0.021447785 -0.06456393 -0.0077309916
0.026220221 -0.064713776 -0.0032985024
0.042885717 -0.064583346 -0.0071565211
0.054222394 -0.064747125 -0.0023120421
0.071284741 -0.064649314 -0.0052054785
0.15388055 -0.064639866 -0.0054849815
0.21905717 -0.064565152 -0.0076949918
0.22028302 -0.064695559 -0.0038373328
0.34981364 -0.050420363 -0.002279907
0.15885028 -0.042386133 -0.0051361327
0.16232944 -0.042895377 -0.0012677594
0.1813719 -0.041671041 -0.0079162447
0.20694181 -0.041687522 -0.007876466
0.31468144 -0.045674313 -0.0038208237
0.230643 -0.032302111 -0.0048209913
-0.37677738 -0.024913795 -0.0038543602
-0.35732073 -0.02057679 -0.0081130769
-0.28494 -0.023285503 -0.0093502188
0.137012 -0.025562987 -0.0038841174
-0.28494 -0.016587816 -0.0082255537
0.230643 -0.019198325 -0.0072466414
-0.27877635 -0.00056088285 -0.0014743825
0.230643 -0.009510491 -0.00069897063
-0.19023743 0.0075997068 -0.0051051774
-0.15996726 0.0075745378 -0.0052388613
-0.14934722 0.006861466 -0.0090263467
-0.12935267 0.0081351586 -0.0022611192
-0.071353942 0.0073252725 -0.0065628379
-0.015590042 0.0076373951 -0.0049049947
0.0054943413 0.0075139818 -0.0055605038
0.026366036 0.0075059026 -0.0056034215
0.046593256 0.007335715 -0.0065073734
0.13359883 0.0080982279 -0.0024572785
0.15807052 0.0081919562 -0.0028025131
0.17878002 0.0080263801 -0.0040603247
0.23819327 0.0066737905 -0.009113105
0.25325701 0.0082829017 -0.0021116307
0.27523607 0.0076698689 -0.0056806374
0.27858594 0.019465763 -0.0085400697
0.30203053 0.014592074 -0.0057060765
0.31048334 0.012849559 -0.0014410182
0.22068951 0.023929792 -0.0041195937
0.24025309 0.024167025 -0.002391617
-0.17673065 -0.064735211 0.002665011
-0.072841741 -0.06464088 0.0054552779
-0.069105543 -0.064799875 0.00075207051
0.1773366 -0.064568296 0.0076022642
0.25755185 -0.064698353 0.0037551154
-0.27744743 -0.0567462 6.9673559e-05
0.18774059 -0.055572905 0.002039294
0.26998439 -0.055746634 0.004606138
0.14952083 -0.046839602 0.0021661981
0.17961828 -0.041179895 0.0091022039
0.27445006 -0.041509505 0.0083063515
0.30481857 -0.049052913 0.00045194491
0.230643 -0.011129347 0.0060783885
-0.25295019 0.0077628135 0.0042390577
-0.17595012 0.0084156739 0.00077153341
-0.15063703 0.0069288085 0.0086686844
-0.14472792 0.0069005163 0.0088189524
-0.044905066 0.008485131 0.00040262478
0.054076128 0.006865452 0.0090051899
0.078757957 0.0081242546 0.0023193446
0.11527931 0.0085137533 0.0002506084
0.137012 0.0061646048 0.0031807355
0.1442564 0.0075784051 0.0052185007
0.1542775 0.0072015962 0.0072198357
0.19976705 0.0077956561 0.0058130817
0.20103091 0.0076434501 0.0048730318
0.230643 0.0088163884 0.0058602085
0.23449793 0.024139943 0.0038466374
-0.24134867 -0.064349145 0.014085416
-0.13484754 -0.064360172 0.013759319
-0.062611066 -0.064303763 0.015428144
0.20266031 -0.064274706 0.016287832
0.22517465 -0.064294025 0.015716087
0.3193638 -0.064230055 0.014938559
-0.29676634 -0.044374965 0.0158266
0.19580114 -0.040358774 0.011084806
0.23040184 -0.040054586 0.011819267
0.27853012 -0.040702637 0.010254534
0.31151494 -0.044680193 0.011386408
-0.3188211 -0.034825515 0.01838983
0.18489873 -0.034704879 0.018863466
0.27621788 -0.037758082 0.015312092
0.2943784 -0.035821345 0.01783588
0.30341232 -0.034285232 0.019185476
0.32427299 -0.031212252 0.017061021
0.35671476 -0.032185867 0.01824381
0.32427299 -0.023948733 0.014265469
0.37177899 -0.025180165 0.010000602
-0.32562965 -0.019108761 0.016123723
-0.30052358 -0.010351177 0.013150075
-0.29868948 -0.010412845 0.013558538
0.137012 -0.016150167 0.019832283
0.32427299 -0.012831774 0.012628442
0.34882849 -0.016297858 0.01982783
0.35295865 -0.017515795 0.017912053
0.34470513 -0.0073671164 0.01432123
-0.21488686 0.005034755 0.017033666
-0.060335744 0.0049369028 0.017451299
-0.03894908 0.0063743005 0.011316519
-0.016358182 0.0045765154 0.018989481
0.015895016 0.0045877798 0.018941665
0.116827 0.0054226187 0.015378274
0.12467873 0.0057314336 0.014060263
0.137012 0.0035510298 0.014564851
0.14067398 0.0055817305 0.011749497
0.15850385 0.0050763199 0.012940329
0.19901258 0.0063896878 0.011250847
0.22487853 0.0045205876 0.01922833
0.25408509 0.0054335692 0.012037046
0.32008407 0.006186733 0.013708891
0.33386207 0.00016077212 0.013039038
0.15079385 0.010169521 0.012269637
0.30988505 0.011257283 0.01015333
0.25215495 0.022207465 0.011146793
-0.25006625 -0.063131392 0.029326437
-0.22167963 -0.063370138 0.026978061
-0.14283586 -0.063936099 0.02141102
-0.077567875 -0.063730463 0.023433764
0.0022136346 -0.063679412 0.023935882
0.029815242 -0.063099511 0.029640023
0.043932483 -0.063627817 0.024443407
0.12899768 -0.063799664 0.022753095
0.15267777 -0.063929826 0.021472726
0.18953142 -0.063275278 0.027911104
0.21268654 -0.06334547 0.027220661
0.25656176 -0.063513137 0.025571458
0.31458756 -0.064006634 0.020717211
-0.26963472 -0.051593043 0.024069466
0.23790626 -0.050136026 0.025219232
0.31491444 -0.057841912 0.029457571
-0.27496979 -0.047622807 0.022812808
0.16776735 -0.044931799 0.020628825
0.1797365 -0.041845057 0.027667576
0.29156804 -0.043546945 0.0230767
0.33352435 -0.045678355 0.026006641
-0.28494 -0.031076374 0.023372373
-0.31090593 -0.022133401 0.020011276
0.21324818 -0.024520844 0.024586063
0.26564997 -0.029307164 0.022705421
0.19263987 -0.01647741 0.025709996
0.230643 -0.015535582 0.026103785
0.24518526 -0.015446654 0.025273848
-0.26625392 -0.0031366763 0.025618678
0.17557022 -0.0074389447 0.023635242
0.20632407 -0.0068046763 0.023372512
0.24964496 -0.0036971499 0.021856554
0.31147462 -0.0056866808 0.022909405
-0.23300412 0.0040296321 0.021119144
-0.21406125 0.0096865371 0.02291636
-0.18282548 0.0061555915 0.024026487
-0.15730777 0.0039150445 0.02152651
-0.13269021 0.0020550441 0.028138861
-0.089235328 0.0031440395 0.024267452
-0.078316048 0.0024661131 0.026677499
-0.054912202 0.0017321876 0.029286625
-0.034789626 0.0033400934 0.023570474
-0.029387236 0.002295264 0.027284874
0.023235448 0.0026876393 0.025889967
0.064411037 0.0021226869 0.027898388
0.13073127 0.0029937795 0.024801631
0.18855929 0.002629526 0.026096562
0.23652352 0.0037143456 0.022239998
0.25819302 0.0032924393 0.023739887
0.26830909 0.0019122745 0.028646411
0.28722835 0.0037565832 0.022089841
0.29267722 0.0028312909 0.025379283
0.31359607 0.0037482404 0.022119503
-0.24910977 0.015631299 0.027612194
-0.21395318 0.014416559 0.026652658
-0.15940061 0.010087509 0.023233093
-0.1075469 0.017390212 0.029001582
0.26179627 0.016749667 0.021232355
0.27846774 0.014459823 0.020341542
-0.21178773 -0.061947066 0.039719544
-0.19039837 -0.062041081 0.039168168
-0.17028476 -0.06209863 0.038830679
-0.13698915 -0.062063988 0.039033834
-0.11681396 -0.062539577 0.035148088
-0.10670355 -0.062576123 0.034788851
-0.065498248 -0.062128328 0.038656473
-0.053290345 -0.062431164 0.036214944
-0.04872318 -0.062768437 0.032896567
-0.025819488 -0.062589705 0.034654766
-0.0012570843 -0.063033409 0.030290198
0.02734391 -0.062377755 0.036740549
0.039765291 -0.062786467 0.032719243
0.062876463 -0.062619612 0.034215633
0.12291105 -0.062151391 0.038521238
0.26911461 -0.062901042 0.031592224
0.19587807 -0.041722126 0.030910317
0.22059976 -0.042627729 0.032665152
0.17170188 -0.032127392 0.032055993
0.19695871 -0.033391796 0.03612468
0.21185811 -0.039557911 0.034502532
0.21127447 -0.027447678 0.039913125
0.26501578 -0.026903469 0.038545694
0.30390519 -0.024838297 0.031102702
0.32130194 -0.026370924 0.03810193
-0.25502872 -0.0013514741 0.033303186
-0.23667496 -0.00078855967 0.037041038
-0.18150312 -0.001670195 0.039717283
-0.081217036 -0.00092920742 0.037467983
-0.0487222 -0.0014632833 0.039089192
0.0053463578 -0.00056218612 0.036353871
0.080190718 -0.0010036577 0.037693977
0.096417569 -0.0016643382 0.039699502
0.11657131 -0.0010686074 0.037891135
0.16325833 -0.00064501737 0.03660531
0.19754359 -0.001382175 0.036351714
0.21668395 -0.0023113415 0.038463283
0.26715884 -0.0015777625 0.039436698
0.3230463 -0.0096391793 0.032443427
0.15494293 0.0013090237 0.030673731
0.23004061 0.0085847294 0.032650359
0.2532267 0.0076823104 0.032080039
-0.23080143 0.025583953 0.035473913
-0.12241045 0.025590865 0.035479371
-0.21698716 -0.061340906 0.043274462
-0.045576353 -0.06170892 0.041116193
0.076381058 -0.060543146 0.047953039
0.11363148 -0.061204664 0.044073448
0.16618256 -0.061640836 0.04151547
0.24366796 -0.060751885 0.046728849
0.26177996 -0.061033107 0.045079626
0.28320879 -0.060924739 0.045715123
0.22440182 -0.02653268 0.040606778
0.23168451 -0.025321191 0.0409148
0.25003892 -0.02056626 0.040816821
-0.24208277 -0.014752889 0.049668849
0.21158031 -0.018126579 0.041166682
-0.23200829 -0.0023556754 0.041529413
-0.19206528 -0.0054660602 0.049689729
-0.11433931 -0.0044794437 0.047133058
-0.10820326 -0.0029507489 0.043099809
0.10608085 -0.0045980215 0.047445904
0.12962711 -0.0026193918 0.042225357
0.15007934 -0.001851038 0.040197678
0.17077681 -0.0029253643 0.043032818
0.24568629 -0.0040707425 0.04605478
-0.21365146 0.038175549 0.045420159
-0.17266953 0.038989201 0.046062872
-0.1690127 0.037323978 0.04474749
-0.18260159 0.040775668 0.047474027
-0.044637345 -0.060123757 0.05041261
-0.21943417 -0.054984875 0.05977495
-0.15849645 -0.059208926 0.055776842
-0.11598904 -0.05887448 0.057398494
-0.082683049 -0.059141349 0.0561729
-0.072426818 -0.059681155 0.053008325
-0.054744441 -0.059075776 0.056557249
0.19422826 -0.058297951 0.059791513
0.21535949 -0.058540296 0.058785602
0.23322046 -0.059521444 0.053944953
0.24672404 -0.059180833 0.055908728
0.25538176 -0.059892491 0.051768899
-0.22972468 -0.046124712 0.056216381
0.28136384 -0.0392543 0.058924805
-0.24342109 -0.024083408 0.050051536
-0.23371616 -0.026076855 0.056577653
-0.23569044 -0.018385898 0.05429079
-0.22696818 -0.013370553 0.059260055
0.29690868 -0.01927671 0.050638787
-0.18075128 -0.0088382671 0.057527751
-0.017610021 -0.0059557883 0.050828002
0.0064085349 -0.0097223381 0.059494369
0.025755158 -0.0074620438 0.054328993
0.037437491 -0.0087196259 0.05725199
0.045473203 -0.0073710531 0.054117508
0.16967244 -0.005770179 0.050396591
0.24781707 -0.0069208052 0.053070992
-0.18374862 0.04838777 0.05348691
-0.18646255 -0.056377769 0.067761615
-0.17480297 -0.056923404 0.065496832
-0.11652318 -0.056148253 0.068714239
0.049740214 -0.056969352 0.065306135
0.085166067 -0.056160167 0.068664812
0.27265373 -0.049420454 0.061149407
-0.21152666 -0.014584389 0.069386132
-0.19039091 -0.010692394 0.061500322
-0.17189568 -0.012059128 0.064326778
-0.11653683 -0.012310519 0.064846694
-0.098610476 -0.010831488 0.061787955
-0.036749225 -0.012850465 0.065963395
-0.028850347 -0.012417518 0.065067984
0.013037562 -0.010238307 0.060561329
0.04343912 -0.010731129 0.06158042
0.053481504 -0.012794731 0.065848127
0.13391718 -0.013776958 0.067879535
0.15924774 -0.010419537 0.060936086
0.23014705 -0.01017761 0.060435817
-0.17957821 -0.054593157 0.075629503
-0.15056214 -0.053213213 0.079536155
-0.083806992 -0.054382063 0.079492718
-0.0012063831 -0.055793431 0.070187017
0.015139464 -0.053685632 0.078030325
0.021522937 -0.054030713 0.076930411
0.035072636 -0.054002371 0.077020749
0.047422122 -0.055454686 0.071593031
0.096369885 -0.055691093 0.07061179
0.24826206 -0.052270606 0.074423909
-0.20129079 -0.045370519 0.075506508
0.24782273 -0.030346103 0.078620262
-0.10235609 -0.020325428 0.079753205
0.2628718 -0.026942348 0.07044445
-0.19780649 -0.016387543 0.072737932
-0.18521574 -0.018886901 0.077345006
-0.11664476 -0.018268446 0.076227158
-0.10541728 -0.015646724 0.071363658
-0.044760652 -0.016810052 0.073521718
-0.01366019 -0.018471563 0.076603957
-0.0067054108 -0.018140389 0.075989597
0.054593056 -0.015268195 0.070661463
0.071558647 -0.017098844 0.07405746
0.1346187 -0.018844351 0.077273771
0.20075835 -0.018927574 0.077413097
0.21125686 -0.019003348 0.077539943
0.23909353 -0.018108822 0.075931042
0.25149301 -0.014941456 0.070055336
-0.17232467 -0.05034931 0.088664852
-0.1632147 -0.054175772 0.083268188
-0.12356786 -0.050363995 0.08861804
-0.066488959 -0.050812617 0.087188005
0.045684028 -0.050111987 0.089421362
0.054853462 -0.051583432 0.084731013
0.085601404 -0.052145381 0.082939826
0.092270792 -0.051580362 0.084740788
0.14318502 -0.051538311 0.084874824
0.16163008 -0.052437007 0.082010254
0.2394619 -0.03357086 0.082812868
-0.12092108 -0.020028241 0.089824617
-0.10825484 -0.023451319 0.08498615
-0.035373632 -0.024030078 0.085949101
-0.025596572 -0.024357669 0.086331978
0.011422776 -0.022495564 0.08338616
0.093651041 -0.026346404 0.089465275
0.20527267 -0.023758162 0.085499838
0.21036488 -0.02490766 0.087281264
-0.16183406 -0.019471887 0.084383778
-0.15238209 -0.019124478 0.080986306
-0.14326175 -0.019478515 0.084448591
-0.11103834 -0.019131219 0.081052251
-0.062244125 -0.053300105 0.099294022
-0.1221327 -0.049205888 0.092309646
-0.006135121 -0.046669904 0.098981492
0.017562274 -0.047879536 0.095877096
0.037519552 -0.049159989 0.092455961
0.068372309 -0.048411176 0.094512694
0.072982579 -0.046378002 0.099730626
0.11681494 -0.049646799 0.090904206
0.12631707 -0.047109909 0.097852275
0.14712089 -0.048618983 0.093979381
0.2034798 -0.046752296 0.098770037
0.2152144 -0.045207601 0.094671741
-0.03078698 -0.030983526 0.096321538
0.076107383 -0.032404937 0.098285168
0.1254081 -0.032132398 0.097908586
0.13886844 -0.032507569 0.098426916
0.14120317 -0.032093186 0.097854421
0.19519353 -0.03133541 0.096807599
-0.18946399 -0.020600105 0.095417105
-0.17605534 -0.020999294 0.099320948
-0.16466805 -0.028637787 0.092943653
-0.075446926 -0.026730463 0.090048268
0.073868223 -0.029091552 0.093632527
0.084997363 -0.029800821 0.094687536
0.10483243 -0.027897995 0.091820583
-0.11252842 -0.052760348 0.10917218
-0.10608637 -0.053145505 0.10212335
-0.098609127 -0.053103961 0.10288358
-0.032883763 -0.052922621 0.10620239
-0.12166055 -0.04403178 0.10575196
-0.11503102 -0.046183843 0.10022891
-0.048342004 -0.043730441 0.10652532
-0.00099116564 -0.043912515 0.10605805
0.00081404299 -0.042470373 0.10975915
0.034733146 -0.044836111 0.10368773
0.10364931 -0.045355044 0.10235594
0.12709542 -0.046192717 0.10020614
0.16999102 -0.045287203 0.10253006
0.19165525 -0.046070524 0.10051975
-0.031393945 -0.039541993 0.10767648
0.0085565485 -0.037605479 0.10523535
0.059869193 -0.035319451 0.10231169
0.11080685 -0.034778006 0.10792651
0.17171763 -0.03818085 0.10596065
-0.1249965 -0.02206832 0.10977543
-0.10781533 -0.021288009 0.10214442
-0.18527725 -0.052425724 0.11529627
-0.17455995 -0.052605931 0.11199821
-0.11617626 -0.052340791 0.11685057
-0.083873622 -0.052174658 0.11989106
-0.058049727 -0.052306764 0.11747335
-0.1243549 -0.04205 0.11792544
-0.094852552 -0.04205 0.11952455
-0.021488611 -0.04205 0.11261954
-0.018894378 -0.042336125 0.1101037
0.031820696 -0.04205 0.11339027
0.061122812 -0.04205 0.11425875
0.073935948 -0.04205 0.1189798
0.14386767 -0.030334007 0.110838
0.17478138 -0.038815338 0.110838
-0.18126005 -0.02294058 0.11830565
-0.17432614 -0.0224966 0.11396375
-0.12577085 -0.022894803 0.11785798
-0.13219321 -0.052095793 0.12133439
-0.14619334 -0.04205 0.12775719
-0.10551886 -0.04205 0.12631756
-0.049658205 -0.042050004 0.12029058
-0.012345416 -0.04205 0.12095571
0.041499674 -0.04205 0.12323926
0.12777853 -0.042050004 0.12082751
0.14925268 -0.04205 0.12586507
-0.1684754 -0.023936838 0.12804846
-0.11803094 -0.024043821 0.1290947
-0.18423797 -0.051516689 0.13193268
-0.17908794 -0.051237438 0.13704334
-0.11896916 -0.051216878 0.13741958
-0.075803533 -0.051434264 0.13344125
-0.099937052 -0.04205 0.13878688
-0.1765523 -0.025106708 0.13948914
-0.059689406 -0.04205 0.14003848
0.0044226088 -0.04205 0.14462927
0.036188871 -0.04205 0.14220119
0.048792694 -0.042050004 0.14440885
0.09667024 -0.04205 0.14570156
0.10626642 -0.042050004 0.14843147
-0.095481187 -0.050219789 0.15566765
-0.11629513 -0.04205 0.1539956
-0.062568426 -0.04205 0.15954825
-0.032560639 -0.04205 0.15015478
0.011179952 -0.04205 0.15090758
-0.11708967 -0.04205 0.16455644
-0.097399019 -0.04205 0.16001511
-0.07770697 -0.049855225 0.16233963
-0.067117341 -0.04205 0.16701245
0.0039368458 -0.04205 0.16269177
0.050222009 -0.04205 0.16345307
-0.17082918 -0.027673012 0.16458616
-0.12135866 -0.027672926 0.16458529
-0.11995798 -0.027749838 0.16533749
-0.16978249 -0.049112447 0.17593339
-0.15467772 -0.049334206 0.17187493
-0.13977087 -0.048911758 0.17960626
-0.12964803 -0.04205 0.1709031
-0.11381675 -0.04912952 0.17562094
0.027258063 -0.04205 0.17336011
0.037197217 -0.04205 0.17424229
-0.12341584 -0.029131161 0.17884605
-0.14004368 -0.048750386 0.18255955
-0.11752137 -0.04870335 0.18342036
-0.10122087 -0.04205 0.18450777
-0.065327503 -0.04205 0.18154545
0.032197192 -0.042050004 0.18439853
-0.14855063 -0.029937565 0.1867322
-0.1193601 -0.042049997 0.1906487
0.0077172294 -0.04205 0.19173537
0.029887093 -0.04205 0.19239637
-0.16857792 -0.047473304 0.20593178
-0.10791102 -0.044788584 0.20325814
-0.024969138 -0.04205 0.20468765
0.00032436103 -0.042050004 0.20852292
-0.16472827 -0.047029573 0.21405253
-0.13792515 -0.04680685 0.21812862
-0.041675866 -0.04205 0.21494958
-0.16522019 -0.032615513 0.21292102
-0.14566125 -0.04205 0.22602738
-0.1541601 -0.045643758 0.23941469
-0.14019522 -0.045699392 0.23839656
-0.14315948 -0.04205 0.24140584
-0.10435723 -0.04205 0.2494081
-0.099096492 -0.04205 0.24420196
-0.059233576 -0.042049997 0.24974126
-0.15404412 -0.035532083 0.24144346
-0.10090605 -0.04205 0.26505139
-0.099160746 -0.042049997 0.26240131
-0.14277135 -0.038966689 0.27503195
-0.12445208 -0.04205 0.28274673
-0.14578958 -0.039763432 0.28282362
