# .PCD v0.7 - Point Cloud Data file format
VERSION 0.7
FIELDS x y z
SIZE 4 4 4
TYPE F F F
COUNT 1 1 1
WIDTH 825
HEIGHT 1
VIEWPOINT 0 0 0 1 0 0 0
POINTS 825
DATA ascii
-0.10074034 -0.00020451768 -0.27282819
-0.090772867 -0.01893305 -0.26076782
-0.094468705 -0.0075988825 -0.26812279
-0.088194959 -0.026600748 -0.25412881
-0.08467526 -0.025278298 -0.24937356
-0.07159134 -0.024366774 -0.24187297
-0.060685821 -0.024770033 -0.2429056
-0.056884103 -0.025977528 -0.24331975
-0.083698407 -0.027956367 -0.2342815
-0.067907348 -0.024774939 -0.23476031
-0.073069319 -0.030001879 -0.22532803
-0.05624735 -0.031323291 -0.22146857
-0.081307903 -0.028429776 -0.22475106
-0.074937031 -0.027179714 -0.22334245
-0.064639777 -0.031430706 -0.21623105
-0.052205488 -0.032373425 -0.21263134
-0.040452473 -0.028289292 -0.2174543
-0.050030794 -0.033505306 -0.20052426
-0.067489073 -0.031161239 -0.19348083
-0.041686311 -0.033600517 -0.19703272
-0.052645989 -0.027350837 -0.19553491
-0.054963425 -0.0335958 -0.18698224
-0.026124306 -0.028980188 -0.18847917
-0.053946551 -0.033885393 -0.17968263
-0.031749334 -0.027889114 -0.17770942
-0.055572957 -0.032172505 -0.16297665
-0.027410125 -0.036678635 -0.16477107
-0.017838586 -0.035752729 -0.16507119
-0.046848394 -0.029790033 -0.16282868
-0.035103146 -0.028772332 -0.16251805
-0.020656347 -0.028851535 -0.163435
-0.042030789 -0.041013323 -0.15865347
-0.053925179 -0.03176491 -0.15419297
-0.049051106 -0.034061678 -0.15849419
-0.053209774 -0.032036275 -0.14866847
-0.038813792 -0.036661707 -0.14443225
-0.029179383 -0.039860658 -0.14042796
-0.0059603057 -0.030134663 -0.14218143
-0.022918558 -0.041779205 -0.13847002
-0.045463454 -0.033219822 -0.13558058
-0.035150349 -0.034809761 -0.13740985
-0.02607251 -0.030522227 -0.13444327
-0.0026218973 -0.030420776 -0.1382104
-0.011440023 -0.029737759 -0.13708025
-0.032200132 -0.037402734 -0.12243544
-0.02805195 -0.03504983 -0.12645079
0.0032342419 -0.031430427 -0.12731342
-0.023275461 -0.047348447 -0.11617588
-0.017562211 -0.040974081 -0.11490396
0.00039798731 -0.041304208 -0.11246397
-0.039289616 -0.034835234 -0.11096323
0.01081853 -0.041053504 -0.10678492
-0.029908992 -0.037706394 -0.1074618
-0.01426899 -0.032054327 -0.10165325
0.02276594 -0.041020323 -0.096507922
-0.019484686 -0.033016637 -0.092026696
-0.0089605171 -0.031647362 -0.099491395
-0.025570773 -0.041828878 -0.087427467
-0.011859632 -0.048803668 -0.082640931
0.009553086 -0.043911699 -0.083543845
0.022583257 -0.042212017 -0.087956548
-0.034688186 -0.035751056 -0.089158967
0.00080845482 -0.032093197 -0.081746995
0.011923232 -0.031799302 -0.080470107
-0.40557963 0.066410393 -0.089012578
-0.39861429 0.065056249 -0.087666251
0.034826599 -0.042752061 -0.074222386
0.042447656 -0.040396444 -0.070585124
-0.020791227 -0.03422099 -0.070728585
-0.17533925 0.0045931586 -0.070812382
-0.40145552 0.068260729 -0.071980134
-0.39289752 0.0653864 -0.075579174
-0.38236815 0.065445364 -0.075855702
-0.37620527 0.068281382 -0.077892289
-0.39194509 0.070073307 -0.075891629
-0.022951536 -0.040431377 -0.064910814
0.031069091 -0.044660665 -0.061837621
0.041947767 -0.042924993 -0.065537035
-0.030691098 -0.038409393 -0.061392292
-0.011749493 -0.033725314 -0.0657406
-0.00010309904 -0.033073999 -0.064848989
0.015967444 -0.032232277 -0.066461906
0.043668248 -0.034010701 -0.06240112
0.052090935 -0.039065018 -0.060578331
-0.21343279 -0.014174376 -0.062433109
-0.20333871 -0.011793921 -0.067337126
-0.18945301 -0.014235631 -0.064949729
-0.22483695 -0.0063858675 -0.062944859
-0.21108066 -0.0032934451 -0.068723336
-0.20994391 -0.0063703014 -0.064269006
-0.18151529 -0.00070214225 -0.067340806
-0.16845009 -0.0094697075 -0.063734964
-0.22657706 0.0044693924 -0.064140059
-0.21780272 0.014546407 -0.060142547
-0.18382168 0.014357223 -0.061792441
-0.17347918 0.017214114 -0.060268447
-0.37535298 0.06776379 -0.068903878
-0.36274943 0.067872524 -0.062107965
-0.0043979697 -0.07304652 -0.050020497
0.0056453999 -0.061203666 -0.05420059
-0.008405921 -0.0523564 -0.054779332
-0.019233892 -0.046713889 -0.058512598
0.036109854 -0.045147497 -0.05339947
0.04943857 -0.04428225 -0.05099605
-0.018493127 -0.034811586 -0.052734636
0.01061586 -0.033256106 -0.052641355
0.03292615 -0.033515766 -0.051950447
0.05508516 -0.035794578 -0.053042561
-0.21619584 -0.010821125 -0.053750336
-0.19097124 -0.017628819 -0.0572607
-0.17427117 -0.016858991 -0.05150871
-0.24164335 -0.0075692665 -0.057556741
-0.18212184 -0.0097630322 -0.059205219
-0.22863527 0.0097270813 -0.050227582
-0.18172701 0.0037319255 -0.057321943
-0.21030396 0.011186888 -0.055519152
-0.19265741 0.018406402 -0.05589015
-0.1659704 0.014332437 -0.056041494
-0.39195853 0.066822879 -0.058185227
-0.0025729826 -0.071898565 -0.043792587
-0.0034740376 -0.062300235 -0.047537483
0.0061143045 -0.065663628 -0.047752187
0.00073051563 -0.057271767 -0.045871086
-0.0024769024 -0.045474607 -0.046927087
0.019728441 -0.046245866 -0.040686913
0.032655261 -0.046441294 -0.04165775
-0.0049782461 -0.034386553 -0.045472287
0.043301374 -0.034074195 -0.044640481
0.054344792 -0.034640633 -0.042909972
-0.21671161 -0.011012313 -0.044788167
-0.20077661 -0.01146199 -0.041895665
-0.18496335 -0.014696252 -0.045257989
-0.23988439 -0.0016410958 -0.046428178
-0.19141157 -0.004606951 -0.040578626
-0.17233002 -0.0067740185 -0.044092678
-0.222023 0.00963494 -0.048936509
-0.21433049 0.0099280216 -0.043701321
-0.18589655 0.0097643137 -0.040242586
-0.16631564 0.0042348723 -0.042517263
-0.2138003 0.014603573 -0.049580924
-0.17543787 0.014148988 -0.047554649
-0.16933328 0.012551596 -0.044606403
-0.38881874 0.067606986 -0.044970058
-0.37327915 0.066275276 -0.044118639
-0.36508745 0.071422316 -0.046026319
-0.35141376 0.071091495 -0.04064652
0.0062975022 -0.074694052 -0.038383201
-0.0035882667 -0.064264543 -0.037913073
0.0042303763 -0.067471325 -0.037342601
0.0053598289 -0.058800098 -0.038148329
0.0041894969 -0.045591995 -0.033652272
0.033936162 -0.046725478 -0.037785523
-0.07225056 -0.030810956 -0.030638631
-0.057679377 -0.031390499 -0.030609105
-0.030863954 -0.0396486 -0.030339606
0.0049636727 -0.034350649 -0.037808534
0.022333954 -0.033466794 -0.039088339
0.042515017 -0.034101542 -0.03011152
0.053483523 -0.034636255 -0.034429498
0.13364008 -0.031213906 -0.030695565
0.16825429 -0.031858269 -0.030534832
-0.13443477 -0.02745259 -0.030947007
-0.070395835 -0.028349722 -0.031108726
-0.0044330582 -0.028377535 -0.031387012
0.0027166829 -0.026834723 -0.031667024
0.011268457 -0.025067138 -0.031987377
0.04823342 -0.022062594 -0.032505706
0.083580561 -0.021220293 -0.032621816
0.18452881 -0.020136075 -0.032706223
0.19802788 -0.027711224 -0.031275027
0.22165416 -0.029190097 -0.030970866
0.23205487 -0.025963191 -0.03156215
0.24952571 -0.024993792 -0.031722728
0.28881896 -0.024641916 -0.031684492
0.30596048 -0.027425192 -0.030802077
0.31548077 -0.021699069 -0.031602174
-0.18833306 -0.01774513 -0.030318286
-0.17511562 -0.016076876 -0.030989721
-0.1495053 -0.01592727 -0.031846799
-0.11886189 -0.010389967 -0.031215709
-0.082291976 -0.015884181 -0.032124214
-0.045428723 -0.014338303 -0.031927008
-0.010732479 -0.014822758 -0.031985436
0.0035165662 -0.017584618 -0.032514788
0.054776337 -0.018666277 -0.032775115
0.13420281 -0.01037162 -0.031327322
0.15997933 -0.010592232 -0.031398304
0.16882059 -0.010613685 -0.031412281
0.25431824 -0.012882034 -0.031933039
-0.25072357 -0.0053672292 -0.034139231
-0.24985382 -0.0034040669 -0.036090728
-0.22931466 -0.0073397476 -0.030962911
-0.20917019 -0.00040369379 -0.03376694
-0.19602993 -0.00027046335 -0.035939202
-0.06240385 -0.0082341377 -0.030783676
-0.025382366 -0.0084971497 -0.030817401
0.15270437 -0.0081093842 -0.030928694
0.17788361 -0.005603245 -0.030492673
0.19690585 -0.0065893084 -0.030698033
0.20398712 -0.0071080164 -0.030802585
0.25460568 -0.0061551528 -0.030684164
-0.2074694 0.00030790467 -0.035877481
-0.19907944 0.00068154209 -0.037244551
-0.1722067 0.0024033338 -0.03849145
-0.37807116 0.066862516 -0.035559732
-0.36414689 0.066676065 -0.031455271
-0.35092372 0.067091435 -0.0325936
-0.34484449 0.068696223 -0.038465034
-0.086817056 -0.043827008 -0.022325993
-0.070603743 -0.040244393 -0.025296625
-0.032353275 -0.044639289 -0.023124713
0.0015381947 -0.040716618 -0.02591344
0.043502726 -0.04694733 -0.029331382
0.053770989 -0.046912424 -0.020050678
0.083847754 -0.045116786 -0.022288471
0.1066419 -0.041547216 -0.024952538
0.13515665 -0.04504361 -0.02187168
0.19108343 -0.042317633 -0.024069957
0.26102391 -0.045205444 -0.020377874
0.28156093 -0.040413156 -0.024849107
0.29421771 -0.042064592 -0.0236452
0.32351452 -0.042852189 -0.022306992
-0.20688929 -0.033615109 -0.022505732
-0.18690711 -0.033559259 -0.02487082
-0.1648062 -0.038828522 -0.023432439
-0.13580495 -0.035014883 -0.027575102
-0.11654515 -0.035626307 -0.027555682
-0.078098066 -0.038476519 -0.026271958
-0.06462495 -0.03424285 -0.029265892
-0.0060686506 -0.03547933 -0.02686041
0.033998854 -0.039586663 -0.026494507
0.05649953 -0.034821272 -0.027393244
0.094191894 -0.036698349 -0.028069232
0.14289847 -0.039610095 -0.026028551
0.19417214 -0.034876417 -0.028819486
0.26671284 -0.034834132 -0.028524406
0.28390062 -0.036401071 -0.027392806
0.32182315 -0.03338806 -0.028527409
0.34253097 -0.037718866 -0.023721362
0.36359954 -0.035853423 -0.020730946
-0.2409614 -0.024506442 -0.022892073
-0.23388191 -0.027085517 -0.022769885
-0.21233904 -0.028941667 -0.024865411
-0.18130955 -0.023652865 -0.0297112
0.33294123 -0.028551327 -0.028973605
0.34396541 -0.027360501 -0.027150575
-0.18104197 -0.012378023 -0.029940508
0.31977719 -0.013159761 -0.029747009
0.33975559 -0.017152878 -0.027327621
0.34540865 -0.010791557 -0.022814624
-0.24839209 -0.0062775584 -0.027645344
-0.23810655 -0.0087710433 -0.023800863
-0.22329575 -0.0048169014 -0.021860512
-0.17992717 -0.0043668761 -0.024504077
-0.052145243 -0.0033652703 -0.028643064
-0.0027872571 -0.0043634735 -0.029183296
0.036028448 -0.0039990456 -0.029106751
0.064360864 -0.0038524985 -0.029125933
0.080301002 -0.002208015 -0.028153686
0.09757854 -0.0022422273 -0.028243298
0.16475111 -0.00099993357 -0.027725838
0.27714574 -0.0022239352 -0.02893861
0.34407356 -0.0099380556 -0.022815149
-0.2141121 0.0037006147 -0.020151781
-0.17171234 0.0057375641 -0.021119218
-0.14225987 0.0019705687 -0.025327906
-0.073602028 0.0029380382 -0.024662733
-0.058856085 0.0052600726 -0.023111973
-0.028522089 0.0034973533 -0.024233982
-0.016564719 0.0052986406 -0.022916934
0.00053330511 0.005623891 -0.022599822
0.01904186 0.0047594821 -0.023527909
0.033078309 0.0023787948 -0.025081264
0.06338945 0.0042845891 -0.024001177
0.07361982 0.0025695495 -0.025120692
0.085511662 0.004308091 -0.024073416
0.15786557 0.0027925181 -0.025311913
0.16991684 0.0071888515 -0.021887129
0.17669767 0.0031017358 -0.025191372
0.18493173 0.006782982 -0.022305636
0.20009215 0.0048614661 -0.024176056
0.23622134 0.0075975992 -0.021895565
0.25249967 0.004125515 -0.024845764
0.28419405 0.0037680704 -0.025044017
0.31393671 0.0020776251 -0.024196249
-0.36506477 0.072467312 -0.02621505
-0.028409559 -0.051153094 -0.014191252
0.040261783 -0.051843107 -0.013211565
0.066243827 -0.05278454 -0.010147719
0.14708483 -0.05181079 -0.01206908
0.17572746 -0.051852047 -0.010926073
0.21599425 -0.051504571 -0.011233646
-0.2049703 -0.043986227 -0.010287868
-0.16502428 -0.047269475 -0.011912373
-0.14231475 -0.04863593 -0.012353562
-0.086123258 -0.046265408 -0.018740609
-0.054008748 -0.047915503 -0.017682483
-0.0056126546 -0.044628315 -0.017652888
0.0056923055 -0.046607383 -0.016295422
0.035566356 -0.048356954 -0.016880402
0.053034544 -0.047436818 -0.018017307
0.062715985 -0.048644546 -0.017507026
0.083043948 -0.046946082 -0.019706098
0.10216786 -0.049550295 -0.015828686
0.13612361 -0.048589528 -0.016848488
0.19558258 -0.048268229 -0.016711563
0.20219815 -0.04633002 -0.019375371
0.21306171 -0.047856595 -0.017118588
0.25242394 -0.046828452 -0.018177591
0.28820476 -0.04748667 -0.01682152
0.33830783 -0.047157027 -0.015217127
0.38545668 -0.041462101 -0.010721356
-0.27373034 -0.03014514 -0.011073677
-0.24581328 -0.0348817 -0.014703974
-0.22495696 -0.034274805 -0.019785592
-0.25160131 -0.029282805 -0.018143952
-0.27809113 -0.012809899 -0.018205186
-0.268325 -0.016516702 -0.019979015
-0.25823537 -0.0085508469 -0.016143149
0.35551977 -0.007483365 -0.015614055
-0.2705279 0.0026197836 -0.014317
-0.2637507 0.0054899664 -0.011938121
-0.24832994 0.0061338819 -0.013496022
-0.23848708 0.0064057996 -0.014207794
-0.21039537 0.0047831214 -0.019809738
-0.18088895 0.0079126023 -0.017324209
-0.088065192 0.0090066213 -0.017885659
-0.064453445 0.0095873047 -0.017037474
0.083129548 0.0089817997 -0.018599045
0.10656248 0.0093785664 -0.018246701
0.29522514 0.0097852545 -0.018383803
0.32638282 0.0041859862 -0.019906713
-0.17004371 0.011157982 -0.012954461
-0.1458046 0.010309033 -0.015421085
-0.10480046 0.012269126 -0.013030224
0.025805682 0.011110088 -0.015097692
0.032546632 0.011445585 -0.014684658
0.054165214 0.013570732 -0.01099657
0.094786771 0.011352474 -0.015363738
0.10344826 0.011967139 -0.014574541
0.11127508 0.014036626 -0.010482696
0.12086856 0.013336878 -0.012799209
0.1756013 0.014356146 -0.010872953
0.23080476 0.011620931 -0.016183214
0.24495821 0.013853774 -0.01316383
0.30788463 0.011050926 -0.0147865
-0.35043466 0.072718248 -0.019800745
0.34101787 -0.068109542 -0.0022385805
-0.13778602 -0.051213916 -0.0016387415
-0.090610653 -0.051885448 -0.0061617373
-0.050959229 -0.053451844 -0.004484605
-0.0052799759 -0.054915827 -0.0024525779
0.043012936 -0.054592896 -0.0023785555
0.051526982 -0.053361002 -0.0079131285
0.073954947 -0.052841172 -0.0096250502
0.086504415 -0.054022186 -0.0036333939
0.10692393 -0.054434452 -0.0010108792
0.13723457 -0.054151751 -0.0013422369
0.14430945 -0.053143453 -0.0058687236
0.16736078 -0.053736445 -0.0023057766
0.20425428 -0.052479275 -0.0070201969
0.24674915 -0.053171862 -0.00234331
0.25058874 -0.052160148 -0.0069930628
0.29082814 -0.051312942 -0.0092310319
0.31742382 -0.052804094 -0.0002650033
0.33790839 -0.050611276 -0.0086530028
0.35825518 -0.054177508 -4.1627914e-05
0.36973453 -0.053952135 -0.00636718
-0.23288462 -0.042530976 -0.0022236423
-0.22627021 -0.042928189 -0.0052733738
-0.19984215 -0.045782223 -0.0037653809
0.37363079 -0.045462206 -0.0099381329
0.389893 -0.041759089 -0.008872536
-0.27938128 -0.032617606 -0.0029344563
0.40554199 -0.03350671 -0.0028454412
-0.291641 -0.029607723 -0.0032014286
0.40053701 -0.027732339 -0.0032454315
0.3798036 -0.014324326 -0.0032225859
-0.28350139 0.0074592642 -0.0049111019
-0.25706521 0.0091129402 -0.0065246364
-0.27990186 0.012825267 -0.0043293438
-0.26225793 0.011445074 -0.0016897435
-0.23665756 0.011571005 -0.0022055381
-0.21383049 0.011585256 -0.0076036896
-0.20600569 0.012605853 -0.004650583
-0.16988187 0.01242461 -0.0092176627
-0.12849015 0.014292844 -0.0048467275
-0.11006711 0.013868864 -0.0071027009
-0.10252241 0.013960438 -0.0067142569
-0.068475939 0.015159528 -0.0010726968
0.0051011229 0.014463434 -0.0053332481
0.017265359 0.014178946 -0.0070355628
0.022258542 0.013772806 -0.009100589
0.12468421 0.014464919 -0.0088563068
0.15690252 0.014506303 -0.009611994
0.16558236 0.015306532 -0.0060901614
0.18557033 0.015752947 -0.0045729522
0.20502469 0.015232969 -0.0076018702
0.21355301 0.015219051 -0.0079193516
0.26312864 0.016042901 -0.0054939636
-0.33097556 0.02411185 -0.00058455166
-0.32093221 0.020983493 -0.00016288506
-0.30442786 0.024814965 -0.0044359979
-0.31314501 0.036583774 -0.0044659139
-0.30186737 0.0378079 -0.0043443521
-0.2932691 0.03546029 -0.0036304544
-0.33883116 0.045704693 -0.0010476832
-0.32986018 0.044955041 -0.0041348315
-0.30495867 0.0473141 -0.00378088
-0.296664 0.042219855 -0.0033484623
-0.34287941 0.051297288 -0.0013259294
-0.33832234 0.056642283 -0.0041921576
-0.32548738 0.057208911 -0.004697605
-0.32678568 0.069234431 -0.0058856178
-0.31032759 0.064905711 -0.00038829108
-0.37311071 0.070740536 -0.0037801568
-0.35997361 0.074335888 -0.0018768116
-0.33540988 0.072968662 -0.0026786763
-0.32420626 0.072426878 -0.0038740637
0.34193796 -0.060938999 0.0015651666
-0.14932542 -0.050317634 0.0032778759
-0.13110147 -0.051611248 0.0026276789
-0.048538722 -0.053299356 0.0068178163
-0.012078278 -0.053903677 0.0085444739
-0.0053053447 -0.054276794 0.0065655173
0.018066023 -0.05404368 0.006891313
0.085680038 -0.053243961 0.0084234606
0.13921247 -0.05445857 0.00017190774
0.14011973 -0.053933039 0.0033854207
0.1548606 -0.053180352 0.0064405305
0.17112049 -0.053898197 0.002526677
0.21940628 -0.052628845 0.0069060628
0.23843482 -0.052350208 0.0075893006
0.29388744 -0.052656811 0.0037173249
0.32331222 -0.051375158 0.0078254445
-0.2080964 -0.045735113 0.0013921817
-0.19908704 -0.045352664 0.007349188
-0.14711544 -0.049394272 0.0086371815
-0.26161161 -0.036125787 0.0070548817
-0.31078625 -0.020337787 0.0088842027
0.35880199 -0.0012938975 0.0023627095
-0.32607776 0.0074468991 5.6373221e-05
-0.31479612 0.0043372149 0.0054846508
-0.30376825 0.0061882543 0.0048623774
0.33375293 0.0085539091 0.0079592196
0.34241343 0.0048799696 0.0094127283
-0.29073542 0.019110909 0.0056946506
-0.2667236 0.01417081 0.0039381944
-0.23643431 0.011997888 0.0013843961
-0.22587368 0.012284263 0.0023865185
-0.21758935 0.01259857 0.0029673874
-0.14317001 0.014801714 0.0020961666
-0.061834902 0.015453341 0.00032424787
-0.039339416 0.01835335 0.00017034409
-0.0068063606 0.015148813 0.0028536839
0.055187184 0.015321691 0.0038645193
0.06067653 0.015605578 0.0026903509
0.10946155 0.015759232 0.0034029568
0.13449813 0.01616912 0.0022111416
0.15694095 0.01586403 0.0043069404
0.22560629 0.016202627 0.0047340323
0.26223674 0.015558249 0.0088424729
0.31605542 0.013452588 0.0061279768
-0.30859265 0.022732761 0.0052045621
-0.31363365 0.03539528 0.0053514163
-0.29857385 0.036920913 0.0049797483
-0.27868825 0.031926677 0.0012931901
-0.33721328 0.042536475 0.0022084042
-0.30990335 0.044344719 0.0055200658
-0.29050311 0.041566215 0.0026916841
-0.34394196 0.052923322 0.0016522575
-0.33592293 0.050795086 0.0048511326
-0.32834807 0.051850148 0.0053547309
-0.29885799 0.052687604 0.0015876791
-0.36537325 0.069378711 0.0040334081
-0.35464036 0.065566838 0.0037657842
-0.32676196 0.063126609 0.0053120805
-0.31962135 0.062174201 0.0048711235
-0.37161496 0.071722567 0.0050978865
-0.36004636 0.073012561 0.0079039102
-0.34085828 0.072723478 0.0041447468
-0.10487889 -0.050453909 0.012253205
0.23103561 -0.051274575 0.012894287
0.27777004 -0.051126644 0.012048556
-0.23508911 -0.040316846 0.010952868
-0.21323091 -0.041011322 0.014563476
-0.19909866 -0.042008843 0.01555129
-0.14251992 -0.046816535 0.016180368
-0.11018562 -0.049390126 0.014307188
-0.073707305 -0.046697848 0.019871876
-0.045159787 -0.048456095 0.018486608
0.030909559 -0.048140191 0.017247042
0.15060434 -0.049135823 0.017026654
0.16303375 -0.048315063 0.018062819
0.20877184 -0.047634047 0.018560395
0.21753076 -0.048024099 0.017922888
0.25129408 -0.048431806 0.017008264
0.26150206 -0.048311502 0.017074678
0.30226442 -0.048344478 0.016420832
0.32539433 -0.047543444 0.016836911
0.36318818 -0.047314543 0.011762258
-0.26488021 -0.031209307 0.014098132
-0.24583526 -0.035978615 0.014178433
-0.27561921 -0.024220966 0.016511256
-0.26615819 -0.024933685 0.018737867
-0.25806057 -0.026830643 0.019348074
0.38961279 -0.025720194 0.012095163
-0.31172812 -0.012371997 0.011558662
-0.29065168 -0.017406549 0.015928987
-0.30361116 -0.0033960887 0.01305667
-0.28533787 -0.0061170184 0.017165191
-0.26612151 -3.1341566e-05 0.017814975
0.35501638 -0.005416452 0.014583378
-0.25006437 0.0078220135 0.011952074
-0.2066029 0.0099722426 0.013778298
-0.16473033 0.0083439481 0.018559726
-0.11358836 0.0087172054 0.019255307
-0.019702695 0.008646314 0.019266762
0.30145258 0.0099594742 0.018407041
0.31448311 0.0099263377 0.01669351
0.33540493 0.0016725273 0.0195015
-0.1947408 0.010464115 0.014056429
-0.17554322 0.010402242 0.014981982
-0.13884848 0.011204965 0.015411321
-0.12316978 0.012891144 0.012845189
-0.041435663 0.011875118 0.013849132
-0.033195667 0.01342076 0.010577398
-0.01582247 0.01273969 0.013226302
0.029905297 0.013528825 0.01155602
0.072837181 0.013220796 0.013610923
0.16454791 0.014681155 0.010095295
0.17168739 0.012402498 0.015633546
0.18823868 0.014053328 0.013415266
0.19541106 0.014869626 0.010116413
0.27450776 0.015381774 0.0100335
0.29731146 0.014461195 0.010462528
0.30935031 0.011250779 0.015402836
-0.37522319 0.071572036 0.016418379
-0.35316393 0.07300438 0.019258091
-0.33462477 0.072448254 0.014222308
-0.17193735 -0.041301176 0.021222202
-0.10338145 -0.042036161 0.024690865
0.002918194 -0.04352922 0.025205452
0.031343251 -0.042340904 0.025822822
0.058515266 -0.046494238 0.024692137
0.062719367 -0.045600478 0.024404088
0.089993462 -0.044122487 0.024442546
0.14982027 -0.045466132 0.022207428
0.15334788 -0.040289763 0.026560884
0.33825216 -0.040309846 0.023742687
0.35360911 -0.040778432 0.021053355
-0.20348528 -0.031776741 0.025182888
-0.14563116 -0.035145998 0.028078496
-0.11882934 -0.034151096 0.029617114
-0.08745309 -0.035197914 0.029460812
-0.032436483 -0.036058716 0.029724546
-0.015313422 -0.035817251 0.028546102
0.0514821 -0.034559228 0.029195169
0.084311664 -0.035779499 0.029714443
0.09046039 -0.035951842 0.029579172
0.11687939 -0.037922725 0.028208707
0.19208033 -0.036295619 0.028950579
0.2010166 -0.036477901 0.028797872
0.21160147 -0.039796755 0.026625646
0.2619825 -0.03629636 0.028669622
-0.25118434 -0.020877793 0.0231754
0.36643684 -0.023909066 0.021522636
-0.26597172 -0.017130982 0.021353453
-0.2299926 -0.012384653 0.026442584
-0.21852449 -0.017079938 0.028392073
-0.20792094 -0.019526197 0.029063124
0.32828611 -0.012115521 0.029484347
0.35421622 -0.014490872 0.023630247
-0.25215137 -0.0060018003 0.022705363
-0.24206567 -0.0099285599 0.021280503
-0.2284269 -0.0097456938 0.023377599
-0.20932987 -0.0099215452 0.024595542
-0.16769457 -0.0011624107 0.028106693
-0.14107731 -0.00065079331 0.027966263
-0.12995148 -0.00028812076 0.027909581
-0.036750123 -0.0033325865 0.029573316
-0.02197814 -0.0007047921 0.027906615
0.018283729 -0.0011532876 0.028317153
0.083444938 -0.0029195622 0.029685374
0.091885716 -0.001387643 0.028754506
0.1445162 -0.0014282714 0.028987179
0.26914835 -0.00020427615 0.028707273
0.31150365 -0.00048075506 0.026912669
-0.2256327 0.0016405943 0.021430463
-0.17461681 0.0062359376 0.021364829
-0.14085649 0.0037565969 0.024742035
-0.13357483 0.0071804631 0.021590354
-0.12192236 0.0043050074 0.024839923
-0.11359484 0.005085933 0.023201283
-0.10260563 0.0060091075 0.023229096
-0.089510523 0.0070636198 0.021619795
-0.062908359 0.00021591922 0.027362529
-0.058755387 0.0032888157 0.02542487
-0.040912554 0.0059383195 0.023114024
-0.015759729 0.0062867319 0.0225941
-0.0010418753 0.0037615527 0.025148099
0.003098845 0.00054694491 0.027187575
0.026844814 0.0064291679 0.022768686
0.070920125 0.0085768104 0.020132834
0.086618379 0.0087001286 0.020097364
0.11695099 0.0049941 0.024836767
0.12750381 0.0061265263 0.024081342
0.15101171 0.0065457029 0.023698105
0.1896612 0.0084524481 0.021353485
0.20272486 0.0075140968 0.022790177
0.21375464 0.0031160887 0.026399702
0.24835482 0.008720641 0.021492615
0.28095889 0.0093853818 0.020663241
0.32318324 0.0046224059 0.021507349
-0.36322781 0.066777475 0.029023664
-0.34337443 0.067867145 0.027996197
-0.33843642 0.068873383 0.029489053
-0.34203583 0.072270378 0.021061862
0.009496741 -0.063726485 0.03780441
0.062461246 -0.042768259 0.037608288
-0.11967678 -0.033456698 0.030060528
-0.075406365 -0.033789463 0.03051994
-0.032713193 -0.037553184 0.037771728
-0.01548271 -0.033627387 0.031490531
0.0061379271 -0.034422867 0.032198071
0.016384618 -0.032736473 0.033502374
0.031048758 -0.033483069 0.035834186
0.057282962 -0.034822494 0.035705272
0.069320656 -0.030813769 0.031917267
0.073308006 -0.034785464 0.030396432
0.11775594 -0.032110505 0.03161823
0.16882914 -0.031407133 0.031689771
0.23291226 -0.032680083 0.031106945
0.25527462 -0.032827951 0.030922331
0.30246347 -0.0319646 0.03106302
-0.15147763 -0.025624514 0.031970084
-0.14062414 -0.025099186 0.032344349
-0.10582072 -0.027121745 0.032265782
-0.087260455 -0.025287505 0.032732133
-0.054354835 -0.026040616 0.032742254
-0.028676258 -0.027241122 0.03262791
0.0059455587 -0.024281925 0.033211906
0.016856741 -0.021477364 0.033723414
0.034512434 -0.027512845 0.032574851
0.061806545 -0.026403118 0.032750286
0.073199823 -0.020864516 0.033771984
0.10325983 -0.027371796 0.032520577
0.13847619 -0.023748619 0.0331567
0.18589269 -0.020789018 0.033654157
0.22168437 -0.026010593 0.032636508
0.25228342 -0.02397228 0.032981768
0.33429882 -0.022888303 0.030946339
-0.19171247 -0.013132126 0.03031959
-0.10799076 -0.017167525 0.033585265
-0.09319286 -0.017395405 0.033609312
-0.077075951 -0.012730373 0.032669365
0.0038234119 -0.014475305 0.033009335
0.035569839 -0.017552519 0.033617526
0.075125635 -0.011299003 0.032502208
0.19394335 -0.010997848 0.032584462
0.23012841 -0.012102366 0.032831378
0.24532956 -0.017331781 0.0338201
0.27052903 -0.014904388 0.033398557
0.31573737 -0.016740261 0.032444734
0.32177323 -0.012805541 0.030504657
-0.21833837 -0.0064321496 0.035818562
-0.19771686 -0.002300445 0.038609147
-0.1817601 -0.0043720659 0.039424092
-0.14172012 -0.0041745435 0.030379033
-0.096280932 -0.0053460249 0.031117003
-0.087152049 -0.0056591304 0.031286865
-0.067223713 -0.005701161 0.031233203
-0.0072962497 -0.0080610011 0.03180537
0.013808517 -0.0047015399 0.03053277
0.026902011 -0.0043966388 0.030392531
0.083391234 -0.0066051204 0.031269025
0.14109041 -0.0043187467 0.030792845
0.1731481 -0.005867999 0.031607784
0.2147035 -0.0059509254 0.031202173
0.30062333 -0.0035055769 0.030029915
-0.3746987 0.071759388 0.032421455
-0.36173937 0.072022431 0.037597559
-0.35623547 0.072002165 0.03387085
0.0079289097 -0.072901212 0.042793915
0.011071347 -0.070205823 0.049023058
-0.00193719 -0.061283473 0.043944515
0.0054608369 -0.06256865 0.046811204
0.00054288644 -0.051350832 0.049140159
0.0022187545 -0.045783889 0.044358142
0.030301642 -0.046025626 0.047625914
0.058359712 -0.040699709 0.047869183
0.063445814 -0.040768966 0.040677086
-0.024978947 -0.036036439 0.045558617
-0.23644471 -0.0044928477 0.043267511
-0.20301482 -0.0098070037 0.041470341
-0.24219905 0.0018204122 0.04727561
-0.22157286 0.0086441748 0.047976229
-0.21356353 0.008057287 0.045085229
-0.16988292 0.007765369 0.041447114
-0.19604479 0.014013532 0.044359818
-0.17197804 0.010737002 0.042176474
-0.34924924 0.068883121 0.042774603
-0.38641468 0.070737787 0.04914593
-0.37423494 0.071656547 0.043668192
-3.2026608e-05 -0.061055772 0.05417164
-0.021323906 -0.050828964 0.058577605
-0.021834053 -0.044233881 0.05622445
-0.011086369 -0.047715984 0.058498304
0.0057914341 -0.044564851 0.05504499
0.01793473 -0.045604199 0.055452004
0.024710502 -0.045354947 0.058392778
0.039622352 -0.045149773 0.05114783
0.051006582 -0.043991469 0.050740857
-0.034880541 -0.037461612 0.055127129
0.028739588 -0.033281215 0.054275721
0.051548712 -0.034460209 0.051358372
-0.21518478 -0.012864928 0.057803262
-0.20993069 -0.014587705 0.058730744
-0.17481527 -0.012890277 0.053204682
-0.16657652 -0.013771946 0.057220452
-0.20992167 -0.0099749025 0.054577123
-0.2100175 0.0054133208 0.054131765
-0.22734427 0.010878032 0.05634534
-0.188363 0.018693356 0.054410953
-0.3961367 0.06747549 0.059512712
-0.38412037 0.070803933 0.059051625
-0.023580676 -0.040185187 0.068289451
-0.010927836 -0.042924143 0.066040814
0.010730844 -0.044634391 0.064914435
-0.026105283 -0.039569005 0.061003003
-0.013004111 -0.034029651 0.061171815
-0.0031141953 -0.033204138 0.065039553
0.03463218 -0.033522908 0.069079153
-0.21468461 -0.011630943 0.066105962
-0.20328875 -0.01498515 0.063765571
-0.21824217 -0.0070816861 0.063795075
-0.16659464 -0.0016829735 0.067948505
-0.21002479 0.0065700165 0.066735454
-0.18007541 0.0094501115 0.064839527
-0.16675127 0.0099843834 0.065596163
-0.21427619 0.012045976 0.064461447
-0.20269081 0.013270237 0.067094937
-0.19246003 0.012339649 0.068268426
-0.177275 0.014377628 0.063388638
-0.39237493 0.066503197 0.063160174
-0.38405269 0.070775345 0.062468629
0.0092395497 -0.044112515 0.076830246
0.026170976 -0.04415467 0.070160776
0.039400257 -0.040279306 0.075081713
-0.027371656 -0.039001226 0.071854405
0.0074929683 -0.032265749 0.07294324
0.039344225 -0.036328517 0.079575665
0.043798301 -0.037436381 0.073031977
-0.19629109 -0.0029918693 0.072054744
-0.18484813 0.0027325 0.072139136
-0.014925364 -0.042786255 0.087282956
-0.0048906491 -0.04516083 0.087034181
0.0043903952 -0.043343171 0.086798579
-0.032790996 -0.035898156 0.086101331
-0.37568524 0.067133576 0.080084413
-0.015176449 -0.041377112 0.091798797
-0.0033514148 -0.04239637 0.095396034
0.0030665707 -0.042969696 0.095588617
0.024380857 -0.041740343 0.090191804
-0.025448347 -0.03676777 0.09589687
-0.013483116 -0.032311201 0.095772468
-1.6199105e-05 -0.031372525 0.095656455
0.0018988124 -0.031186052 0.095875189
0.011421826 -0.031686924 0.097481653
0.020479344 -0.032465074 0.098800734
0.0076995837 -0.041145198 0.1083717
-0.027878612 -0.033994611 0.10254955
-0.0057251872 -0.031240953 0.10150351
0.01839374 -0.032244518 0.10102562
0.024343561 -0.03478156 0.10019857
-0.029812476 -0.045745846 0.11439711
-0.0061169942 -0.041402496 0.11521292
-0.041035414 -0.034210961 0.11660846
-0.026558891 -0.036182843 0.11711898
-0.00097894319 -0.030487427 0.11496398
-0.046144236 -0.033110168 0.12899882
-0.032955348 -0.037530027 0.12918256
-0.023609612 -0.035438202 0.12451479
-0.018964713 -0.039637491 0.12832618
0.0038378807 -0.030920787 0.12062939
0.013183072 -0.035457645 0.12348763
-0.037421335 -0.043413222 0.13937724
-0.026767382 -0.04383792 0.13936803
-0.035300903 -0.031578459 0.13304079
-0.024086643 -0.030033289 0.13783883
-0.014772587 -0.039158661 0.13797992
-0.0096944273 -0.039391764 0.13279846
-0.022862898 -0.029960731 0.13738917
-0.0089415228 -0.029932026 0.13728547
-0.047744885 -0.033668298 0.14570571
-0.033149261 -0.037672296 0.14378375
-0.017617255 -0.038866561 0.14204793
-0.022116184 -0.029385883 0.14283344
-0.015586906 -0.029487249 0.14365473
-0.0074379398 -0.029994816 0.14604977
-0.04442279 -0.04046236 0.15850922
-0.040862106 -0.033250242 0.15566435
-0.014253132 -0.029398095 0.15617469
-0.051679626 -0.029934946 0.16535151
-0.050297104 -0.034589365 0.17468607
-0.057480883 -0.029489681 0.17572933
-0.048130758 -0.034353234 0.18536101
-0.054897457 -0.033120781 0.19924757
-0.03607541 -0.033146158 0.19618092
-0.03938891 -0.027203124 0.19012889
-0.051398024 -0.033343785 0.20136681
-0.065976843 -0.027968323 0.20435467
-0.058490645 -0.027101997 0.20413743
-0.03896955 -0.027152298 0.2059419
-0.042704005 -0.030431366 0.21585537
-0.055511788 -0.025633518 0.2177729
-0.063727781 -0.025374886 0.2260814
-0.061482981 -0.024829391 0.23640117
-0.067187183 -0.028363472 0.24677525
-0.056980114 -0.026711773 0.24511775
-0.08808662 -0.024944641 0.25662231
-0.066735089 -0.026468745 0.25310141
-0.090979122 -0.023387078 0.26015949
-0.073397666 -0.02353969 0.26034087
-0.1016898 -0.0054359455 0.27089545
