# .PCD v0.7 - Point Cloud Data file format
VERSION 0.7
FIELDS x y z
SIZE 4 4 4
TYPE F F F
COUNT 1 1 1
WIDTH 919
HEIGHT 1
VIEWPOINT 0 0 0 1 0 0 0
POINTS 919
DATA ascii
-0.20863812 -0.023939213 -0.31187621
-0.16693659 -0.023672691 -0.31662399
-0.078988463 -0.023449268 -0.31662399
-0.20377001 -0.010275524 -0.31662399
-0.19126564 -0.016886849 -0.31662399
-0.097818643 -0.016269829 -0.31662399
-0.093759596 -0.0002423781 -0.31662399
-0.16337219 0.00835294 -0.31594419
-0.14748268 0.00835294 -0.31265777
-0.12188295 0.0047637513 -0.310895
-0.13663149 -0.0298126 -0.30596218
-0.12524806 -0.0220103 -0.30290282
-0.19398572 -0.025655504 -0.29750931
-0.18362696 -0.0220103 -0.29033524
-0.067444921 -0.0220103 -0.29647869
-0.2007125 -0.024331581 -0.28962272
-0.079648271 -0.0220103 -0.28959873
-0.16812684 -0.0220103 -0.27854428
-0.15186387 -0.0298126 -0.2771585
-0.059643105 -0.0298126 -0.27739614
-0.17798895 -0.0298126 -0.26073736
-0.15899388 -0.0298126 -0.26992893
-0.13725379 -0.0220103 -0.26875371
-0.12804002 -0.0220103 -0.26317698
-0.11376669 -0.0298126 -0.2635901
-0.073364496 -0.0298126 -0.26204118
-0.028869487 -0.02207222 -0.26657417
-0.15704893 -0.0220103 -0.25805211
-0.1093907 -0.0220103 -0.25573498
-0.043610703 -0.0298126 -0.2527476
-0.026576761 -0.0220103 -0.25596398
-0.1788238 -0.02591145 -0.24631687
-0.14928502 -0.0298126 -0.24688253
-0.038955677 -0.0298126 -0.24475557
-0.025071427 -0.0298126 -0.24994901
-0.19611093 -0.023108205 -0.2374922
-0.18599574 -0.0298126 -0.23557124
-0.043541066 -0.0298126 -0.23059857
-0.018251315 -0.0298126 -0.23556483
-0.0034931144 -0.026764218 -0.23606914
-0.10617532 -0.030247726 -0.22185275
-0.16381128 -0.0298126 -0.22880708
-0.010460141 -0.029933402 -0.22371738
-0.14518917 -0.030688621 -0.21923725
-0.17531916 -0.022689236 -0.21027786
-0.11664889 -0.022524895 -0.21370445
-0.092985794 -0.03294865 -0.20583025
-0.086924791 -0.03360796 -0.20191906
-0.19275674 -0.023002164 -0.20375317
-0.183709 -0.022806272 -0.20783766
-0.010922471 -0.023051566 -0.20272331
0.014765915 -0.028621096 -0.20619158
-0.14237189 -0.023571456 -0.19188318
-0.051580101 -0.02361995 -0.19087219
-0.14240249 -0.03683503 -0.18277538
-0.15044495 -0.023996551 -0.1830197
-0.14801337 -0.023687765 -0.18945806
-0.016739182 -0.024130879 -0.18021926
-0.040228263 -0.03864301 -0.17204987
-0.070687458 -0.024496259 -0.17260085
-0.024823377 -0.040210359 -0.16275187
-0.11665992 -0.039739754 -0.1655439
-0.020318348 -0.024996303 -0.16217482
-0.11514931 -0.041597724 -0.15452191
-0.073018059 -0.040833883 -0.15905312
-0.02664572 -0.040798165 -0.15926486
-0.19377914 -0.030109527 -0.1585094
-0.15774927 -0.025170665 -0.15853889
-0.12636748 -0.025164526 -0.15866697
-0.081414253 -0.025142238 -0.15913199
-0.066713125 -0.025188893 -0.15815927
-0.18716767 -0.044041753 -0.14002346
-0.15497825 -0.04237701 -0.14989908
-0.1392142 -0.042938508 -0.14656809
-0.057559185 -0.042427436 -0.14959969
0.065804839 -0.043524384 -0.14309198
-0.30572054 -0.035878569 -0.14552474
-0.14881946 -0.025714437 -0.14720106
0.0054835738 -0.025928289 -0.14274263
0.029857634 -0.026934601 -0.14932992
-0.1690118 -0.044620275 -0.13659149
-0.15247029 -0.044181734 -0.139193
-0.044629473 -0.045265846 -0.13276148
-0.004341051 -0.026394635 -0.13301916
-0.14142235 -0.046645422 -0.12457772
-0.12280329 -0.047350176 -0.1203969
-0.068330757 -0.046760593 -0.12389432
0.034131166 -0.046566732 -0.12504408
0.046522025 -0.047266893 -0.12089048
0.06873104 -0.040025134 -0.12929448
-0.33576313 -0.034277808 -0.12243223
-0.32426518 -0.036907036 -0.12635556
-0.30290979 -0.03041885 -0.12229428
0.03176095 -0.026829585 -0.12792847
-0.27421287 -0.041363508 -0.11222
-0.13605011 -0.048927311 -0.11104086
-0.28062704 -0.039059099 -0.11389811
-0.081652582 -0.027425861 -0.11151772
-0.16545716 -0.050571155 -0.10128899
-0.12531486 -0.050322786 -0.10276242
0.0080255717 -0.050654117 -0.10079669
-0.191071 -0.043841351 -0.10231998
-0.15928684 -0.049449526 -0.10794286
-0.13480678 -0.049570601 -0.10722462
-0.0051702112 -0.049121451 -0.10988893
-0.191071 -0.032190308 -0.10274687
0.018484719 -0.027713973 -0.10551055
-0.18117788 -0.051818628 -0.093888566
-0.044997547 -0.05175801 -0.094248176
0.01780363 -0.051804591 -0.093971767
0.063921914 -0.052425161 -0.090290263
-0.27660856 -0.042651985 -0.099526122
-0.27653822 -0.030439891 -0.09823025
0.063348904 -0.032216471 -0.09726052
-0.11102236 -0.028285012 -0.093604177
0.018171133 -0.028219655 -0.094966933
0.06814754 -0.071332328 -0.08301606
0.14227083 -0.07294587 -0.086015232
0.015744336 -0.065228656 -0.080895722
0.12059473 -0.060510017 -0.085138172
-0.191071 -0.051846474 -0.082967162
-0.11217578 -0.053002805 -0.086863607
-0.072633438 -0.053262442 -0.085323341
0.082749017 -0.058075927 -0.083606862
-0.27935514 -0.046523251 -0.088063359
-0.076736376 -0.028540008 -0.088287398
-0.13065629 -0.06093207 -0.074972078
-0.015092798 -0.069035098 -0.079647996
-0.13548514 -0.0562906 -0.070902154
-0.11514029 -0.05421767 -0.079656631
0.0077496469 -0.056290604 -0.071419835
0.026758123 -0.056290597 -0.073290884
0.11311153 -0.055724032 -0.070720352
0.12509926 -0.0562906 -0.0754034
-0.19033131 -0.029162718 -0.075303428
-0.1657528 -0.029259598 -0.073283628
0.0089509264 -0.029383294 -0.070704579
-0.22228561 -0.074438408 -0.060136832
-0.089395687 -0.071516417 -0.064711928
-0.04854786 -0.070060134 -0.066408589
-0.031259872 -0.077631161 -0.062136821
-0.013070026 -0.070035353 -0.067237072
0.043110009 -0.072916977 -0.067029424
0.062759496 -0.077113606 -0.065297879
0.10445175 -0.074993491 -0.067726195
-0.30217093 -0.065020375 -0.063200042
-0.25684965 -0.057644285 -0.065398082
-0.2466947 -0.0562906 -0.066984572
-0.191071 -0.053683672 -0.060232591
-0.15744254 -0.055916883 -0.069576316
-0.11340503 -0.0562906 -0.068438843
0.10552812 -0.044004459 -0.061211728
-0.31880301 -0.032638818 -0.065998279
-0.3100448 -0.029700518 -0.064083949
-0.30007479 -0.029593317 -0.066318721
-0.14767958 -0.029633183 -0.065494359
-0.10779782 -0.029612467 -0.065926306
0.13345587 -0.095857769 -0.050720703
0.029574856 -0.084517255 -0.053449839
0.1211898 -0.08407405 -0.052598145
-0.29915375 -0.071968772 -0.055013586
-0.27112395 -0.075926155 -0.05714399
-0.23707116 -0.072205439 -0.052506916
-0.18608969 -0.070166625 -0.052438285
-0.12550221 -0.076491624 -0.056849819
-0.098819345 -0.070109524 -0.054672167
-0.086064108 -0.072607629 -0.055130899
-0.073625959 -0.0758508 -0.057587266
-0.06896092 -0.075221524 -0.058132522
-0.042700399 -0.073638201 -0.050037894
-0.018411938 -0.077965699 -0.056080732
0.012768565 -0.077819593 -0.058209613
0.14227065 -0.078223601 -0.053067096
-0.31843132 -0.064781614 -0.050152939
-0.30819732 -0.063583143 -0.050526176
-0.29792252 -0.061385982 -0.051210433
-0.22012715 -0.068689324 -0.052033357
-0.21793863 -0.069845848 -0.055566333
-0.1921075 -0.065049738 -0.054018095
-0.13570327 -0.064619258 -0.050203506
-0.081282951 -0.066688649 -0.054043997
-0.054514199 -0.061223384 -0.053040408
-0.34200799 -0.054039739 -0.050005753
-0.33547387 -0.058546908 -0.054515079
-0.27312404 -0.057714347 -0.051701766
-0.25126058 -0.057301644 -0.052320261
-0.24817941 -0.054407742 -0.056798857
0.19801633 -0.049633004 -0.052433036
0.22879557 -0.049342297 -0.057705693
0.23513621 -0.045683376 -0.055220902
0.2768023 -0.049900759 -0.057099421
-0.191071 -0.034227289 -0.057975084
-0.17014259 -0.030140568 -0.054915234
-0.08396624 -0.093338139 -0.043135449
0.056221075 -0.092847839 -0.047595903
0.12065664 -0.095027946 -0.043486774
-0.19198477 -0.082864031 -0.040023401
-0.14949659 -0.089447297 -0.043678991
-0.12721685 -0.082876727 -0.048985668
-0.11606866 -0.082975864 -0.049348161
0.11484808 -0.089480981 -0.049515463
-0.26345041 -0.075676881 -0.048341624
-0.2496731 -0.073293306 -0.049848698
-0.16025871 -0.073820621 -0.04651913
-0.11504436 -0.077596232 -0.044132322
-0.3420206 -0.069816329 -0.040712934
-0.30056342 -0.068593748 -0.048965737
-0.25842419 -0.066378258 -0.049655702
-0.13408065 -0.068669453 -0.048942164
0.12548715 -0.062832683 -0.043532088
0.15031229 -0.062686667 -0.044398282
0.24765226 -0.055463389 -0.042043734
0.29025406 -0.051145114 -0.049884852
-0.24558297 -0.049622834 -0.046335883
0.12636353 -0.049963385 -0.041273884
0.13580443 -0.044615693 -0.041872762
-0.31971967 -0.035957322 -0.040155977
-0.024265157 -0.030583346 -0.04568309
0.06028568 -0.10702014 -0.034750178
0.072303794 -0.10536516 -0.035981402
0.097585306 -0.10901171 -0.034262266
0.14337289 -0.10733488 -0.033576082
-0.21546732 -0.094839439 -0.03351444
-0.14963113 -0.093758866 -0.03899936
-0.11047123 -0.099015273 -0.034865066
-0.1047962 -0.097712532 -0.037179604
-0.28048986 -0.08594048 -0.0366899
-0.2280086 -0.087623373 -0.038048439
-0.19990437 -0.085536569 -0.037127562
-0.12426391 -0.086342379 -0.036254413
-0.069260649 -0.087195657 -0.035329837
0.13301101 -0.078368187 -0.03019784
-0.36401582 -0.050052896 -0.033471804
-0.19497478 -0.0562906 -0.03609968
0.13557796 -0.052764691 -0.038653433
-0.2533029 -0.034490556 -0.03918859
-0.075954013 -0.030940499 -0.038236391
-0.044060923 -0.031183822 -0.033162985
-0.022739407 -0.031193879 -0.032953322
0.04688761 -0.031025762 -0.036458611
0.062803924 -0.030439505 -0.032054052
0.1327232 -0.030772505 -0.032309584
0.24355865 -0.034380436 -0.039464004
-0.28996733 -0.029010966 -0.030957844
0.06573613 -0.11069628 -0.028146951
0.086365223 -0.11225773 -0.025119841
0.093953103 -0.11225672 -0.024827145
0.10490789 -0.11238429 -0.0280638
0.11676572 -0.11410472 -0.022673253
-0.17414105 -0.10128026 -0.024186026
-0.067883477 -0.10605012 -0.02349823
0.12650126 -0.10987005 -0.029595336
0.13847008 -0.10102461 -0.026332486
-0.33643359 -0.091661394 -0.028353909
-0.32557935 -0.094453685 -0.024491217
-0.30118191 -0.092808083 -0.026169747
-0.27729434 -0.092486426 -0.026782434
-0.091259927 -0.091912098 -0.027876381
0.14194208 -0.0980189 -0.025362633
0.14542618 -0.085291982 -0.020224594
0.12144839 -0.07935001 -0.026305405
0.16713488 -0.076625139 -0.029998016
0.23013151 -0.07709603 -0.024285454
0.24405679 -0.074743375 -0.021540277
-0.32041368 -0.028139114 -0.022787772
-0.12396546 -0.021098295 -0.023894295
-0.088346802 -0.025814326 -0.028504865
-0.068503998 -0.02509417 -0.027952246
0.0079330951 -0.027347241 -0.029681167
0.11773835 -0.023478376 -0.026712347
0.25624624 -0.022681974 -0.025958095
-0.31155497 -0.018365268 -0.020332703
-0.29275092 -0.019290825 -0.021538861
-0.032029249 -0.018411707 -0.020393223
0.10280653 -0.019322051 -0.021579551
-0.035825931 -0.11742554 -0.010920067
-0.023154641 -0.1103798 -0.014043545
-0.0019597467 -0.11550862 -0.01499244
0.0088150911 -0.11713126 -0.012107353
0.077065319 -0.11367464 -0.016910531
-0.15466416 -0.10742155 -0.012875799
-0.05411106 -0.10760376 -0.01920958
-0.3242009 -0.096479625 -0.01503637
-0.28710899 -0.09896268 -0.013496485
-0.23854047 -0.097000703 -0.011821898
-0.18280062 -0.097053178 -0.011518203
-0.17323266 -0.096993558 -0.010034735
-0.12198477 -0.09702301 -0.010767617
-0.082191288 -0.097005665 -0.010336159
-0.077906966 -0.096728973 -0.013027303
0.13567977 -0.0980189 -0.018256631
-0.34200799 -0.082796022 -0.0123795
-0.36412907 -0.074888654 -0.01616017
-0.35385346 -0.074260391 -0.015232266
0.26812857 -0.057461955 -0.019647406
-0.35039431 -0.044342503 -0.018769071
0.32376879 -0.044096723 -0.019287478
-0.34200799 -0.034230072 -0.015470727
-0.33848014 -0.027280916 -0.010157038
-0.32888356 -0.027537752 -0.016552508
-0.31880301 -0.023798771 -0.015429126
-0.28366581 -0.01698718 -0.018536825
-0.23775116 -0.015319373 -0.018326508
-0.0076122456 -0.016611001 -0.015315745
0.022181265 -0.012864877 -0.019040201
0.056916744 -0.010462029 -0.018984662
0.077576667 -0.016611001 -0.017803123
0.10378756 -0.010088271 -0.019011516
0.16305968 -0.016611001 -0.011450164
0.17446731 -0.017247003 -0.018875418
-0.022238743 -0.0064156298 -0.018811308
-0.019003771 -0.006276147 -0.012224982
0.010123694 -0.008831556 -0.018980239
0.031043487 -0.0012515854 -0.0175022
0.11333518 -0.0041243425 -0.017426457
0.17534889 -0.0095163528 -0.019028125
-0.25879863 0.0011890058 -0.016489204
-0.12332965 0.004314526 -0.014662727
-0.1033217 0.0069775768 -0.012559894
-0.099875174 0.0052595912 -0.013964457
-0.074826077 0.0071237055 -0.012415923
-0.054997753 0.0074226959 -0.012121348
-0.014737925 0.0018982938 -0.01295305
-0.0022024778 0.0081667043 -0.011388322
0.043577183 0.0061207055 -0.011527391
0.066146493 0.0035108037 -0.013210681
0.17171095 0.0029317234 -0.01554923
0.14209953 0.011175219 -0.013064331
0.1786039 0.015152112 -0.014135705
0.18428883 0.017014997 -0.012090793
0.090632774 0.027851066 -0.011545892
-0.11070317 -0.11032094 -0.0012902165
-0.098018616 -0.11117151 -0.0016076748
-0.043814041 -0.11595099 -0.0092778448
-0.016987719 -0.11935604 -0.0029205973
0.034747787 -0.11908002 -0.001232825
0.10723466 -0.11062025 -0.0052762199
-0.19344202 -0.10386345 -0.0036994261
-0.16790625 -0.10777988 -0.0034893651
-0.13460858 -0.103921 -0.0051021921
-0.10753964 -0.10919535 -0.0029260099
-0.071599752 -0.1021257 -0.0052035339
0.0014846842 -0.10586796 -0.0052762199
0.05326286 -0.10427368 -0.0052762199
-0.34200799 -0.091408819 -0.0026294705
-0.33504707 -0.095475696 -0.004796566
-0.3215507 -0.096254162 -0.0011589596
-0.29683813 -0.097745284 -0.0025734715
-0.24331449 -0.096648186 -0.0014361556
-0.22341971 -0.096469834 -0.0004664333
-0.21315897 -0.099729657 -0.0051882411
-0.18618944 -0.090059467 -0.0052762199
-0.17530744 -0.096468195 -0.0017393457
-0.10996766 -0.095867842 -0.0023994411
-0.084866151 -0.096713245 -0.0030567145
0.054748051 -0.095213294 -0.0052762199
-0.34200799 -0.080849305 -0.0093205813
-0.1139999 -0.08416114 -0.0052762199
-0.1081194 -0.08288759 -0.0052762199
0.065017447 -0.080951609 -0.0052762199
0.092261948 -0.083330661 -0.0052762199
0.13965733 -0.089891672 -0.0066467798
0.1971783 -0.083361261 -0.0052762199
-0.33796126 -0.076711617 -0.0052762199
-0.26226625 -0.077559151 -0.0052762199
-0.064342305 -0.074064828 -0.0052762199
-0.014756941 -0.072261333 -0.0052762199
0.004384696 -0.076086372 -0.0052762199
0.12254894 -0.072185613 -0.0052762199
0.21764705 -0.074481577 -0.0041606026
0.23147686 -0.074514523 -0.0038752481
-0.35475793 -0.064526148 -0.0094374456
-0.31659111 -0.062849641 -0.0052762199
-0.16207215 -0.066800095 -0.0052762199
-0.020210758 -0.067280903 -0.0052762199
0.007479623 -0.06496647 -0.0052762199
0.21339481 -0.069362968 -0.0052762199
0.29884133 -0.061869673 -0.0021404575
-0.22904405 -0.059104823 -0.0052762199
-0.13332735 -0.059495263 -0.0052762199
-0.0096121291 -0.050554838 -0.0052762199
0.21358177 -0.059078228 -0.0035880054
0.27809414 -0.052302934 -0.0036475558
-0.27669102 -0.048722886 -0.0052762199
-0.26051202 -0.043293614 -0.0052762199
-0.23037007 -0.040734764 -0.0052762199
-0.13873748 -0.049275815 -0.0052762199
0.1972087 -0.044903886 -0.0068057571
0.21104017 -0.045924108 -0.0052762199
0.28642854 -0.044372171 -0.0031988546
0.34490308 -0.045492806 -0.0068244613
-0.27577028 -0.039061528 -0.0052762199
-0.15416628 -0.035006262 -0.0052762199
-0.14524826 -0.039292376 -0.0052762199
-0.12846215 -0.035913508 -0.0052762199
-0.06252709 -0.034287129 -0.0052762199
0.056474738 -0.034565188 -0.0052762199
0.071919069 -0.031959459 -0.0052762199
0.13948019 -0.035400238 -0.0052762199
0.16867431 -0.035953112 -0.0052762199
0.21343586 -0.033757389 -0.0052762199
0.24355479 -0.030480495 -0.0030493136
-0.12353075 -0.029752411 -0.0052762199
-0.095607169 -0.028640877 -0.0052762199
-0.059397623 -0.024162006 -0.0052762199
0.19102477 -0.025045654 -0.0052762199
0.24251544 -0.025256265 -0.0086983517
-0.31880301 -0.015250625 -0.0073126978
-0.27536485 -0.014427213 -0.0052762199
-0.013761884 -0.01269837 -0.0052762199
0.084666193 -0.016611001 -0.0081539201
0.12654206 -0.014259869 -0.0052701011
0.13136986 -0.015925255 -0.0052700788
0.16437843 -0.012937583 -0.0052762199
0.20660537 -0.016748611 -0.0058721639
0.22096229 -0.016450385 -0.0054438892
0.24725676 -0.016000923 -0.007231791
0.26781201 -0.013449967 -0.0087830331
-0.28457791 -0.0052098669 -0.0052762199
-0.27514753 -0.007381795 -0.0052762199
-0.1853321 -0.0076477118 -0.0052762199
-0.016226869 -0.0092038363 -0.0052762199
0.025178041 -0.0077082454 -0.0052702464
0.081735834 -0.0044143111 -0.0052702292
0.095464028 -0.0068461909 -0.005270198
-0.28602037 0.000381233 -0.0052762199
-0.26488191 0.0087217279 -0.0052762199
-0.23928116 0.00091725867 -0.0052762199
-0.082337797 0.0041073086 -0.0052762199
-0.073555678 0.0089575127 -0.0052762199
-0.028596805 0.0066228118 -0.0073547126
0.11191321 0.0064409645 -0.0052733044
0.1535375 0.0024651065 -0.0052762199
0.24573709 0.00022729777 -0.00031650576
-0.24902353 0.01647467 -0.0043795016
-0.12932521 0.0148079 -0.0041067069
-0.084819049 0.014100421 -0.0011788281
-0.06816183 0.011538292 -0.0069792317
-0.055777751 0.010798594 -0.0081828441
-0.0049500316 0.0148079 -0.0024987168
0.045477651 0.019048879 -0.0052726548
0.075174138 0.014311938 -0.0052762199
0.16241834 0.010124104 -0.0052704201
0.20935977 0.010756931 -0.0052702012
0.22300953 0.011039106 -0.0028715939
-0.27863157 0.02360712 -0.0052762199
-0.23342073 0.024091255 -0.0052762199
-0.22167544 0.029507056 -0.0052762199
0.0025570036 0.020800177 -0.0052755945
0.095305987 0.02787094 -0.0052723642
0.13595298 0.029815413 -0.0052716057
0.14517812 0.029084733 -0.0052714394
0.17254712 0.023105487 -0.0052708117
-0.29126862 0.035076093 -0.0023099219
-0.26649514 0.032841593 -0.0052762199
-0.25010669 0.039248247 -0.0018456659
0.073256992 0.038438991 -0.0049737836
-0.2768867 0.042207491 -0.0015164837
-0.25631738 0.054531798 -0.0052762199
-0.24692166 0.050182343 -0.0052762199
-0.22456443 0.055112891 -8.0537786e-05
-0.25950968 0.065424658 -0.0052762199
-0.23430294 0.074836716 -0.0035176044
-0.27904677 0.08131884 -0.0018939199
-0.27395403 0.11693867 -0.0035850699
-0.109029 -0.11180921 0.0095479544
-0.084989302 -0.11268227 0.0039791879
0.00046756119 -0.11929693 0.0013628128
0.045304503 -0.11209478 0.0052762199
0.063695371 -0.11033927 0.0052762199
-0.25374779 -0.1024367 0.0056296033
-0.018880567 -0.10294959 0.0052762199
0.14869684 -0.100509 0.0074225911
-0.32703114 -0.096851029 0.0064856447
-0.31021821 -0.098663017 0.0012016478
-0.3080768 -0.09643276 0.00058550778
-0.26553372 -0.096550196 0.00020842324
-0.25480971 -0.096484877 0.0004181526
-0.22874001 -0.093634978 0.0052762199
-0.045428999 -0.098414376 0.0052762199
0.14412531 -0.090104632 0.0051368526
0.16971165 -0.09102384 0.0052762199
-0.29068094 -0.088409305 0.0052762199
-0.11464776 -0.085058682 0.0052762199
0.032203753 -0.086360931 0.0052762199
0.067474246 -0.084253296 0.0052762199
0.15509667 -0.089696281 0.0077087856
0.19928633 -0.08608073 0.0052762199
0.21463308 -0.082867116 0.0046517793
-0.34200799 -0.071263947 0.0038413953
-0.16450825 -0.071642905 0.0052762199
-0.13473392 -0.078590646 0.0052762199
-0.067793071 -0.07099589 0.0052762199
0.16963005 -0.079052657 0.0052762199
0.19168524 -0.070247561 0.0067810351
0.21403202 -0.073480912 0.0052762199
0.23357227 -0.076462425 0.003446036
0.28240871 -0.073968828 0.00055416062
-0.34200799 -0.069725387 0.0048295599
-0.17969182 -0.068046726 0.0052762199
-0.048810966 -0.068356954 0.0052762199
-0.033623323 -0.065555535 0.0052762199
-0.014969476 -0.069965132 0.0052762199
0.07953693 -0.062445931 0.0052762199
0.15406898 -0.060969587 0.0052762199
0.20563918 -0.064520627 0.005183564
-0.11831366 -0.050628189 0.0052762199
-0.031761784 -0.051659446 0.0052762199
0.011734783 -0.052892949 0.0052762199
0.060859583 -0.055073418 0.0052762199
0.11791202 -0.05761167 0.0052762199
0.19351855 -0.052347802 0.0061623463
0.33302662 -0.05718495 0.0067372536
0.35204479 -0.054574728 0.00033891184
-0.10782013 -0.045253772 0.0052762199
-0.083689392 -0.04340909 0.0052762199
-0.0033486551 -0.049891647 0.0052762199
0.0025434406 -0.04756137 0.0052762199
0.34576038 -0.04768949 0.0099118082
-0.32188964 -0.031603493 0.0049345014
-0.25182045 -0.036491197 0.0052762199
0.065445997 -0.036892898 0.0052762199
0.24279319 -0.03084253 0.00088934711
0.32863393 -0.036256161 0.0027155473
0.20697393 -0.026720773 0.0052762199
0.24238274 -0.023852028 0.0065271142
0.25569183 -0.025650274 0.0041733924
0.2970885 -0.027201422 0.0096147405
0.30635834 -0.026019914 0.00087010383
0.3138116 -0.029365819 0.0014486086
-0.21935955 -0.019584639 0.0052762199
-0.1337945 -0.013679987 0.0052762199
0.006030336 -0.019224461 0.0052762199
0.017521255 -0.015412825 0.0052700853
0.020229157 -0.016611001 0.0047989674
0.20359017 -0.010898866 0.0052762199
0.21412601 -0.011649806 0.0027314322
0.26225057 -0.017996885 0.0090886448
-0.23348525 -0.0025714319 0.0052762199
-0.18185768 -0.0045606531 0.0052762199
-0.083612837 -0.0085054766 0.0052762199
-0.079876699 -0.0097197425 0.0052762199
-0.028646143 -0.0090928636 0.0052762199
0.02439552 -0.0027495837 0.0052762199
0.047325782 -0.0031872671 0.0052762199
0.095279075 -0.008449696 0.0052762199
0.24205589 -5.9772283e-06 0.004359684
0.25420618 -0.0029953578 0.0039119436
-0.25366086 0.0091596469 0.0052762199
-0.2028511 0.00053284806 0.0052762199
-0.083742954 0.0085465778 0.0052762199
0.00040035928 0.0031102546 0.0052724294
0.040633172 0.0095527004 0.0098177399
0.051940307 0.0078772688 0.0052762199
0.11511434 0.0025689763 0.0052703209
0.14819515 0.00065763528 0.0052762199
-0.29296938 0.016137734 0.0052762199
-0.28006434 0.012091318 0.0059896191
-0.26991948 0.0146689 0.0045804172
-0.25028723 0.014189219 0.004633788
-0.16618417 0.014061594 0.0052762199
-0.14611118 0.013821858 0.0052762199
-0.074906811 0.0148079 0.0026122229
-0.014268343 0.012106219 0.0066960147
0.06253276 0.014947988 0.0037835345
0.078200802 0.011312809 0.0073829065
0.14639446 0.014778953 0.0017681221
0.15206884 0.017875265 0.0052706786
0.19990361 0.0148079 0.0048915315
-0.26387593 0.023710374 0.0052762199
-0.23980761 0.02810178 0.0030858354
0.0072841654 0.025129076 0.0040250956
0.011400662 0.026523285 0.0023669533
0.084429145 0.029616304 0.0052728588
0.14854349 0.026239805 0.0052712206
-0.29465741 0.038028605 0.0052762199
-0.2654525 0.032659456 0.0040730354
0.04508812 0.033380784 0.0023029665
-0.27542225 0.046017304 0.0052762199
-0.25040141 0.045486167 0.0011516726
-0.28752226 0.052593574 0.0052762199
-0.27956134 0.059376072 0.00039368955
-0.25881127 0.050223295 0.0052762199
-0.24566875 0.053749658 0.0052762199
-0.2234899 0.058199421 0.0019156531
-0.28513274 0.068761759 0.0014379397
-0.25068673 0.067262053 0.0012710823
-0.23701926 0.067115895 0.0052762199
-0.26386225 0.08062984 0.00189392
-0.2407594 0.088465638 0.0018939199
-0.28350979 0.093126014 0.0018939199
-0.29879418 0.10238314 0.0020768433
-0.042419747 -0.11507688 0.018587405
-0.031008113 -0.11140605 0.014233413
0.010833405 -0.11088391 0.016935563
0.033893649 -0.11341023 0.014604212
0.13702065 -0.11625056 0.015129709
-0.20223981 -0.10599573 0.012580436
-0.19315659 -0.10240248 0.015997864
-0.32433909 -0.098132424 0.01037719
-0.24245924 -0.096857421 0.012457522
-0.06084428 -0.09610638 0.015789181
-0.34200799 -0.081576943 0.010620043
0.11761416 -0.086993605 0.014939269
0.13761209 -0.085786194 0.017808076
0.15387844 -0.08577773 0.019315146
0.20144883 -0.087338619 0.016332328
0.24619618 -0.080261849 0.011594428
-0.357858 -0.052716006 0.01032933
-0.34200799 -0.027950445 0.019268252
-0.33249483 -0.027506497 0.015774164
-0.32365704 -0.027545251 0.016739195
-0.30243894 -0.010917498 0.018951938
-0.17869785 -0.01690953 0.018847635
-0.038005054 -0.013073526 0.018797025
0.0031750221 -0.012417004 0.019040201
0.15352653 -0.016611001 0.014401685
0.17889193 -0.014226608 0.018563319
0.22574681 -0.019966215 0.014418557
-0.24414216 -0.0092360973 0.019008528
-0.065400191 -0.0044518407 0.01842203
-0.050539829 -0.0037286913 0.018266786
0.0056487508 -0.0046581416 0.01668483
0.043580569 -0.001261684 0.017505921
0.063963108 -0.0055984273 0.018668182
0.16020234 -0.0095320456 0.019029222
-0.27889925 0.0031776098 0.015416607
-0.26124752 0.0077553359 0.011793617
0.19418347 0.0034778018 0.015254691
0.037878707 0.015221294 0.010000236
0.14962977 0.016864549 0.013283711
0.14703839 0.020705294 0.013206083
0.1226614 0.030867839 0.012478344
0.012527028 -0.11040026 0.028644843
0.026696995 -0.11009782 0.023421682
0.061433099 -0.11096371 0.027605694
-0.19737437 -0.10028767 0.024364263
-0.34181774 -0.092633478 0.026502348
-0.30632702 -0.092639968 0.029652029
-0.24517831 -0.095105797 0.025464203
-0.23954596 -0.092827238 0.026133286
-0.21458869 -0.097330891 0.028846873
-0.19035058 -0.092649609 0.026471619
-0.17992225 -0.09426491 0.023394879
-0.16307834 -0.094623208 0.022368643
-0.13987456 -0.09369386 0.024482584
-0.10332993 -0.093778938 0.024320539
-0.053827703 -0.092129067 0.02746311
0.11977994 -0.080852225 0.024347736
0.13661423 -0.081448376 0.023570845
0.14771377 -0.080906421 0.024277119
0.15502855 -0.081916288 0.025146678
0.22055814 -0.077187531 0.027824862
-0.357858 -0.068646714 0.029401219
0.26573947 -0.068329789 0.020243693
0.26333249 -0.059086055 0.020892281
-0.35125101 -0.048658922 0.028283766
-0.29830751 -0.023204053 0.026501842
-0.28589073 -0.021613993 0.024566334
-0.25824741 -0.024639502 0.027603352
-0.17659715 -0.027227964 0.029589638
0.19188517 -0.027173314 0.029547703
0.25707674 -0.026016274 0.028659835
-0.087921254 -0.10055921 0.033922851
-0.028691232 -0.10915369 0.030761965
0.0031656064 -0.10118826 0.039512545
0.107058 -0.100509 0.038585961
0.13284767 -0.100509 0.037597802
-0.31230229 -0.09043666 0.030686719
-0.28614566 -0.093214296 0.030346556
-0.13219963 -0.099698767 0.031638
-0.067980707 -0.090472899 0.030617699
0.14493158 -0.0980189 0.031652838
-0.2270596 -0.087842539 0.034628917
-0.19075237 -0.089836881 0.031829149
-0.1195759 -0.089692779 0.03210362
-0.36674905 -0.078252785 0.031143764
0.19681227 -0.066642433 0.034728538
0.25825304 -0.055014193 0.038877107
-0.34447256 -0.047547363 0.033725481
0.0040027248 -0.031158889 0.03368289
0.012499199 -0.031114303 0.034612495
0.072415918 -0.032560885 0.033755206
0.12590496 -0.031125221 0.032580245
0.011860081 -0.029823463 0.031581324
-0.024524562 -0.10040715 0.04328607
-0.13204625 -0.09217342 0.041703019
0.01291856 -0.099869862 0.043592401
0.04431016 -0.096845038 0.046524767
0.062956855 -0.095051825 0.046339326
0.12590796 -0.090394989 0.046128064
0.13160169 -0.094095498 0.046884567
0.14998835 -0.091971308 0.045229398
0.1532436 -0.097374007 0.045015372
-0.32681933 -0.082716368 0.040183403
-0.20555285 -0.08302325 0.043211415
-0.13796647 -0.084885806 0.047305591
0.027689278 -0.08893162 0.049828671
-0.34200799 -0.073643699 0.043333661
-0.2298564 -0.071141876 0.048172187
-0.14518371 -0.076080084 0.04509078
-0.19107099 -0.05470546 0.046371266
0.15412658 -0.056334198 0.042386323
0.29051751 -0.05116054 0.049588539
-0.191071 -0.04536644 0.041061372
0.16678682 -0.043750949 0.047006093
0.18804419 -0.042974371 0.048391622
0.19202036 -0.043052837 0.048784751
0.23638438 -0.040098563 0.048494712
-0.18997557 -0.030520312 0.046997342
-0.15512286 -0.030611381 0.045098528
0.069157094 -0.032120742 0.042180844
0.18388782 -0.036705654 0.042603109
0.24284461 -0.038438316 0.047589149
-0.078031763 -0.080614805 0.051930543
-0.050008334 -0.080584437 0.052652165
0.053225715 -0.085762702 0.051635385
0.083429888 -0.083518632 0.055129498
0.095261618 -0.085292555 0.054877724
-0.26709127 -0.077723101 0.057397984
-0.2299481 -0.07230819 0.050656762
-0.21098775 -0.075655997 0.055690669
-0.19475134 -0.070011601 0.052266445
-0.18412758 -0.074017681 0.05813681
-0.16827381 -0.070514373 0.055581033
-0.15511122 -0.075272143 0.058130495
-0.015334845 -0.077850811 0.057558931
0.015223939 -0.07586024 0.058106896
0.038962476 -0.077818558 0.056125753
0.067326561 -0.076934926 0.057492416
-0.33684376 -0.061373543 0.051214304
-0.31518102 -0.066801302 0.054692388
-0.2793014 -0.06868314 0.054410242
-0.22997841 -0.06733495 0.054418981
-0.21325326 -0.065269381 0.051672731
-0.19887221 -0.066533804 0.054015562
-0.152503 -0.061900444 0.053164735
-0.31198668 -0.058980051 0.052628465
-0.28254607 -0.05582457 0.054344319
-0.26756892 -0.056290597 0.053325996
-0.24446072 -0.055212639 0.050993141
-0.22295946 -0.055960156 0.05476889
-0.2177729 -0.056290597 0.058001913
-0.191071 -0.050743911 0.059201546
-0.16292945 -0.056290597 0.052836411
-0.10589775 -0.056280546 0.052132756
0.26333499 -0.052084193 0.059576385
-0.32565227 -0.04752538 0.051220126
0.19201878 -0.046826974 0.051406417
0.23423484 -0.049893595 0.058647774
-0.30646873 -0.03011686 0.055404887
-0.29117036 -0.030271091 0.052189786
-0.191071 -0.033712137 0.05456692
-0.051127367 -0.030332625 0.050910626
0.088146403 -0.036537737 0.058889605
-0.068907678 -0.071070693 0.065414809
0.002422668 -0.074348472 0.065349363
0.075527668 -0.077619329 0.062383495
0.084272429 -0.075169787 0.066803679
0.11865425 -0.077486038 0.065161668
-0.31656063 -0.063831277 0.063487858
-0.19791725 -0.069989488 0.063011542
-0.16515791 -0.065074712 0.066321522
-0.31725985 -0.052652232 0.067359298
-0.27501804 -0.0562906 0.060054097
-0.24109265 -0.0562906 0.065436229
0.0018885732 -0.056290597 0.069269218
0.097007014 -0.055904772 0.069648154
-0.30328983 -0.037973493 0.067359298
-0.28246465 -0.029565465 0.069895603
-0.18420681 -0.029546525 0.067300953
-0.14998868 -0.029672194 0.064680733
-0.1290859 -0.0296258 0.065648079
-0.031803541 -0.029727578 0.063525952
0.028176006 -0.071622998 0.073494725
0.034914665 -0.071920767 0.072024882
0.052162349 -0.072682917 0.075590774
0.078791037 -0.073859595 0.072385639
0.10704464 -0.075108074 0.073679909
0.13119942 -0.076175429 0.075095236
-0.1940998 -0.060451828 0.072405025
-0.12778121 -0.064731523 0.071192011
-0.11326637 -0.065372907 0.070545211
-0.11928897 -0.055109486 0.074366063
-0.073470719 -0.055156492 0.074087232
-0.05384402 -0.0562906 0.075005598
-0.033722304 -0.054867111 0.075803921
-0.026642337 -0.058174878 0.079180688
0.042481318 -0.055674046 0.071016915
0.15328777 -0.0562906 0.07513427
-0.29797441 -0.029582407 0.071931332
-0.16221869 -0.029243033 0.073628828
-0.12369313 -0.02923085 0.073882885
0.044749826 -0.029396217 0.070435151
0.040925466 -0.07061746 0.081914604
0.15817817 -0.074890397 0.083801351
-0.18200727 -0.0533906 0.084563106
-0.16171061 -0.052888382 0.087542415
0.017969152 -0.053762995 0.082353905
0.022053894 -0.053078748 0.0864131
0.064695008 -0.053528633 0.083744183
0.10505687 -0.052750163 0.088362142
0.12157819 -0.058780801 0.083740808
-0.3252424 -0.044337548 0.083576448
-0.29288903 -0.046051748 0.089160815
-0.17128666 -0.028499328 0.089135222
-0.060122952 -0.051526044 0.09562429
-0.055887636 -0.051700227 0.094590947
-0.016813114 -0.050850809 0.099629968
0.083038792 -0.05161636 0.095088229
0.10233712 -0.051563904 0.095399365
-0.31455788 -0.043369353 0.096498057
0.07419192 -0.035326444 0.090752147
-0.291327 -0.029818241 0.091717765
-0.18003973 -0.028272577 0.093863063
-0.13384458 -0.028360875 0.092022002
-0.075463504 -0.028334998 0.092561662
-0.021286745 -0.028214 0.095084742
-0.016014978 -0.028178386 0.095827363
0.0071946457 -0.028275074 0.093811415
-0.31635123 -0.041324832 0.10333699
0.089984812 -0.049194045 0.10945803
0.067603216 -0.03411945 0.10131827
-0.00023791788 -0.027752763 0.10470176
-0.191071 -0.046701178 0.11238045
-0.10005077 -0.048014291 0.11645713
0.01093336 -0.047578119 0.11904431
0.069606155 -0.048182923 0.1154563
-0.32566103 -0.039553273 0.11028655
-0.30533022 -0.038265139 0.11739061
-0.28392646 -0.039012916 0.11403076
-0.16992712 -0.027230173 0.11559738
0.048032239 -0.029599121 0.11188954
-0.15840775 -0.04667611 0.12439572
-0.32370234 -0.030530771 0.12690344
-0.047765888 -0.026623745 0.12824214
0.00019581057 -0.026830819 0.12392459
-0.1848468 -0.04462995 0.13653414
-0.17999695 -0.044841792 0.13527744
-0.059756387 -0.044577003 0.13684793
-0.024361093 -0.045406815 0.13192517
-0.33884826 -0.030740516 0.1342494
-0.15930107 -0.026178617 0.13752285
-0.14872523 -0.026451347 0.13183632
-0.052071549 -0.026408952 0.13272065
-0.031126184 -0.026342543 0.13410531
-0.09504094 -0.042460125 0.14940588
-0.34213251 -0.030987607 0.14218977
-0.19295539 -0.035519887 0.14994089
-0.068223536 -0.025877297 0.14380583
-0.023745587 -0.025846802 0.14444169
-0.13321169 -0.041746836 0.15363742
-0.089412697 -0.040869262 0.15884328
-0.027818307 -0.040847912 0.15896976
0.019933978 -0.040744223 0.15958475
0.042436872 -0.041455656 0.15536427
-0.1283305 -0.025146514 0.15904284
-0.19150388 -0.038764134 0.16911659
-0.15978733 -0.03902974 0.16975585
-0.077723771 -0.039183889 0.16884129
-0.11142321 -0.024941606 0.16331528
-0.092102446 -0.024828928 0.16566469
0.028000848 -0.027346795 0.16822729
-0.15806504 -0.024256468 0.1776005
0.032250106 -0.029947303 0.1726203
-0.18602474 -0.03713949 0.18096924
-0.16884848 -0.037152544 0.1808918
-0.028868224 -0.035827592 0.18875162
-0.17774817 -0.035547264 0.19041468
-0.1283271 -0.034330793 0.19763106
-0.17468946 -0.023475075 0.19389284
-0.10484524 -0.023480114 0.19378793
-0.069343224 -0.023307256 0.19739205
-0.16669138 -0.022706419 0.20991968
-0.097852975 -0.022848254 0.20696241
-0.087090001 -0.022894992 0.2059879
-0.1147733 -0.031374499 0.21516848
-0.19896491 -0.022962283 0.22466189
-0.17210734 -0.0220103 0.22618663
-0.027338762 -0.0298126 0.23980838
-0.20394541 -0.022096792 0.24264133
-0.086229205 -0.0298126 0.24122781
-0.041119672 -0.0298126 0.24284178
-0.033755004 -0.0220103 0.24284552
-0.029016891 -0.0220103 0.24133116
-0.015024567 -0.025256516 0.2458837
-0.089214936 -0.0298126 0.25043097
-0.068929836 -0.0298126 0.25950712
-0.19350281 -0.0220103 0.26190981
-0.15191707 -0.0220103 0.26184034
-0.10469402 -0.0298126 0.26958022
-0.061982445 -0.0220103 0.26858866
-0.021930391 -0.024889622 0.26249492
-0.16088913 -0.0298126 0.27259284
-0.13111225 -0.0220103 0.27010125
-0.031871822 -0.026408048 0.27646047
-0.21183838 -0.022568766 0.28811356
-0.20376876 -0.0220103 0.28537294
-0.19301814 -0.0220103 0.2841354
-0.14975035 -0.0220103 0.28802183
-0.082556248 -0.0298126 0.28596705
-0.12278384 -0.0220103 0.29647666
-0.20451887 -0.022993695 0.30556369
-0.15621109 -0.0220103 0.30988833
-0.13336356 -0.0220103 0.30636737
-0.11392708 -0.02591145 0.30383471
-0.10129268 -0.0298126 0.30868274
-0.18275052 -0.021196622 0.31662399
-0.17636849 -0.021637712 0.310895
-0.1399242 -0.026987324 0.31662399
-0.12849285 -0.02168382 0.31662399
-0.11898792 -0.028432753 0.31662399
-0.092192292 -0.026146265 0.31662399
-0.14117411 -0.011467747 0.310895
-0.13686314 -0.014920449 0.31375951
-0.12942512 -0.013381836 0.31662399
-0.19824539 -0.00032784231 0.31662399
-0.16546771 -0.0093668168 0.310895
-0.14471671 0.00835294 0.31609222
