# .PCD v0.7 - Point Cloud Data file format
VERSION 0.7
FIELDS x y z
SIZE 4 4 4
TYPE F F F
COUNT 1 1 1
WIDTH 846
HEIGHT 1
VIEWPOINT 0 0 0 1 0 0 0
POINTS 846
DATA ascii
-0.33054331 0.012904 -0.23558272
-0.2882621 0.012904 -0.22593611
-0.27749351 0.012904 -0.2203155
-0.31611478 0.012904 -0.21094738
-0.35027018 0.012904 -0.20242241
-0.33489427 0.012904 -0.20541675
-0.25149459 0.012904 -0.20745966
-0.34156668 0.012904 -0.19859712
-0.32450446 0.012904 -0.19423954
-0.28109771 0.012904 -0.19788927
-0.23730183 0.012904 -0.19389157
-0.31464523 0.012904 -0.18645376
-0.29261768 0.012904 -0.18835184
-0.21231943 0.012904 -0.18020006
-0.19816436 0.012904 -0.17451742
-0.24430534 0.012904 -0.16252631
-0.2347122 0.012904 -0.16227885
-0.34534562 0.012904 -0.15737824
-0.30668426 0.012904 -0.15576373
-0.25847581 0.012904 -0.15365534
-0.2376267 0.012904 -0.15664871
-0.17131111 0.012904 -0.15539202
-0.32742107 0.012904 -0.14274925
-0.2941246 0.012904 -0.14280637
-0.28070694 0.012904 -0.14505397
-0.27313232 0.012904 -0.14536881
-0.23418713 0.012904 -0.14385483
-0.17793719 0.012904 -0.14719698
-0.25247052 0.012904 -0.13200462
-0.33689463 0.012904 -0.12075681
-0.16198845 0.012904 -0.12584586
-0.1072831 0.012904 -0.12537397
-0.36221266 0.012904 -0.11392014
-0.33169088 0.012904 -0.11812831
-0.16126858 0.012904 -0.11132649
-0.10271733 0.012904 -0.11545755
-0.091629364 0.012904 -0.11650386
-0.070545368 0.012904 -0.1163616
-0.29437754 0.012904 -0.10640875
-0.25429508 0.012904 -0.10567101
-0.22465496 0.012904 -0.10425012
-0.095172644 0.012904 -0.10975131
-0.35665897 0.012904 -0.093265876
-0.32598007 0.012904 -0.096969552
-0.28392518 0.012904 -0.096411847
-0.27035925 0.012904 -0.09734562
-0.21983868 0.012904 -0.090965211
-0.16328955 0.012904 -0.091687039
-0.14107634 0.012904 -0.094702944
-0.10982541 0.012904 -0.091787055
-0.059720866 0.012904 -0.099326059
-0.3601737 0.08048211 -0.095461816
-0.35430157 0.012904 -0.08770404
-0.31931856 0.012904 -0.085651599
-0.30310348 0.012904 -0.08480867
-0.27656367 0.012904 -0.08201842
-0.24608436 0.012904 -0.086093999
-0.13674685 0.012904 -0.082059927
-0.094998896 0.012904 -0.088375583
-0.045808807 0.012904 -0.086530089
-0.36942044 0.080482103 -0.084207609
-0.34357944 0.080482103 -0.084314264
-0.35173205 0.012904 -0.076521404
-0.31226283 0.012904 -0.0754015
-0.30703589 0.012904 -0.070380211
-0.1326464 0.012904 -0.078972228
-0.03231293 0.012904 -0.078807928
-0.027327787 0.012904 -0.076757491
-0.0089443736 0.012904 -0.07362885
-0.35224465 0.080482103 -0.079967171
-0.089100324 -0.011173387 -0.062928118
-0.06255348 -0.01390186 -0.062846154
-0.0090252208 -0.01317 -0.064570419
0.0022518206 -0.01172995 -0.068130203
-0.065787405 -0.0060846205 -0.068130203
0.0249185 -0.0081200767 -0.061345451
-0.33707485 0.012904 -0.066477053
-0.26166648 0.012904 -0.066689737
-0.23090407 0.012904 -0.06794288
-0.10268137 0.012904 -0.060335293
-0.075490505 0.011856669 -0.065967597
-0.056883842 0.01499963 -0.068130203
-0.0062900591 0.012904 -0.069771141
0.015488774 0.014659839 -0.064282462
-0.062820703 0.020848593 -0.060925249
-0.11880848 -0.010486463 -0.055535942
-0.048681088 -0.01317 -0.052575737
-0.14070462 -0.0079461746 -0.051402863
-0.085548721 -0.00572039 -0.050926983
-0.074202657 -0.00572039 -0.054503638
-0.28897095 0.012904 -0.058735974
-0.27672106 0.012904 -0.053023819
-0.19078879 0.012904 -0.05353881
-0.12802999 0.014237952 -0.054233685
-0.040392477 0.01335622 -0.057495739
-0.3350594 0.080482103 -0.059792843
-0.10724579 -0.011131629 -0.044610199
-0.061334632 -0.01317 -0.048275352
-0.013835151 -0.01317 -0.046061009
-0.16855596 -0.0047051231 -0.045182578
-0.13806108 -0.0096158162 -0.046598215
0.0249185 -0.0027011638 -0.046639603
-0.27807742 0.012904 -0.046016663
-0.2681599 0.012904 -0.048234105
-0.25652283 0.012904 -0.040210344
-0.21863973 0.012904 -0.044348769
-0.16216312 0.011378095 -0.046610553
0.020446127 0.019747606 -0.042060569
0.054627769 0.013863046 -0.04907475
-0.13393839 0.020885572 -0.043773174
-0.12248263 0.021062274 -0.040267766
-0.092014268 0.021235192 -0.041138507
-0.079760246 0.021226814 -0.044162706
-0.0015417086 0.020855483 -0.041239195
-0.37624818 0.080482103 -0.043331385
-0.32108507 -0.016874596 -0.031497955
-0.29773003 -0.016046321 -0.03184104
-0.16332337 -0.011180368 -0.033588175
-0.15886691 -0.016450232 -0.031673737
-0.13907091 -0.014367521 -0.032536417
-0.10171115 -0.011403879 -0.039750911
-0.096493185 -0.016807854 -0.031525604
0.025434241 -0.010985433 -0.033613838
0.14804862 -0.012602553 -0.033267491
0.19329062 -0.017968863 -0.031044699
0.20526008 -0.018078554 -0.030999264
0.22878359 -0.011819991 -0.033503957
0.26035261 -0.017183237 -0.031370118
-0.36501959 -0.0073744729 -0.034089264
-0.35125682 -0.0087758806 -0.033904754
-0.30431277 -0.0056868633 -0.034140542
-0.29090008 -0.001398711 -0.034298554
-0.27614027 -0.008436596 -0.033949427
-0.23236452 -0.001662225 -0.0301673
-0.2147363 -0.004467722 -0.032148324
-0.20463188 -0.0031159259 -0.037125506
-0.19687858 -0.0080455737 -0.034000907
-0.18095811 -0.00572039 -0.033470739
-0.17193308 -0.0087241419 -0.033911563
-0.15902171 -0.00572039 -0.035865847
-0.14704242 -0.002391214 -0.0301673
-0.13968502 -0.00545432 -0.030026747
-0.11550043 -0.009394004 -0.033823367
-0.058252536 -0.0071634785 -0.034117047
-0.01188653 -0.0044427123 -0.034349911
-0.0054600239 -0.0095346831 -0.033804849
0.049660206 -0.0038625088 -0.034551658
0.055344656 -0.0057761963 -0.034299698
0.092800513 -0.0034073503 -0.034435116
0.13223645 -0.001520084 -0.034314539
0.17117761 -0.0031642965 -0.03453102
-0.37372142 0.00011746679 -0.034098934
-0.28906572 0.0077862479 -0.032287017
-0.24639124 0.0043850439 -0.033537056
-0.23344131 0.0073146215 -0.030691577
-0.22783974 0.0072893435 -0.0301673
-0.19539759 0.0057917493 -0.035072327
-0.17475651 0.0071963333 -0.031020962
-0.15544197 0.0006317884 -0.03403122
-0.14876586 0.0099644028 -0.0301673
-0.12653697 0.003988083 -0.03167218
-0.10709371 0.0093723852 -0.0301673
-0.097911298 0.00083335815 -0.0301673
-0.074894756 0.0030913241 -0.033707391
-0.068050005 0.002986863 -0.032448947
0.035300069 0.0069015091 -0.032533757
0.069610432 0.0084181568 -0.032025285
0.095863521 0.0035499367 -0.033647012
0.14156576 0.0043540918 -0.033541135
0.26457268 0.0088106357 -0.030966289
-0.36147699 0.012904 -0.035474952
-0.32394558 0.01158054 -0.030715462
-0.29760888 0.012058514 -0.030738492
-0.25394607 0.012904 -0.030588139
-0.22827773 0.012904 -0.034106351
-0.21626221 0.011271383 -0.030488381
-0.20660938 0.01041961 -0.036684133
-0.19470142 0.014547987 -0.0301673
-0.14712393 0.011444177 -0.030771941
-0.03113577 0.016582953 -0.0301673
0.016730435 0.016201796 -0.0301673
0.0249185 0.010525045 -0.031342715
0.047872156 0.0123718 -0.037897315
0.055459328 0.0123718 -0.034998838
0.078422427 0.011183555 -0.030879889
0.1872144 0.012755802 -0.030228682
0.2113097 0.011824186 -0.030614547
0.24651624 0.012067038 -0.030513961
-0.19923931 0.020239551 -0.030167298
-0.16608731 0.020817069 -0.038943958
-0.11373289 0.021064777 -0.0301673
-0.097123556 0.021432955 -0.033210836
-0.055245105 0.021593247 -0.037062995
-0.039786123 0.021682296 -0.037459798
-0.0031011123 0.021913972 -0.037702385
0.021538854 0.021607332 -0.034184538
-0.33375359 0.080482095 -0.038195565
-0.12737353 -0.030222353 -0.020620955
-0.29326659 -0.029257119 -0.021878861
-0.074610233 -0.027033895 -0.024776204
-0.010271981 -0.023198918 -0.027779678
-0.0046236366 -0.020895425 -0.02954709
0.017986938 -0.023405496 -0.027621172
0.059112869 -0.027453195 -0.024229763
0.076508507 -0.028299998 -0.023126192
0.12398498 -0.028313657 -0.023108395
0.1460572 -0.028979175 -0.022241084
0.15665457 -0.029098194 -0.022085978
0.17804855 -0.029664626 -0.021347791
0.19820169 -0.029225655 -0.021919867
0.21664736 -0.021559862 -0.029037286
-0.028378688 -0.01317 -0.027710186
-0.38924101 -0.0060260855 -0.020008631
-0.21673091 -0.00545432 -0.029718241
0.26047 -0.0059383819 -0.024867114
0.34850645 -0.0024564178 -0.020141106
0.29605865 0.0040178546 -0.026071705
0.30467466 0.00083859731 -0.025003389
-0.38053867 0.012904 -0.025969759
-0.37558731 0.015096677 -0.023561209
-0.31408 0.012904 -0.02316777
-0.2884092 0.012904 -0.026076473
-0.23506913 0.018677384 -0.023342256
-0.22376841 0.012904 -0.029509269
-0.21614483 0.014039377 -0.028200742
-0.19974652 0.012904 -0.029340977
-0.18438952 0.012904 -0.025183691
-0.14662737 0.016392428 -0.026295004
-0.12187976 0.016241033 -0.024387313
-0.1007707 0.013762746 -0.028679889
-0.094710656 0.012904 -0.028002456
-0.088431269 0.012904 -0.024451165
-0.060673565 0.015197207 -0.028407646
-0.026716933 0.012904 -0.024299618
-0.0023414695 0.012904 -0.022414986
0.0071366504 0.01667433 -0.025004255
0.039815005 0.017336223 -0.02676631
0.052090526 0.014939466 -0.02860542
0.07315211 0.014635365 -0.027168447
0.085609794 0.015775936 -0.025521321
0.12487432 0.019229222 -0.02531375
0.1481224 0.012904 -0.023231365
0.16549969 0.015485014 -0.026392195
0.1877989 0.014541008 -0.028911173
0.1919089 0.012904 -0.026988022
0.22257549 0.012904 -0.024957217
0.24966303 0.012904 -0.027630286
0.25827596 0.012904 -0.022486784
0.27442619 0.011483152 -0.027271163
0.30564395 0.010411099 -0.020585522
-0.37349129 0.022955641 -0.020729264
-0.35872221 0.022022557 -0.021945277
-0.23976409 0.020864667 -0.023454256
-0.19416931 0.021440808 -0.027945861
-0.16023605 0.021162268 -0.023066416
-0.091916479 0.022744332 -0.025372241
-0.071700431 0.020898793 -0.02340978
-0.0055295434 0.022335583 -0.029288631
0.12924312 0.020106256 -0.02444263
0.15686396 0.020404669 -0.024053734
0.23139158 0.022318892 -0.021559089
-0.34035555 0.080482103 -0.02725954
-0.32348534 0.080482095 -0.02162108
-0.38072699 -0.031103484 -0.010086153
-0.34043962 -0.033311408 -0.015319022
-0.2833195 -0.031176805 -0.019377097
-0.26020458 -0.033443056 -0.015001176
-0.15458015 -0.03370776 -0.014362063
-0.1482558 -0.033427715 -0.015038205
-0.12719631 -0.033186525 -0.015620543
-0.11615846 -0.0342829 -0.012973424
-0.063074216 -0.033470742 -0.014534465
-0.040895216 -0.032979727 -0.016119836
0.050919354 -0.032149602 -0.018109331
0.075435489 -0.034694955 -0.011978552
0.15024729 -0.034251433 -0.013049407
0.20212491 -0.032621369 -0.016985072
-0.38072699 -0.022274721 -0.012584752
0.26047 -0.026235865 -0.012608732
0.29826218 -0.024076303 -0.016098406
0.30784568 -0.022367369 -0.015147542
-0.38072699 -0.016181456 -0.015474141
-0.41164345 -0.0052129626 -0.013170333
-0.22993712 -0.00545432 -0.011694234
-0.081138052 -0.0054543205 -0.016415969
0.33341661 -0.0035917903 -0.012914136
0.36592072 -0.0044043809 -0.015802687
-0.41610867 0.0060270969 -0.011644811
-0.40316278 0.00098681636 -0.010050305
-0.39477673 0.0003032235 -0.010080049
-0.38498399 0.0084373839 -0.015465006
0.0249185 0.00017047999 -0.013934479
0.33220553 0.0056007742 -0.010654226
0.34678811 0.0057971086 -0.012852933
-0.38498402 0.015127653 -0.012924954
-0.36772609 0.012904 -0.012902056
-0.34623751 0.012904 -0.014139794
-0.2900784 0.012904 -0.013634475
-0.23700547 0.016535928 -0.018429894
-0.19475302 0.012904 -0.013524031
-0.18654345 0.012904 -0.01456477
-0.15579203 0.019352244 -0.018998465
-0.11657164 0.012904 -0.015601281
-0.10005817 0.012904 -0.014775177
-0.089863166 0.012904 -0.019998167
-0.029661622 0.012904 -0.014090184
-0.00097671663 0.012904 -0.019660594
0.011269201 0.012904 -0.018650787
0.037318312 0.012904 -0.012506871
0.047286324 0.012904 -0.016926263
0.077225164 0.012904 -0.01521625
0.10642136 0.019317769 -0.019058179
0.17002662 0.012904 -0.010270434
0.23496744 0.012904 -0.016474687
0.27701417 0.011219678 -0.019687276
0.28472701 0.010434451 -0.018139467
0.32115927 0.011738203 -0.015222972
-0.38051209 0.024984637 -0.018079121
-0.36372629 0.025629913 -0.016521199
-0.34818882 0.027451351 -0.012123615
-0.30530509 0.028285837 -0.010053243
-0.28566414 0.025573662 -0.01665701
-0.23402716 0.024352815 -0.01440043
-0.21349357 0.024767065 -0.016669847
-0.20815453 0.025035968 -0.013339612
-0.19855757 0.027882462 -0.011082763
-0.1891074 0.022763953 -0.013089132
-0.17931429 0.024033979 -0.019055367
-0.10731048 0.024286574 -0.018747469
-0.094725475 0.022535611 -0.017668102
-0.08710742 0.026625633 -0.012357911
-0.00552053 0.025604937 -0.016101852
0.030359816 0.026958693 -0.013313062
0.0428776 0.024620961 -0.018558994
0.088930264 0.027103642 -0.012963107
0.090561733 0.021359451 -0.015521832
0.10473534 0.025608899 -0.016571935
0.19529769 0.02416306 -0.019155741
0.20139347 0.024102567 -0.019234575
0.2580843 0.027163142 -0.012819454
-0.37026808 0.080482103 -0.013611999
-0.36341247 0.080482103 -0.010859151
0.20056805 -0.078141861 -0.003845924
0.20794091 -0.067621514 -0.0018810795
0.2024568 -0.059901997 -0.0028173248
-0.35870144 -0.036420461 -0.00036258355
-0.29489186 -0.036413714 -0.00031134428
-0.22202343 -0.035616126 -0.0089384578
-0.18963674 -0.03561274 -0.0089641558
-0.14503011 -0.036234807 -0.0036690359
-0.091323495 -0.035618342 -0.0089216204
0.025730755 -0.036400624 -0.0025022433
0.03630697 -0.036504909 -0.002188494
0.083120026 -0.036579806 -0.0015727361
0.092210442 -0.036580477 -0.0016146104
0.13122641 -0.035649758 -0.0086830258
0.15662272 -0.036480878 -0.0023710201
0.21203773 -0.036402997 -0.0029625061
0.31572944 -0.024641056 -0.0054835863
0.32953864 -0.02243045 -0.00159622
-0.38072699 -0.015123823 -0.0094614159
-0.019089926 -0.01317 -0.0041807974
0.27451921 -0.014699847 -0.00159622
0.35791439 -0.014077931 -0.00159622
-0.41402942 -0.0098941857 -0.0076623596
-0.40610778 -0.0060421173 -0.0068940017
-0.39236754 -0.0077002794 -0.0037338934
-0.36698735 -0.0074136164 -0.0044708978
-0.18060932 -0.00545432 -0.0041314894
-0.10479669 -0.00545432 -0.0081234612
0.26556033 -0.0035917901 -0.0018865818
0.28652433 -0.00090258382 -0.00159622
0.31639889 -0.0043394216 -0.0038096861
0.38574886 -0.0035917903 -0.0025081234
0.39511877 -0.0025667334 -0.0015962198
-0.42114654 0.0080759088 -0.0054412629
-0.36864111 0.008892904 -0.0004329579
0.26047 0.0037389533 -0.007011218
0.29905641 0.008975612 -0.0096901841
0.30897745 0.0079655703 -0.0068816207
0.3531929 0.008605198 -0.0086833481
0.36882609 0.0018725231 -0.008100152
-0.38498402 0.017509237 -0.0060699759
-0.37391114 0.012904 -0.002763907
-0.3568739 0.012904 -0.0061664586
-0.34810582 0.012904 -0.0057840403
-0.30740374 0.012904 -0.0094563104
-0.29855701 0.012904 -0.0036549182
-0.256387 0.012904 -0.0084172748
-0.24718481 0.012904 -0.0062308563
-0.21103559 0.012904 -0.006520784
-0.20802328 0.012904 -0.0014693299
-0.18890685 0.012904 -0.008291645
-0.14944968 0.012904 -0.0062237429
-0.072521657 0.012904 -0.0030405899
-0.031491548 0.012904 -0.00072394777
-0.017724166 0.012904 -0.0036647259
0.023495644 0.015554618 -0.0043457998
0.09499801 0.012904 -0.0052109612
0.14918256 0.012904 -0.0025293492
0.25611955 0.012904 -0.0061240662
0.28341201 0.015357633 -0.00159622
0.3364163 0.012911606 -0.0058264751
-0.30885109 0.029258756 -0.00052875205
-0.2968488 0.029277174 -0.0025238055
-0.25414795 0.02838036 -0.0093353149
-0.22402507 0.028737566 -0.0066222684
-0.21306738 0.028126966 -0.0049184547
-0.18891889 0.027112421 -0.0090378895
-0.17895511 0.028745521 -0.0065618549
-0.16284084 0.027911356 -0.0041734544
-0.14385732 0.02713648 -0.0089596016
-0.064141922 0.029223535 -0.0010242458
-0.048230324 0.026954621 -0.0058305846
-0.039916359 0.0289042 -0.0053566336
-0.00081016123 0.028498039 -0.0084415283
0.0249185 0.025565755 -0.0053273728
0.055946622 0.029203491 -0.0023269991
0.098447204 0.027825145 -0.0074710902
0.1067289 0.02734635 -0.0092579927
0.13081191 0.027821679 -0.0074840202
0.15221918 0.029210752 -0.0022998955
0.18924297 0.029200833 -0.00085555151
0.23344629 0.029356096 -0.0012680755
0.30174828 0.020858675 -0.00056432525
-0.34826165 0.032815117 -0.00159622
0.12705214 0.030401804 -0.00159622
0.142694 0.033733174 -0.0036642826
-0.32071754 0.041853286 -0.00159622
-0.28418496 0.041838117 -0.00159622
-0.263506 0.042041883 -0.0015962201
0.11848914 0.04650772 -0.00078399538
0.12796846 0.043058299 -0.00159622
0.13044408 0.046356156 -0.0044809459
0.14066191 0.043065377 -0.0089149317
0.19964345 0.040270273 -0.0015913103
-0.37238938 0.058563884 -0.00159622
-0.3465046 0.050237566 -0.00159622
-0.30077749 0.058614135 -0.00159622
-0.29139695 0.054608203 -0.0015962201
0.14546821 0.050671436 -0.00035330659
-0.33933693 0.079508632 -0.00159622
-0.30681917 0.071518242 -0.00159622
-0.37401962 0.080482103 -0.0011702341
-0.36410099 0.080482103 -0.0070634731
-0.34683156 0.080482103 -0.0093426714
-0.37433848 -0.036274027 0.00074950862
-0.36515164 -0.035330124 0.0051452653
-0.34522742 -0.035911091 0.0035058374
-0.30689305 -0.034814958 0.0084962603
-0.29612693 -0.034374136 0.0095605347
-0.22141069 -0.036024965 0.0026410557
-0.15907183 -0.03424887 0.009862964
-0.099118054 -0.035753228 0.0047047641
-0.070565455 -0.035562098 0.006156296
-0.051238485 -0.03617461 0.00150455
-0.007005712 -0.035879601 0.0037449938
0.018424623 -0.035760481 0.0046496652
0.027247652 -0.035360068 0.0071802088
0.057299644 -0.034901727 0.008286776
0.1062275 -0.035777923 0.0045171669
0.1924261 -0.036294933 0.00059074641
0.21057495 -0.037764028 0.0053063277
0.25391313 -0.03561908 0.0057235328
0.0069262926 -0.01317 0.0051583983
0.024810957 -0.01317 0.0001659235
0.35934582 -0.014229595 0.0054823896
-0.13305108 -0.00545432 0.00064506719
-0.11256389 -0.00545432 0.0058632344
0.36532572 -0.0016931123 0.0097949542
-0.39157042 0.0031128258 0.006471192
-0.38464451 0.0023591416 0.0066770753
-0.37911102 0.0042792959 0.0059880381
-0.36110139 0.0081109256 0.0021642908
-0.235789 0.0090131843 0.0082277711
0.31119516 0.0077397907 0.004076025
0.35922113 0.0028503793 0.0070531266
0.37846422 0.00089128665 0.0035732232
-0.40083337 0.01499824 0.0066889427
-0.38498402 0.015109207 0.0021215244
-0.36358142 0.012904 0.0077609341
-0.35784149 0.012904 0.0079535935
-0.34918651 0.012904 0.004532685
-0.2963112 0.012904 0.0069892388
-0.2812131 0.012904 0.0077103553
-0.23033413 0.012904 0.0010957913
-0.19404799 0.012904 0.0050529777
-0.14491664 0.012904 0.0050527677
-0.12996618 0.012904 0.0007097926
-0.094021134 0.012904 0.00046001631
-0.057712749 0.012904 0.0078177415
-0.022083374 0.012904 0.004817355
-0.018521532 0.012904 0.0071704444
0.0075583234 0.012904 0.0041768504
0.012928879 0.012904 0.0053143976
0.14378014 0.012904 0.0016493034
0.21546006 0.012904 0.0072071683
0.22030146 0.012904 0.0057344167
-0.38370067 0.020753613 0.0014256595
-0.33649415 0.02902741 0.0012283637
-0.28360784 0.028845888 0.0026070718
-0.25662598 0.029117074 0.00054735329
-0.20599611 0.028042788 0.0075031808
-0.13531251 0.027597018 0.0063729077
-0.11630743 0.028506517 0.0051846807
-0.06442076 0.027720936 0.0082802046
-0.046027154 0.028563457 0.0047522099
-0.033785552 0.029150169 0.0002959806
-0.015332205 0.028392164 0.0060532051
0.0078179054 0.02749915 0.0045870095
0.047209918 0.029112143 0.00058479432
0.066486157 0.028298818 0.0067622005
0.085320644 0.029059876 0.00098177767
0.095441438 0.026757892 0.0082614413
0.13473375 0.027466364 0.0076500578
0.14713509 0.028741706 0.0033983556
0.26047 0.028912706 0.0020319037
0.28261399 0.024664508 0.000120349
0.29945719 0.020250876 0.0057483632
0.094304167 0.037962854 0.0024786773
0.15851544 0.032746498 0.0088780075
0.12992524 0.047302086 0.00040736987
0.14273477 0.045537502 0.0039708675
-0.37928832 0.080482103 0.0036172541
-0.30842698 -0.031018967 0.016390001
-0.26674861 -0.031210907 0.016139848
-0.22581972 -0.032805912 0.013346683
-0.21087864 -0.034161597 0.010073667
-0.19867319 -0.031045109 0.016355932
-0.10109191 -0.033214044 0.012361332
-0.085682057 -0.033474695 0.011732053
0.070034333 -0.031021668 0.016386483
0.12642753 -0.032181256 0.014854783
0.16731751 -0.032708503 0.013581859
0.21730655 -0.033203524 0.012386734
0.2220532 -0.030197786 0.017460257
-0.35852337 -0.028361615 0.019853359
-0.14018632 -0.028829645 0.019243367
-0.047508769 -0.01317 0.013816476
-0.22512323 -0.00545432 0.013910107
-0.18613604 -0.00545432 0.015631206
-0.17818725 -0.00545432 0.018920768
-0.11263072 -0.00545432 0.010837261
0.31804371 -0.0015439441 0.019402489
0.33127207 -0.0013040492 0.016677458
-0.40344012 0.0096598621 0.011134831
-0.38924104 0.0048592975 0.011138838
0.32938159 0.0091196848 0.012343926
-0.37704611 0.012904 0.010473265
-0.35658646 0.012904 0.010946788
-0.34466529 0.012904 0.01793867
-0.30266768 0.012904 0.01207944
-0.28127849 0.012904 0.016894501
-0.2657803 0.012904 0.018782876
-0.17373279 0.012903999 0.011339577
-0.14654809 0.012904 0.018651268
-0.11474955 0.012904 0.016596952
-0.078482106 0.012904 0.019638918
-0.06506972 0.012904 0.019837702
-0.024577703 0.012904 0.019489178
0.0043768748 0.012904 0.014367449
0.0473665 0.012904 0.014105819
0.0739161 0.012904 0.016096275
0.20463496 0.012904 0.013884465
0.24115518 0.012904 0.01837804
0.26462966 0.012480515 0.018570416
0.28984705 0.01919228 0.012699318
-0.29039666 0.023562754 0.016745301
-0.28299871 0.021085003 0.019974578
-0.27259582 0.021483758 0.019454878
-0.25185364 0.023575341 0.016728897
-0.24691673 0.025260476 0.014220284
-0.17104323 0.021574367 0.019336788
-0.11913881 0.025063332 0.012513462
-0.087712765 0.025416976 0.011362569
-0.039662171 0.022475168 0.018162765
-0.014540968 0.023184005 0.018628828
0.010925751 0.021764999 0.019088335
0.037513249 0.025788631 0.012718752
0.064158715 0.022703867 0.017864697
0.1811852 0.023545429 0.01676788
0.22256576 0.023429606 0.016918834
0.26697689 0.024058405 0.013689887
-0.31644601 0.080482103 0.010951501
-0.36866826 -0.022932414 0.024791757
-0.32906064 -0.022164006 0.02538134
-0.27757496 -0.021324238 0.026025672
-0.22941884 -0.027369976 0.021145772
-0.18381126 -0.025449088 0.022860773
-0.13088635 -0.022624513 0.025028002
-0.12584682 -0.023165803 0.024597425
-0.0015770122 -0.027281079 0.021261627
0.030192524 -0.02358171 0.024293568
0.057858683 -0.02045279 0.026694316
0.083406597 -0.024638817 0.023455799
0.19137853 -0.022323526 0.025258942
0.22004957 -0.027241891 0.021312706
0.26007581 -0.022680072 0.024985373
0.27497363 -0.021634612 0.022097141
-0.31731212 -0.017476637 0.028056152
-0.24150351 -0.016028885 0.02865581
-0.12601958 -0.017437968 0.028072169
-0.11786726 -0.014595143 0.029249664
-0.065807298 -0.011614707 0.027170546
-0.040337771 -0.01317 0.025464218
0.013966589 -0.014190588 0.029180491
0.034633614 -0.015040864 0.029065046
0.085809767 -0.019246632 0.027323021
0.18542948 -0.014529699 0.02927677
0.27376813 -0.019178947 0.024288045
0.28465736 -0.014096012 0.024117313
-0.19204114 -0.00545432 0.025099095
-0.16503119 -0.00545432 0.029685866
-0.13382061 -0.0054543195 0.027567195
0.26963559 -0.0071966788 0.029053947
-0.22763009 0.0062744585 0.028839901
-0.039026137 0.0081123803 0.028959475
0.0249185 0.0043285494 0.029323371
0.059674032 0.0066415523 0.029568657
0.10015664 0.0056607751 0.029974872
0.15983427 0.0077486322 0.029110132
0.16483507 0.0083724558 0.028851759
0.26037523 0.0070151943 0.029413903
0.28845701 0.0071911328 0.022716081
-0.37832263 0.017782941 0.02323113
-0.36301488 0.012904 0.023029204
-0.35756928 0.013164692 0.026774861
-0.34977397 0.012904 0.027150102
-0.33675542 0.012904 0.02200029
-0.3295413 0.010936086 0.027789963
-0.28080171 0.012904 0.021295434
-0.27697167 0.012904 0.024666026
-0.20264192 0.016235031 0.02441889
-0.18120025 0.017052663 0.026974902
-0.17641671 0.012904 0.026938571
-0.13335897 0.012904 0.020518953
-0.11568443 0.016147897 0.024485752
-0.10441686 0.016820755 0.023969447
-0.090470925 0.019411629 0.026974902
-0.043891035 0.015429323 0.023682311
-0.024399754 0.012904 0.023130786
0.0035248995 0.018332183 0.022809677
0.015105929 0.014698252 0.025598112
0.025254047 0.014194394 0.026801089
0.038017131 0.018674456 0.029915646
0.062307119 0.017659329 0.024512514
0.10994798 0.012441402 0.027166495
0.11241487 0.014216003 0.022895794
0.12252033 0.012904 0.025605669
0.14238389 0.015014066 0.024271622
0.17418697 0.012904 0.026521416
0.19253233 0.012904 0.020458966
0.27397138 0.011529457 0.023474986
-0.16940771 0.021874977 0.022888504
-0.12326971 0.02092517 0.025979258
-0.088841885 0.020619201 0.029721946
-0.018481668 0.022151913 0.021987334
-0.34109679 0.080482103 0.020743974
-0.38030615 -0.010510795 0.030483827
-0.31262475 -0.01173507 0.030322637
-0.11071932 -0.010885976 0.034825176
-0.095758781 -0.011646803 0.033824563
-0.073911801 -0.012757841 0.03650333
-0.065807298 -0.010965822 0.032320239
-0.0067398641 -0.01317 0.035753977
0.0059654173 -0.01317 0.033729233
0.14516047 -0.010820823 0.030443009
0.24980491 -0.01080214 0.03044547
-0.30249244 -0.0036128974 0.031392019
-0.2018801 -0.0075046951 0.030879617
-0.19165 -0.0093417373 0.030637749
-0.18175152 -0.0072735981 0.037437201
-0.17526983 -0.0076032276 0.037920106
-0.15264505 -0.0061989119 0.032184426
-0.13846216 -0.0074658841 0.032650251
-0.12079522 -0.0040529841 0.031334076
-0.10604078 -0.0041625877 0.031319644
-0.092557169 -0.00545432 0.031247146
-0.087589964 -0.00545432 0.036965847
-0.032223515 -0.0048235105 0.030916031
0.048976853 -0.0011082182 0.031067807
0.13958764 -0.006556483 0.031004462
0.2295202 -0.0071326913 0.030928597
0.23828578 -0.0038584578 0.031359691
-0.3313759 0.0016760807 0.030701222
-0.23713402 0.0042037042 0.030366573
-0.19972217 0.0013002518 0.030750705
-0.17048337 0.0048604645 0.030281961
-0.13309193 0.0049591549 0.030265467
-0.09083309 0.0017448047 0.030692175
-0.086310387 0.0052344473 0.030151447
-0.074397884 0.0031379347 0.030508753
-0.045888711 0.0021208397 0.030642666
-0.03013739 0.0033474611 0.030481167
0.010211095 0.0042691655 0.030359812
0.075839072 0.0037887879 0.030339852
0.19125056 0.0014371246 0.030732684
0.22978657 0.0018365813 0.03068009
0.25963783 0.0013612052 0.030742681
-0.32475141 0.012904 0.032949418
-0.26006243 0.012904 0.037709236
-0.18594351 0.015111301 0.038368605
0.0097026518 0.012904 0.035568502
0.015637333 0.013495174 0.030949682
0.026131228 0.013013994 0.033093683
0.06552878 0.012904 0.032877542
-0.20818338 0.020619201 0.030778157
-0.14621665 0.020619201 0.030071557
-0.13618979 0.020619201 0.034387402
-0.12390295 0.020619201 0.032735333
-0.094672441 0.020619202 0.031730842
-0.061091576 0.020619201 0.038056575
-0.056809887 0.020619201 0.036925852
-0.04766795 0.020619201 0.035876863
-0.010450771 0.020619199 0.034508463
-0.0053576417 0.020619199 0.036101259
-0.12142696 -0.010341434 0.045391876
-0.024540976 -0.01317 0.048335023
-0.0014224946 -0.01317 0.04038278
0.0249185 -0.012193793 0.045502488
-0.3269363 0.012904 0.04835676
-0.25384304 0.012904 0.043499809
-0.1632992 0.012904 0.047065891
-0.15012063 0.017110677 0.046557017
0.0038340918 0.015593603 0.048380516
0.026491664 0.0126379 0.049686316
0.034832716 0.01277095 0.043746479
0.052970067 0.013441674 0.042585798
-0.14789665 0.020619201 0.043341804
-0.10756161 0.020619201 0.043729834
-0.050400447 0.020619201 0.048830558
-0.045021646 0.020619199 0.040993825
-0.033888057 0.020619201 0.049258925
-0.36338183 0.080482103 0.042330906
-0.10404095 -0.011057605 0.057090208
-0.086130932 -0.012136427 0.055300094
-0.076641887 -0.012619002 0.05116966
-0.056757107 -0.01317 0.057607353
-0.049712475 -0.01317 0.053555813
0.017443152 -0.01317 0.052430503
-0.094672136 -0.0068705194 0.05923155
-0.093097419 0.0010625615 0.059591435
0.0249185 0.003811406 0.051564693
-0.30437753 0.012904 0.055200804
-0.25452164 0.012904 0.052746587
-0.051166221 0.017141813 0.05955917
-0.033317991 0.012904 0.055075817
-0.016134577 0.012904 0.056300059
-0.0050705336 0.012904 0.05190213
0.0017039999 0.012904 0.051220041
0.02467943 0.013463836 0.057893887
-0.094402373 0.020619201 0.052654572
-0.063809171 0.020619201 0.05400455
-0.056506682 0.020619201 0.052174434
-0.049420096 0.020619201 0.051897448
-0.035598636 0.020410342 0.053943984
-0.37542367 0.080482103 0.055161953
-0.33918688 0.080482103 0.050473418
-0.04610749 -0.011052718 0.065829404
0.01021687 -0.010521051 0.065829404
-0.086213842 -0.006211495 0.061164957
-0.028205119 0.0025247165 0.065829404
-0.01567854 0.0056609865 0.065829404
-0.263731 0.012904 0.068878062
-0.22750071 0.012904 0.066114128
-0.21166992 0.012904 0.067050427
-0.19821514 0.012904 0.065349624
-0.1520112 0.012904 0.068131603
-0.090616204 0.012904 0.062221177
-0.053806454 0.012904 0.067603454
-0.033748921 0.012904 0.063633233
-0.022494785 0.012370592 0.065829404
0.0046209083 0.015166006 0.063130423
0.020112447 0.012904 0.062641151
-0.049535852 0.020305747 0.060439523
-0.36374336 0.080482103 0.06837488
-0.36265263 0.012904 0.074063979
-0.34955218 0.012904 0.074569091
-0.33211228 0.012904 0.072122842
-0.32439733 0.012904 0.079378083
-0.26530302 0.012904 0.074563608
-0.25469643 0.012904 0.07545387
-0.10860275 0.012904 0.077073909
-0.34005755 0.080482103 0.078393944
-0.26228982 0.012904 0.085341364
-0.20112014 0.012904 0.089749008
-0.19373053 0.012904 0.084668547
-0.17868894 0.012904 0.081141621
-0.15949258 0.012904 0.088637307
-0.04211279 0.012904 0.082795031
-0.28754008 0.012904 0.095983624
-0.22330098 0.012904 0.094504185
-0.15219331 0.012904 0.092802294
-0.1484924 0.012904 0.091673583
-0.096120782 0.012904 0.098115452
-0.37338001 0.080482103 0.095984004
-0.35552675 0.012904 0.10690597
-0.24187271 0.012904 0.10114269
-0.17840835 0.012904 0.10082191
-0.15280703 0.012904 0.10771915
-0.11891147 0.012904 0.10947324
-0.061296232 0.012904 0.10827558
-0.34268212 0.012904 0.11767558
-0.31597573 0.012904 0.11000969
-0.29157221 0.012904 0.11149094
-0.19752172 0.012904 0.11678435
-0.33001482 0.012904 0.12464049
-0.32902083 0.012904 0.12064303
-0.31407404 0.012904 0.12687202
-0.2889955 0.012904 0.12852746
-0.19385004 0.012904 0.1290426
-0.17869951 0.012904 0.12139264
-0.16683134 0.012904 0.12351444
-0.12672575 0.012904 0.12952244
-0.084056348 0.012904 0.12164924
-0.27098894 0.012904 0.13062987
-0.20253482 0.012904 0.13535737
-0.18062888 0.012904 0.13490903
-0.16192341 0.012904 0.13587682
-0.1525977 0.012904 0.1345028
-0.31477168 0.012904 0.14988081
-0.30360469 0.012904 0.14532433
-0.27525467 0.012904 0.14606804
-0.23823418 0.012904 0.14575082
-0.19418409 0.012904 0.1445194
-0.24402423 0.012904 0.15488642
-0.20581198 0.012904 0.15891835
-0.35069185 0.012904 0.16800238
-0.32217631 0.012904 0.16928427
-0.23601365 0.012904 0.16518079
-0.16949379 0.012904 0.16256826
-0.303455 0.012904 0.17364794
-0.29709357 0.012904 0.17080721
-0.24740903 0.012903999 0.17888008
-0.22318856 0.012904 0.17765829
-0.19391689 0.012904 0.17104724
-0.30794132 0.012904 0.18003485
-0.2737861 0.012904 0.18388227
-0.2164441 0.012904 0.18283542
-0.2507934 0.012904 0.19495413
-0.35286355 0.012904 0.20507666
-0.33129203 0.012904 0.20322894
-0.27679104 0.012904 0.20489596
-0.2659688 0.012904 0.20306845
-0.33895859 0.012904 0.21900931
-0.36272067 0.012904 0.22714975
