# .PCD v0.7 - Point Cloud Data file format
VERSION 0.7
FIELDS x y z
SIZE 4 4 4
TYPE F F F
COUNT 1 1 1
WIDTH 853
HEIGHT 1
VIEWPOINT 0 0 0 1 0 0 0
POINTS 853
DATA ascii
0.079023518 0.064797364 -0.36841279
0.095019296 0.064039178 -0.36564022
0.10442741 0.067317113 -0.3654232
0.11447684 0.067269258 -0.36620283
0.13192631 0.068442665 -0.36000955
0.14575185 0.063685507 -0.36309171
0.15902607 0.063254468 -0.36973816
0.16463296 0.066397309 -0.36651614
0.075825788 0.062428016 -0.3549166
0.12144862 0.064610079 -0.35369009
0.14648417 0.060680281 -0.35671687
0.072787076 0.062776022 -0.34732556
0.10495858 0.068307966 -0.34581831
0.11784673 0.068611421 -0.34296227
0.12659919 0.0604802 -0.34009907
0.15337744 0.064295568 -0.3485418
0.16515347 0.067700639 -0.34592479
0.17078352 0.0604802 -0.34683582
0.086847901 0.061155528 -0.33242151
0.10639654 0.064366207 -0.33610156
0.11015072 0.0604802 -0.33814919
0.16686243 0.0604802 -0.33917737
0.075818129 0.06556493 -0.32264665
0.088795975 0.060985278 -0.32964316
0.1240479 0.0604802 -0.32994422
0.13332766 0.0604802 -0.32923409
0.14530379 0.068478271 -0.32574505
0.16519895 0.066569075 -0.32524198
0.11368422 0.068552941 -0.31803566
0.15095888 0.0604802 -0.31087965
0.1720964 0.060539827 -0.31414241
0.099192411 0.068022311 -0.306418
0.12929361 0.068691261 -0.30353928
0.16182157 0.0604802 -0.30325055
0.086262226 0.067023911 -0.29208466
0.095176727 0.0604802 -0.29383302
0.11465744 0.0604802 -0.29182729
0.093557775 0.060582258 -0.28218117
0.15966058 0.067977965 -0.28341162
0.17164588 0.067318723 -0.28276411
0.074390024 0.065248989 -0.27532336
0.096588716 0.064256936 -0.27460802
0.12457491 0.0604802 -0.27396804
0.1405745 0.06858512 -0.27255201
0.15699448 0.064280212 -0.27513075
0.074304909 0.065220356 -0.26339909
0.093819939 0.060560063 -0.2619907
0.11642151 0.0604802 -0.26812005
0.1202425 0.0604802 -0.26432991
0.13979927 0.068597555 -0.26957422
0.088278726 0.064186096 -0.25124764
0.11195174 0.0604802 -0.25651163
0.12709981 0.068689637 -0.25304034
0.17317343 0.06086126 -0.25889784
0.089255258 0.067298934 -0.24404725
0.11672615 0.0604802 -0.24784577
0.12624082 0.068686642 -0.24184734
0.13102275 0.0604802 -0.24638918
0.15956652 0.067982584 -0.24917185
0.078649864 0.066101983 -0.23302773
0.081592187 0.066522077 -0.23342553
0.096649654 0.0604802 -0.2345309
0.14341223 0.0604802 -0.23617637
0.15711653 0.065546267 -0.23158032
0.082826324 0.066674285 -0.22083351
0.092806213 0.065370664 -0.22109945
0.10291779 0.0604802 -0.22661802
0.11167291 0.0604802 -0.22477673
0.14932892 0.0604802 -0.22357279
0.15238869 0.0604802 -0.22560245
0.16290642 0.0604802 -0.22253042
0.1701005 0.067414284 -0.22076643
0.071448751 0.064447016 -0.21737713
0.089813933 0.06089912 -0.21401674
0.11006139 0.0604802 -0.21380955
0.12453423 0.0604802 -0.21673363
0.076180711 0.06232078 -0.20141694
0.096699379 0.0604802 -0.20352405
0.10365796 0.065645568 -0.20509659
0.11007652 0.0604802 -0.20240018
0.12559465 0.068684399 -0.20427915
0.15104082 0.068319306 -0.20711714
0.17376122 0.066618249 -0.20744714
0.083907217 0.066790834 -0.19275254
0.095662527 0.0604802 -0.19799802
0.11065823 0.0604802 -0.19565424
0.12649401 0.0604802 -0.19445834
0.13048904 0.0604802 -0.19587171
0.15361574 0.068227395 -0.19717208
0.083271682 0.066722795 -0.18177372
0.11642486 0.0604802 -0.18890293
0.13147032 0.068684906 -0.18036431
0.14711869 0.0604802 -0.18266654
0.16461439 0.0604802 -0.18211515
0.082570404 0.066646129 -0.17261025
0.1095292 0.0604802 -0.17805812
0.11306284 0.0604802 -0.17011221
0.1290272 0.068692036 -0.17061327
0.14190246 0.0604802 -0.17080155
0.17168163 0.063880041 -0.17181045
0.07121072 0.063094959 -0.16271345
0.097891636 0.067946136 -0.1675168
0.091458544 0.060759928 -0.15485516
0.10485959 0.068304151 -0.15981059
0.14238074 0.068551198 -0.15834159
0.15182246 0.06829121 -0.15084553
0.17006025 0.067416854 -0.15974782
0.074851334 0.062493742 -0.14469264
0.096086711 0.0604802 -0.14605042
0.13281868 0.068680674 -0.14487746
0.14941052 0.0604802 -0.14832523
0.15843822 0.0604802 -0.14585698
0.073668085 0.062653504 -0.13656315
0.10340263 0.068241477 -0.13936979
0.11310482 0.068533719 -0.13439088
0.13025345 0.068688452 -0.13564311
0.16892067 0.0604802 -0.13085744
0.17112349 0.0604802 -0.13415635
0.073470145 0.065024935 -0.12452479
0.15818968 0.068042643 -0.12059437
0.1639891 0.067765057 -0.12372647
0.077348366 0.065870553 -0.11315536
0.1037202 0.0604802 -0.11418393
0.12851015 0.0604802 -0.11648359
0.15989313 0.0604802 -0.11564772
0.16740787 0.067576125 -0.11059053
0.17046219 0.067391992 -0.11204188
-0.29020461 0.0077011827 -0.10571673
-0.28984386 0.0076697166 -0.1008049
-0.27931446 0.0075765895 -0.10105474
-0.26629868 0.0077237892 -0.10482512
-0.25780386 0.0083758058 -0.1041742
-0.30637321 0.013270971 -0.10291948
-0.29384485 0.011043901 -0.10895599
-0.28385013 0.012722043 -0.104629
0.071480893 0.064466581 -0.10302385
0.089255728 0.067298979 -0.10466228
0.10351034 0.0604802 -0.10979351
0.11529228 0.0604802 -0.10620743
-0.28172356 0.0075794747 -0.092702202
-0.26362523 0.0075765904 -0.091779977
-0.30303732 0.011043899 -0.091684401
-0.28365034 0.0110439 -0.099032044
-0.27500415 0.011043901 -0.097642876
-0.26523495 0.0145113 -0.095261216
-0.24752763 0.0110439 -0.091785118
0.081603482 0.061678607 -0.096635692
0.11865959 0.0604802 -0.091925591
0.13350046 0.068674214 -0.09928681
0.15500277 0.068177216 -0.090208717
0.16438276 0.067743279 -0.091119543
-0.24201693 0.0080925953 -0.089670815
-0.30323225 0.011043899 -0.082721263
0.076466881 0.065699883 -0.088931546
0.081114881 0.066469267 -0.084061369
0.1128023 0.068536691 -0.084510572
0.12692295 0.0604802 -0.083877712
0.17404577 0.066399567 -0.088638626
-0.3094337 0.0094872667 -0.07269872
-0.25282511 0.0075765895 -0.070883557
-0.24494031 0.0075765899 -0.078100644
-0.30293274 0.0110439 -0.078187257
-0.26408207 0.011043901 -0.078087322
-0.24662939 0.011043899 -0.073996231
0.072669372 0.064823955 -0.079713844
0.089880437 0.060893491 -0.074229643
0.11619797 0.0604802 -0.073997058
0.15497676 0.068178311 -0.078235105
-0.29328203 0.0077079255 -0.062551886
-0.26167011 0.0075765904 -0.063363425
-0.24823211 0.0075765899 -0.066333793
-0.29330784 0.014379685 -0.062395219
-0.28146401 0.011230786 -0.068325505
-0.27541775 0.0145113 -0.06069243
-0.26102334 0.0145113 -0.060660396
-0.22764175 0.0110439 -0.064942546
0.083748817 0.061452843 -0.068991281
0.090156041 0.067378968 -0.064803652
0.10143617 0.0604802 -0.062624767
0.15265015 0.068261921 -0.060176335
-0.29953253 0.0078856861 -0.052213948
-0.27393207 0.0075765899 -0.053647261
-0.26916158 0.0075765904 -0.057495743
-0.24226376 0.0075765899 -0.058264289
-0.23284157 0.0075765899 -0.052628506
-0.22466038 0.0094917016 -0.055713691
-0.3042807 0.0110439 -0.057195127
-0.29426333 0.014369067 -0.054063529
-0.28396258 0.0110439 -0.058515429
0.12830317 0.0604802 -0.057870615
0.13868462 0.068615362 -0.052950099
0.15226756 0.0604802 -0.057280041
0.22292925 -0.026357118 -0.041099623
-0.29925042 0.0078701535 -0.045010716
-0.3107236 0.010129283 -0.046472207
-0.30481362 0.012257492 -0.042130083
-0.29286143 0.0110439 -0.041106027
-0.28877836 0.014430019 -0.046338707
-0.26196912 0.0145113 -0.048151568
-0.25243139 0.0145113 -0.045121193
0.075780436 0.064404801 -0.043066967
0.1233667 0.0604802 -0.044053592
0.13857207 0.063190542 -0.044974122
0.15995578 0.0604802 -0.042226389
0.11914711 -0.052006759 -0.030683849
0.099706046 -0.047064539 -0.0315594
0.20689107 -0.045241255 -0.030469099
0.21134026 -0.038597643 -0.030005172
0.22549568 -0.03772663 -0.036331903
0.11992557 -0.025498092 -0.0315594
0.1252223 -0.028218247 -0.0315594
0.17691649 -0.022750832 -0.0315594
0.19944765 -0.023731163 -0.0315594
0.20101267 -0.025852961 -0.0315594
0.22134227 -0.023486227 -0.031677589
0.24568233 -0.021343037 -0.030409642
-0.057458851 -0.019101061 -0.0315594
0.046510238 -0.01685242 -0.0315594
0.17792398 -0.017514834 -0.0315594
0.2029461 -0.012548184 -0.0315594
-0.066333078 -0.00080914528 -0.031214476
-0.047247589 -0.0054169232 -0.0315594
-0.0056608114 -0.0033061693 -0.0315594
0.0061383005 -0.0019276722 -0.0315594
0.03192199 -0.0033043684 -0.0315594
0.051031806 -0.0087324418 -0.0315594
0.086382076 -0.0055536069 -0.0315594
0.16641793 -0.0077206278 -0.0315594
0.2545881 -0.0077741272 -0.032511111
-0.26287794 0.0075765904 -0.037624631
-0.25812668 0.0075765899 -0.0371361
-0.077354014 0.0077264169 -0.030692635
0.012620831 0.0060168682 -0.0315594
0.050820127 0.0069601201 -0.0315594
0.071219623 0.0082005281 -0.0315594
0.091527641 0.0014016945 -0.0315594
0.15823439 0.0042258641 -0.0315594
0.20221123 0.007190248 -0.030856116
0.21495374 0.0076762508 -0.0315594
-0.26235464 0.011043901 -0.030842472
-0.23695539 0.0145113 -0.039296828
-0.039304081 0.011281687 -0.0315594
-0.021223109 0.015327263 -0.0315594
0.046497248 0.013268515 -0.0315594
0.1803664 0.010144215 -0.0315594
-0.021826008 0.021645166 -0.0311857
0.011164641 0.026512459 -0.030868242
0.027106773 0.023067795 -0.031092905
0.06052864 0.028274067 -0.030753512
0.11565526 0.027403595 -0.030810142
0.14633439 0.020098213 -0.031286594
0.18239999 0.021076184 -0.031222796
-0.013160753 0.039051648 -0.030050425
0.0034405394 0.031674542 -0.030531563
0.049245119 0.037815619 -0.030131141
0.14486368 0.033653744 -0.030402511
0.17280647 0.038925741 -0.0300586
0.18400642 0.038281731 -0.030100606
0.074216828 0.062579416 -0.031242641
0.11796471 0.068613 -0.039542701
0.12882271 0.0604802 -0.031342842
0.16355753 0.0604802 -0.037813038
0.059492972 -0.054301385 -0.021400625
0.14188008 -0.054865107 -0.028961312
0.16488774 -0.056482032 -0.022651816
-0.05835782 -0.044019762 -0.022395015
0.011441794 -0.045990281 -0.029755816
0.02856211 -0.049995512 -0.027053023
0.097313821 -0.049698599 -0.0268647
0.12240203 -0.049698599 -0.024660565
0.14813088 -0.049698599 -0.027526151
0.20990683 -0.047358919 -0.029730577
0.21356399 -0.042703163 -0.028584791
0.23095176 -0.048283979 -0.024830343
-0.087251782 -0.036608253 -0.026583936
0.040865131 -0.038419578 -0.021805555
-0.15712206 -0.026815863 -0.020117609
-0.14146802 -0.023505708 -0.026632614
0.0405096 -0.020279698 -0.024551261
0.21356398 -0.028337605 -0.027459439
0.2486089 -0.023135085 -0.027969278
-0.18624863 -0.012037426 -0.021233324
-0.17435209 -0.012937548 -0.023457253
-0.15143406 -0.010039619 -0.027184902
-0.14550176 -0.014898312 -0.027465809
-0.12847203 -0.012425425 -0.028272182
-0.093648307 -0.012509125 -0.029921271
0.0405096 -0.010832448 -0.022597555
0.20204899 -0.016171675 -0.025206991
-0.18780912 -0.005677558 -0.021143382
-0.17532572 -0.0042926585 -0.023289766
-0.16282474 -0.0068449276 -0.025439223
-0.099568702 -0.006387244 -0.029640617
0.0405096 -0.0025749668 -0.022159699
0.21276443 -0.0046309903 -0.024178682
0.28670165 -0.003020602 -0.024178311
-0.30928916 0.0093749147 -0.020113189
-0.2936407 0.0077119116 -0.021782845
-0.26316422 0.0075765899 -0.020575775
-0.23107392 0.0075765899 -0.020881061
-0.15500709 0.0042795194 -0.026783327
0.28159976 0.0080118552 -0.025153719
-0.2907711 0.0110439 -0.02587074
-0.28488517 0.014473283 -0.027447671
-0.26369566 0.0145113 -0.026731458
-0.25487524 0.0127776 -0.026511427
-0.22229752 0.011043899 -0.027662929
-0.16345222 0.019321922 -0.024266127
-0.13893679 0.010283571 -0.027702171
-0.12221596 0.010401106 -0.028568476
-0.13659072 0.020545438 -0.026767995
-0.072364368 0.029333953 -0.028750291
0.19557507 0.035892684 -0.02373128
-0.01246306 0.040358678 -0.028714398
0.11053535 0.044153806 -0.029717704
0.12086331 0.04023489 -0.029973293
0.13340339 0.040106427 -0.029981669
0.14639905 0.042324405 -0.029837016
0.1668506 0.046534777 -0.029562419
0.026847467 0.053485923 -0.024780232
0.040835503 0.054400176 -0.029049255
0.059168138 0.054649524 -0.029033292
0.094434261 0.051316969 -0.029250529
0.11288445 0.05300178 -0.029140644
0.086005457 0.061233524 -0.022730725
0.093160614 0.067619368 -0.023423227
0.12164375 0.066518903 -0.028182603
0.13824615 0.0604802 -0.029852623
0.14742428 0.063499555 -0.024738356
0.15649693 0.067381814 -0.023691738
0.029168101 -0.051659144 -0.013214633
0.036287811 -0.052279495 -0.011946719
0.089330569 -0.056901172 -0.014345671
0.15887776 -0.057018064 -0.017413674
-0.077003837 -0.041295506 -0.016798045
-0.037376523 -0.045861039 -0.013502691
0.046332903 -0.04399883 -0.011962879
0.075266361 -0.049698599 -0.019949099
0.17122242 -0.049698599 -0.018337738
0.20695937 -0.042509846 -0.014295608
-0.14942609 -0.030497199 -0.013830918
0.041150939 -0.038711213 -0.010309693
0.27691132 -0.035001747 -0.019162577
0.21192853 -0.0056442283 -0.015190778
-0.29947311 0.0078824125 -0.017128985
-0.2339281 0.0075729499 -0.016056711
-0.20957142 0.0034219574 -0.017401397
0.19541222 0.0096103996 -0.016974632
-0.26550275 0.0110439 -0.018488318
-0.2508648 0.0145113 -0.019633308
-0.23895356 0.015995765 -0.012419546
-0.22395164 0.01449181 -0.017172609
-0.21510959 0.014723815 -0.016127434
0.0405096 0.013230507 -0.018739941
0.20190386 0.014582518 -0.014575857
-0.2392327 0.02010501 -0.011838421
-0.19027521 0.022405433 -0.019500881
-0.16233242 0.02971644 -0.015524749
-0.062328953 0.029303227 -0.012430841
0.0405096 0.024130426 -0.018526118
-0.030514853 0.036061719 -0.010811228
0.19204724 0.039810572 -0.011323519
-0.0055081295 0.042014193 -0.012187516
0.074907422 0.062486172 -0.017979978
0.13683659 0.06521558 -0.017129883
0.1557143 0.06814719 -0.011302647
0.16282481 0.065826058 -0.01711346
0.017149866 -0.050611984 -0.0017951517
0.084760047 -0.056502938 -0.0060760095
0.093398161 -0.057255585 -0.0013517737
0.13686851 -0.058211096 -0.0087106666
0.17726356 -0.055134445 -0.0049349573
0.20835909 -0.051748518 -0.0035628702
0.063832834 -0.049698599 -0.0045121158
0.072908893 -0.049698599 -0.00830709
0.16824454 -0.047746301 -0.0047487784
0.1931394 -0.04639107 -0.0049934699
0.25356287 -0.043232448 -0.009105592
-0.1261445 -0.033968531 -0.00040052269
-0.091233574 -0.039173823 -0.0088677183
-0.28294834 -0.018183179 -0.0007215988
-0.20982859 -0.016210292 -0.0086839739
0.18051377 -0.013657143 -0.00070338737
0.19398899 -0.010675744 -0.0022922028
0.30145079 -0.012756311 -0.0028791954
-0.27158388 -0.00650346 -0.0031055456
-0.25120649 -0.0033533929 -0.0081635192
0.18023764 -0.0085772891 -0.00075564318
0.21356399 -0.0016024101 -0.0070605236
0.30178863 -0.0033353127 -0.0069419853
0.31019142 -0.0012226353 -0.0046084854
-0.26231381 0.0023655789 -0.0032335925
-0.24932739 0.0075765899 -0.0080340263
0.0405096 0.0051510613 -0.00507697
0.30123842 0.00019039598 -0.0097811827
-0.28857487 0.012620267 -0.0093559762
0.20504913 0.015418481 -0.0098219598
0.21431857 0.014560385 -0.0053801085
0.22657886 0.015481364 -0.00067389122
0.25757337 0.0142749 -0.0046737408
0.27955732 0.012562482 -0.0040060747
0.28309357 0.012154302 -0.0084601454
0.29661992 0.010234599 -0.0071449368
-0.28048694 0.023573015 -0.0021288639
-0.086382762 0.02970437 -0.00093995396
-0.073660344 0.029418314 -0.0075047077
0.0405096 0.020747729 -0.0080010407
0.20255706 0.028138749 -0.00093566225
-0.2617422 0.031472601 -0.0039417101
-0.22153832 0.031432878 -0.0038771017
-0.19263431 0.030520216 -2.4818177e-05
-0.18305779 0.03027913 -0.0052221436
-0.17145722 0.030178981 -0.0085529862
-0.15782915 0.030241681 -0.0098186638
-0.039562736 0.033908006 -0.0019261235
-0.27549329 0.049621072 -0.0039417101
-0.011539299 0.040578566 -0.0071395808
0.0405096 0.04321574 -0.0045486628
-0.24538764 0.053577367 -0.0039417101
0.17838235 0.054986291 -0.0061956248
-0.27771071 0.067467332 -0.0039417101
-0.25659043 0.062148027 -0.0039417101
0.058142018 0.062903397 -0.003807287
0.088440388 0.067226537 -0.0087414766
0.099326603 0.0604802 -0.0033229378
0.12915345 0.068691663 -0.0027897926
0.1410225 0.0604802 -0.0063022329
0.15064335 0.0604802 -0.0086508701
0.16336282 0.065615676 -0.0051889606
-0.29614812 0.072443895 -0.0034310895
-0.25321132 0.072942279 -0.0039417101
-0.26891631 0.085709862 -0.0039417101
-0.25802234 0.081323907 -0.0039417101
-0.26187673 0.096059456 -0.0039417101
-0.2992613 0.10418766 -0.0013631089
-0.26827997 0.10997875 -0.0036722003
-0.25574383 0.10990478 -0.0030926012
-0.287853 0.11720655 -0.0020941771
0.027012587 -0.05147133 0.0071621244
0.043070976 -0.052870519 0.0090975603
0.1059339 -0.058045071 0.0017894192
0.15543692 -0.057268575 0.005641832
0.20533711 -0.052077614 0.0083098384
-0.0228357 -0.047127996 0.0021813605
-0.0062338896 -0.04857453 0.0040535536
0.090994298 -0.049698599 0.008665082
0.11411817 -0.049698599 0.0084997574
0.16616555 -0.048552237 0.0049938802
0.22860454 -0.048675168 0.0047042076
0.23481412 -0.04764029 0.00012763967
0.24426515 -0.045795672 0.004069055
-0.1369177 -0.03236223 0.007594401
-0.18522134 -0.022171671 0.0089276573
-0.17082202 -0.02566006 0.0055491002
0.18177944 -0.026469724 0.00021370267
0.28975213 -0.029722914 0.0037625094
0.0405096 -0.010564126 0.0049501136
0.0405096 -0.0031029368 0.0043779872
0.18043321 -0.006896873 0.00064767228
0.21356399 -0.003830329 0.0019863509
-0.26873896 0.0088228043 0.0064121499
-0.28201801 0.013228445 0.0029233214
-0.27467501 0.012817236 0.0079061883
-0.24757883 0.0110439 0.0074307779
-0.22829978 0.010657197 0.0077100727
0.20670965 0.015802776 0.0047775423
0.24422675 0.014866265 0.0093971193
-0.24398617 0.025938055 0.0027348653
-0.23927233 0.023968607 0.0039416999
-0.22793388 0.023246234 0.0039416999
-0.21988007 0.022871174 0.0010741146
-0.19622232 0.022199899 0.0010467182
-0.18334906 0.021965515 2.0747721e-06
-0.12309171 0.02992687 0.0076946039
-0.1092782 0.029780066 0.0078663193
-0.098243579 0.029667994 0.0061739748
-0.069083974 0.029371833 0.0014185738
0.0405096 0.029770065 0.0075714197
0.2098715 0.020015605 0.0023358536
-0.29295972 0.032074973 2.04215e-07
-0.22393286 0.030730415 2.04215e-07
-0.21598095 0.034011118 0.0033620698
-0.13513267 0.030541316 0.0016723316
-0.11588837 0.030034859 0.0040620305
-0.22538815 0.045494772 2.04215e-07
-0.2193411 0.042978659 0.0026011155
-0.30074579 0.05633112 2.04215e-07
-0.26753229 0.052326325 0.0019709521
-0.23343921 0.055489063 0.0013140361
-0.21676683 0.052171145 0.00056831772
0.17979322 0.053419411 0.00092405005
-0.30231988 0.067386329 2.0421501e-07
-0.27043191 0.064224266 0.0039416999
-0.25476399 0.062724866 2.0421498e-07
-0.24778569 0.063478842 0.0039416999
-0.23613882 0.069737963 0.0034932995
0.081778452 0.066546321 0.0047334274
0.11412539 0.063146204 0.0045351554
0.12764832 0.0604802 0.00013122751
0.13367327 0.066518903 0.0022821238
0.15870899 0.068020836 0.0033148502
0.16384624 0.067772977 0.0014423664
-0.29787564 0.077273294 0.0031311363
-0.26219702 0.073138781 2.0421501e-07
-0.2474865 0.076866411 0.0039416999
-0.26644787 0.085366771 0.0019709521
-0.25948128 0.080127768 0.0039416999
-0.24887256 0.080365904 0.0039416999
-0.23425218 0.080242492 2.0421501e-07
-0.25867614 0.092934467 0.0039416999
-0.24871682 0.090127319 0.0039355434
-0.29689133 0.10474758 2.0421501e-07
-0.26244763 0.10897349 0.0036033206
-0.25711727 0.10585942 2.04215e-07
-0.24685931 0.10221688 0.0026390627
-0.26252496 0.11050865 0.003480817
-0.26393813 0.12181152 0.0014607057
0.05012209 -0.053484887 0.017439364
0.14707428 -0.057877418 0.014760289
0.15328637 -0.057425141 0.017562263
-0.070449099 -0.042272829 0.010091273
-0.038994361 -0.045720071 0.018283371
0.058953412 -0.049698599 0.014954446
0.08366131 -0.049698599 0.018158609
0.097974017 -0.049698599 0.012127221
0.23834182 -0.047052369 0.015654797
0.25700393 -0.042283792 0.016693877
0.26159942 -0.041016895 0.016634122
-0.11799017 -0.035184361 0.015565468
0.21356401 -0.038697604 0.015538579
-0.17414212 -0.024855733 0.012709816
0.0405096 -0.028735064 0.018661374
-0.21081787 -0.012227631 0.015259684
0.1967264 -0.01464062 0.015249291
0.2027669 -0.016378185 0.010592529
0.21356401 -0.017672017 0.019173251
0.21324784 -0.0021003799 0.018031782
-0.26598185 0.0075765904 0.014265249
-0.2546103 0.0045392886 0.010458013
0.19469324 0.0021357574 0.010204332
-0.2989676 0.0110439 0.012497896
-0.26585063 0.0145113 0.013113907
-0.24753669 0.0145113 0.014509371
-0.2298694 0.0145113 0.019402154
-0.21103933 0.017656408 0.016552387
0.25147581 0.014545073 0.012050373
-0.22904761 0.021251788 0.012229489
-0.1121037 0.029808765 0.011579959
-0.09156166 0.029600129 0.010792438
-0.063324519 0.029313337 0.01782823
0.0405096 0.024632577 0.01746542
-0.027253419 0.036838055 0.019058334
0.19780774 0.033413172 0.014788796
-0.011843432 0.040506169 0.013402064
0.19136164 0.040571976 0.014155
0.18034837 0.052802905 0.014739562
0.072363451 0.064840838 0.017254101
0.080840208 0.066433132 0.014688286
0.095211804 0.067052469 0.013915202
0.13175245 0.0604802 0.013377755
0.15446445 0.066518903 0.019076308
0.012785072 -0.050231673 0.022971062
0.040506698 -0.052224446 0.025775746
0.051534545 -0.05188977 0.027168766
0.19624567 -0.053067476 0.022980697
-0.032556482 -0.045097426 0.02659389
0.12105958 -0.049698599 0.025544845
0.1300326 -0.049698599 0.026242552
0.19879314 -0.048974168 0.025648076
-0.13227838 -0.031108644 0.021901101
-0.081780754 -0.038439259 0.025900099
0.0405096 -0.036424041 0.023958232
0.25599658 -0.035273045 0.028575264
0.26192901 -0.025138525 0.029494014
-0.16020688 -0.010705091 0.025889341
-0.12842062 -0.012101937 0.028274655
0.21356401 -0.016019296 0.028077751
0.23802881 -0.019585401 0.029948456
0.27459535 -0.01760445 0.028339528
-0.16960378 -0.0003962419 0.02427363
0.21201538 -0.0021003799 0.025540382
-0.28146404 0.0096749328 0.021379478
-0.24350071 0.0075765899 0.02222326
-0.22088042 0.0085445177 0.027588435
-0.16038759 0.0023565062 0.025858201
-0.15654324 0.00042342331 0.026519189
-0.14822154 0.0014760639 0.027336963
0.20149371 0.002057164 0.029387768
-0.31043941 0.012108021 0.026014559
-0.30141252 0.014098661 0.024559027
-0.28892124 0.0110439 0.027012434
-0.25783309 0.0145113 0.022472348
-0.24574041 0.0110439 0.026165349
-0.23694198 0.0110439 0.028529633
-0.18304506 0.01314841 0.021659523
-0.16853811 0.015484216 0.023821352
-0.15052603 0.012381864 0.02684023
-0.11314201 0.015026866 0.028644241
0.23956022 0.015048545 0.029867167
0.28308839 0.012155036 0.020086223
-0.17412159 0.025832996 0.020336276
-0.15627854 0.023233952 0.025049204
-0.1223446 0.025756923 0.027155593
-0.11256418 0.021121128 0.028044786
-0.09681014 0.025431706 0.02869834
-0.085157931 0.028262079 0.026005654
-0.077737302 0.029459719 0.020680381
-0.046940681 0.032151796 0.023802219
-0.027846782 0.03669681 0.0263738
0.0058817933 0.044725396 0.026804714
0.11958559 0.040102396 0.029981934
0.1569694 0.043936621 0.029731868
0.17763747 0.046078507 0.029592084
0.18211593 0.041790415 0.029871764
0.10664777 0.053679332 0.029096454
0.071632609 0.062943093 0.027452253
0.10515738 0.068315618 0.026948318
0.12534525 0.064581245 0.027113978
0.13829392 0.066518903 0.026337851
0.17011407 0.067413509 0.028148416
0.089633457 -0.050456151 0.030821618
0.025903733 -0.044968806 0.030795023
0.044526681 -0.043536678 0.0315594
0.10080031 -0.044470765 0.0315594
0.18027873 -0.048810251 0.030603085
-0.008205384 -0.037549522 0.0315594
0.023212355 -0.036119819 0.0315594
0.083026528 -0.034604397 0.0315594
0.15685859 -0.034517407 0.0315594
0.19162978 -0.035849851 0.0315594
0.22511324 -0.036240224 0.031134188
0.23328352 -0.034199696 0.034375738
-0.085802823 -0.028434614 0.030292664
0.16974507 -0.028454291 0.0315594
-0.0024244813 -0.01187652 0.0315594
0.11130292 -0.011817787 0.0315594
0.1453629 -0.01889476 0.0315594
0.22219911 -0.010827865 0.0315594
0.23813894 -0.019764842 0.033095643
0.26422212 -0.01024637 0.03144585
-0.0023466367 -0.0011273953 0.0315594
0.023104535 -0.0066565373 0.0315594
0.066998631 -0.0072050421 0.0315594
0.15522826 -0.0030013183 0.0315594
0.21853912 -0.0030929341 0.0315594
0.23006454 -0.0069621177 0.0315594
0.26023826 -0.0048688548 0.031911999
-0.23040858 0.0075765904 0.037061825
-0.082012743 0.0053516333 0.030472053
-0.041487735 0.0010807212 0.0315594
0.052952968 0.0074412404 0.0315594
0.072045572 0.0086983088 0.0315594
0.14065763 0.0048495624 0.0315594
0.20433033 0.0055914856 0.0315594
0.21631557 0.0070722145 0.0315594
-0.29807991 0.0110439 0.031926844
-0.28734487 0.014445948 0.036869191
-0.276292 0.0145113 0.034858413
-0.071292959 0.017139785 0.030753037
-0.066142589 0.012186283 0.031223472
-0.023727683 0.018387377 0.031398173
0.071169898 0.014942504 0.031439066
-0.062399682 0.025718765 0.030721176
-0.027300915 0.025754683 0.030917801
-0.015401233 0.023282401 0.031079018
-0.0072940011 0.024662368 0.030988995
0.0081490483 0.024134975 0.031023357
0.040448375 0.020134401 0.031284243
0.096757308 0.028351884 0.03074831
0.12292529 0.021863109 0.03117149
0.15391919 0.021045752 0.031224797
0.18541124 0.028303875 0.030751389
0.19245701 0.023307744 0.031077247
0.0017491216 0.03626899 0.030231941
0.12425201 0.037014812 0.030183304
0.19787301 0.03115271 0.030565584
0.10877194 0.068441555 0.039512001
0.16848715 0.067514181 0.037312686
-0.29836747 0.0078215422 0.040526144
-0.28620744 0.0076293051 0.049792826
-0.30775228 0.013218783 0.046754982
-0.28409719 0.012389995 0.046505153
-0.26717299 0.0145113 0.047226656
0.094153754 0.060531817 0.044020515
0.11343639 0.0604802 0.041712012
0.13131842 0.068685353 0.048350163
-0.27777699 0.0075765899 0.053575885
-0.26312691 0.0075765899 0.057748307
-0.25758377 0.0075765899 0.054257434
-0.24976382 0.0075765899 0.055101275
-0.23881577 0.0075765895 0.056793623
-0.28488463 0.0110439 0.053067949
-0.2760421 0.0110439 0.0524121
-0.24904248 0.0110439 0.059137002
-0.22769269 0.014007311 0.057719093
0.078994289 0.066157892 0.051723409
0.092609376 0.067575969 0.0518618
0.13395788 0.0604802 0.053800069
0.16329212 0.0604802 0.054345883
-0.30260479 0.0080548292 0.068053618
-0.29102612 0.0076828552 0.069341786
-0.23646621 0.0075765899 0.063732959
-0.30960682 0.0110439 0.063634351
-0.28752568 0.01444394 0.064321995
0.075501971 0.065499164 0.066263981
0.092799813 0.067590959 0.06731917
0.10228333 0.0604802 0.068187729
0.14810601 0.0604802 0.060852364
0.15992336 0.067965411 0.065669298
-0.29746139 0.0077716582 0.079278708
-0.25760078 0.0075765904 0.072910137
-0.30327642 0.013979686 0.070733182
-0.29460397 0.0110439 0.079373881
-0.26338619 0.0110439 0.070616022
-0.24689561 0.0145113 0.075097896
0.075806446 0.064074382 0.075659193
0.080122039 0.06633196 0.079058528
-0.28146401 0.0079689836 0.087128699
-0.27673027 0.0075765899 0.087017342
-0.30168575 0.0110439 0.088175945
-0.29300705 0.014383027 0.080936961
-0.28146404 0.014097752 0.089130588
0.074455604 0.065264702 0.088107824
0.094941571 0.067749344 0.087954111
0.11264968 0.064482376 0.082565814
0.12609145 0.0604802 0.081336714
0.1417233 0.0604802 0.085045092
0.1603118 0.067946449 0.08811564
-0.30286154 0.013955871 0.096867166
-0.28619495 0.011043901 0.097442143
-0.25916699 0.011043901 0.090111651
0.098411627 0.064226478 0.097820923
0.1380619 0.068625331 0.097761117
0.14510614 0.0604802 0.096030414
0.078640729 0.066100493 0.10897554
0.10399515 0.068270206 0.10468999
0.1291016 0.0604802 0.10193226
0.1333084 0.068676032 0.10606959
0.14403282 0.068513893 0.10281723
0.17378458 0.061260991 0.10225815
0.073401898 0.06501089 0.11409113
0.082367472 0.061595917 0.11859865
0.090601675 0.067417905 0.1100301
0.11426786 0.064519882 0.11770799
0.12437588 0.0604802 0.11402749
0.15285523 0.0604802 0.11535249
0.073766053 0.065099463 0.12747134
0.09308362 0.060622387 0.12823187
0.11097486 0.0604802 0.12298777
0.14180486 0.068564162 0.12581024
0.11372644 0.0604802 0.13505752
0.17509201 0.06395331 0.1366795
0.097531669 0.067925051 0.14015588
0.14714664 0.068436325 0.14264362
0.1749974 0.064669475 0.14687242
0.085447669 0.061289608 0.15083255
0.097485378 0.0604802 0.15607063
0.11292452 0.0604802 0.15369454
0.15927501 0.067996949 0.15997036
0.17021215 0.0604802 0.15976983
0.073012792 0.062744416 0.16651188
0.086990461 0.061142907 0.16313976
0.090794004 0.067433044 0.16645151
0.11207392 0.06852302 0.16480574
0.13565774 0.0604802 0.16021581
0.080779091 0.061769538 0.17188117
0.091782428 0.067510858 0.17506522
0.10638963 0.0604802 0.17685427
0.11890144 0.068625554 0.17992702
0.13347618 0.0604802 0.17131135
0.17356965 0.063619509 0.17771056
0.074560389 0.062533028 0.18728839
0.082922578 0.066684768 0.18634269
0.10605735 0.0604802 0.1853985
0.13575697 0.064544842 0.18414679
0.1568433 0.068099521 0.18775187
0.1070554 0.0683887 0.19881594
0.14460106 0.0604802 0.19772306
0.08588095 0.061261415 0.2083278
0.10660568 0.068371437 0.200633
0.13489975 0.0604802 0.20558201
0.16551344 0.0604802 0.20683199
0.17487326 0.062787443 0.20519248
0.071603432 0.064526156 0.21410722
0.10435116 0.068284594 0.2148266
0.11402311 0.0604802 0.21814944
0.16638933 0.0604802 0.21139482
0.085829288 0.066981062 0.22818609
0.097224586 0.0604802 0.22132207
0.12710139 0.064585082 0.22097808
0.16734535 0.0604802 0.22253788
0.17453562 0.062079731 0.2216955
0.072090238 0.064669929 0.23451354
0.094175041 0.067696638 0.23724268
0.10873032 0.06844037 0.23580258
0.11534628 0.0604802 0.23253226
0.13547298 0.068655521 0.23200656
0.17172793 0.067300767 0.23163642
0.09890002 0.0604802 0.24724469
0.10551637 0.0604802 0.24048144
0.11241981 0.064480111 0.24597484
0.13887811 0.0604802 0.24905385
0.15186939 0.0604802 0.2451342
0.1667757 0.065153651 0.24546568
0.092848934 0.064180896 0.25397769
0.15371706 0.064347923 0.25756675
0.078986332 0.061975747 0.26413673
0.091139644 0.060786922 0.26593393
0.10240741 0.068193145 0.26247776
0.11790362 0.068612181 0.26572445
0.12854685 0.0604802 0.26142666
0.1429804 0.0604802 0.2620244
0.15691215 0.0604802 0.26272199
0.16170454 0.0604802 0.26456624
0.072429635 0.062826075 0.27408439
0.083510593 0.063881993 0.27359602
0.098274797 0.06796857 0.27326396
0.10064004 0.0604802 0.27414882
0.12074047 0.068646193 0.2785868
0.15028769 0.0604802 0.27389237
0.091619059 0.067497991 0.28309426
0.13404959 0.068669066 0.28366977
0.15848292 0.0604802 0.28880209
0.16098145 0.0604802 0.28188315
0.1138065 0.064543679 0.29557222
0.14474279 0.068497889 0.29847652
0.168328 0.061196849 0.29576686
0.10635952 0.068345636 0.30677038
0.12168649 0.0604802 0.30465388
0.16632891 0.065038964 0.30384904
0.077429466 0.065886214 0.31721255
0.096220911 0.067837328 0.31145221
0.11310012 0.0604802 0.31035796
0.16152675 0.0604802 0.31797448
0.07394433 0.063266315 0.32674247
0.082184806 0.061615758 0.32181498
0.10077196 0.068113856 0.32914394
0.11597575 0.064544901 0.32181838
0.1372714 0.0604802 0.32902569
0.15834901 0.068034671 0.32469863
0.17225528 0.060560763 0.3217411
0.071205497 0.064254619 0.33815861
0.15126489 0.0604802 0.33216733
0.084324464 0.066832125 0.34893596
0.13111854 0.0604802 0.34736225
0.15417629 0.0604802 0.34719321
0.075340457 0.06513162 0.35975105
0.096645027 0.064303488 0.35852164
0.10018175 0.068071201 0.35446909
0.15062559 0.068277538 0.35560197
0.16698003 0.067462921 0.35719371
0.10794502 0.0609833 0.3602508
0.11229409 0.06804961 0.36165261
