# .PCD v0.7 - Point Cloud Data file format
VERSION 0.7
FIELDS x y z
SIZE 4 4 4
TYPE F F F
COUNT 1 1 1
WIDTH 792
HEIGHT 1
VIEWPOINT 0 0 0 1 0 0 0
POINTS 792
DATA ascii
-0.09833739 -0.0089495759 -0.33277616
-0.084863156 -0.020745657 -0.32427758
-0.10270391 -0.013038514 -0.32990614
-0.095803335 -0.016494097 -0.32660085
-0.090615138 -0.023879685 -0.31249428
-0.092367619 -0.026113868 -0.30248201
-0.086470433 -0.024655506 -0.30515873
-0.084004506 -0.02620253 -0.29545274
-0.076643631 -0.025402553 -0.29636043
-0.066073745 -0.022673491 -0.29438078
-0.083458573 -0.026959028 -0.2860311
-0.06253852 -0.025452798 -0.28708473
-0.058307294 -0.022863878 -0.28987324
-0.047788456 -0.027373292 -0.28011349
-0.076431856 -0.027307477 -0.27546981
-0.059840627 -0.028705314 -0.27235359
-0.074556641 -0.028106702 -0.26849142
-0.068708941 -0.029255316 -0.26595396
-0.053845216 -0.029114921 -0.2675918
-0.048050031 -0.024123397 -0.26992986
-0.072927743 -0.030181713 -0.25425059
-0.042022202 -0.030358573 -0.2531319
-0.072460458 -0.029448567 -0.25801143
-0.059298724 -0.027062869 -0.25713319
-0.041593514 -0.025255527 -0.25484222
-0.035030685 -0.025365788 -0.25398305
-0.040740367 -0.030869296 -0.24719252
-0.027095616 -0.030100618 -0.24721162
-0.061035853 -0.030825101 -0.23650339
-0.04958941 -0.029155292 -0.23337463
-0.024791487 -0.026675742 -0.2319469
-0.052441936 -0.031429321 -0.22293644
-0.048284754 -0.030262955 -0.22515494
-0.033329833 -0.032681059 -0.22612375
-0.026438978 -0.033063151 -0.2216823
-0.049456641 -0.029946256 -0.22841634
-0.056894101 -0.033288047 -0.21867183
-0.041243572 -0.033456989 -0.21761793
-0.0084809363 -0.033525795 -0.21315321
-0.020005323 -0.028124344 -0.21628299
-0.0057903286 -0.029501498 -0.21049681
-0.041690364 -0.03282309 -0.20316739
-0.038434125 -0.033739373 -0.20340407
-0.027745843 -0.034666717 -0.20553033
-0.024954922 -0.031399935 -0.19407141
-0.0026159035 -0.035169318 -0.19868462
0.0021632223 -0.03545583 -0.19392806
-0.022238418 -0.032044452 -0.18706669
-0.014290915 -0.035102557 -0.18279858
-0.00013375189 -0.030305799 -0.18336432
0.0031756805 -0.036952697 -0.18226576
0.010174891 -0.035025336 -0.18804814
-0.032093018 -0.038078193 -0.17126179
-0.021555219 -0.03760479 -0.17602047
-0.0082745207 -0.032540154 -0.17196831
-0.038651835 -0.038513128 -0.16698335
-0.025779311 -0.036829218 -0.16058545
-0.015946183 -0.038481764 -0.16721345
-0.0084043955 -0.038424034 -0.16779587
0.016630031 -0.039076641 -0.16086739
-0.015041683 -0.039786257 -0.1541106
-0.0018776469 -0.039765179 -0.15432674
0.021874551 -0.031819925 -0.15580596
-0.027116489 -0.040227663 -0.14180435
-0.010777158 -0.040893406 -0.14299113
-0.0077984659 -0.040838353 -0.14354506
-0.022703022 -0.038451854 -0.14725778
-0.018119039 -0.037802003 -0.14572713
-0.0015818235 -0.034905139 -0.14748579
0.014159599 -0.033355467 -0.1469174
0.023418002 -0.032190129 -0.14750995
-0.02560892 -0.041573673 -0.13483602
0.029435527 -0.041207228 -0.13930856
-0.023331348 -0.039853971 -0.13962248
0.041507475 -0.035436574 -0.13374503
-0.013404006 -0.041893043 -0.12431161
-0.0095877331 -0.042817086 -0.12367423
0.036012661 -0.033753436 -0.12632367
0.042969119 -0.034306489 -0.12617514
-0.023534615 -0.043250605 -0.1195375
-0.0064356457 -0.04214374 -0.11712828
0.008230661 -0.044162009 -0.11016549
0.017094318 -0.043374833 -0.11807539
0.0058985427 -0.03847792 -0.11613718
0.033331189 -0.035373062 -0.11400402
0.045815162 -0.034341861 -0.11500441
0.0037869923 -0.042396884 -0.10518448
0.015075901 -0.044632975 -0.10543711
0.027320338 -0.037487321 -0.10315783
0.056822449 -0.035945907 -0.10339038
-0.015895642 -0.045528982 -0.098134905
-0.0086034574 -0.04588443 -0.095461011
0.001552097 -0.041507557 -0.098376103
0.010420856 -0.040432807 -0.096562505
0.040760633 -0.045725312 -0.097993329
0.053319499 -0.045796432 -0.096699037
0.033716194 -0.038385093 -0.090992793
0.058083374 -0.035674077 -0.09383408
-0.011116135 -0.04714961 -0.084501609
-0.0049222074 -0.047331817 -0.085579209
0.011793355 -0.041495517 -0.088897884
0.059209004 -0.046788342 -0.089591764
0.051223751 -0.036747959 -0.087860025
0.069776401 -0.039163589 -0.089367762
-0.013184425 -0.04928007 -0.072754063
-0.0088882111 -0.049084924 -0.073953599
0.0034772214 -0.048947971 -0.07462839
0.010830244 -0.045852564 -0.078480288
0.078321934 -0.046508007 -0.075601697
0.075481638 -0.03812163 -0.072685778
-0.01173229 -0.050328635 -0.063271128
0.025084065 -0.051701117 -0.062690482
0.048652329 -0.05233831 -0.065078817
0.063485272 -0.053190034 -0.060937636
0.010570865 -0.049929604 -0.067907244
0.026145194 -0.042628072 -0.067782775
0.044379339 -0.040437859 -0.064973265
0.090621695 -0.045689292 -0.061136015
0.07576935 -0.037611634 -0.069385849
-0.0057629813 -0.052008852 -0.054405078
0.014971443 -0.052181184 -0.055870797
0.031800255 -0.053649295 -0.055808317
0.066180542 -0.054488227 -0.054618955
0.023210209 -0.04517654 -0.054266185
0.092224523 -0.046556965 -0.053399082
0.062729582 -0.039217565 -0.056354828
0.072831504 -0.038564436 -0.051382452
-0.010402031 -0.053113934 -0.047152694
-0.0088091874 -0.05212304 -0.048165064
0.0046507027 -0.050313555 -0.040188551
0.02832476 -0.055148236 -0.044853937
0.032270618 -0.055388264 -0.046552654
0.079805925 -0.055502392 -0.049686596
0.025619291 -0.045899738 -0.046297301
0.049005151 -0.042304475 -0.045315411
0.0010214474 -0.054752268 -0.037431806
0.086874485 -0.05843116 -0.034239981
-0.14165111 -0.043612082 -0.030400939
-0.13076168 -0.043867182 -0.030984242
-0.12046854 -0.04593977 -0.030139171
-0.050065894 -0.046179935 -0.030021135
-0.02845869 -0.042034045 -0.031732641
-0.017607605 -0.04012559 -0.032520793
0.015652113 -0.048252963 -0.036843695
0.03528164 -0.044444595 -0.030764217
0.08277528 -0.04120943 -0.032110441
0.10578352 -0.040580958 -0.03739211
0.11270767 -0.044667311 -0.036464892
0.12387189 -0.04291657 -0.0314232
0.15935475 -0.044358101 -0.030843157
0.16541326 -0.04255341 -0.031586975
0.21572441 -0.043458723 -0.031232491
0.22651583 -0.041785859 -0.031926386
-0.11043255 -0.039891362 -0.032601431
-0.10476661 -0.030656368 -0.033605292
-0.09522932 -0.03581807 -0.033125121
-0.063479602 -0.038008478 -0.032852385
-0.0030656261 -0.030103246 -0.03356719
0.025076702 -0.031401206 -0.033596545
0.034363076 -0.03756585 -0.032943215
0.082785212 -0.035243589 -0.033257015
0.13729233 -0.039084502 -0.032785073
0.16475621 -0.037137244 -0.033043534
0.265347 -0.034676928 -0.032785676
-0.1924071 -0.026184227 -0.03030652
-0.18821366 -0.026538551 -0.03091732
-0.159731 -0.023041092 -0.031489015
-0.13995126 -0.02045865 -0.031423606
-0.10508883 -0.022748521 -0.032516293
-0.097743079 -0.028192656 -0.03327959
-0.074021332 -0.025681823 -0.032953538
-0.065585352 -0.029066077 -0.033407226
-0.054946817 -0.024596635 -0.032815758
-0.014012055 -0.023561805 -0.032599393
-0.009240441 -0.023482598 -0.032683279
0.0055454075 -0.02156214 -0.032090761
0.019015133 -0.021539854 -0.032086208
0.031799186 -0.024574379 -0.032842889
0.079282165 -0.026858967 -0.033163909
0.10580957 -0.02339248 -0.032711543
0.11677691 -0.022784263 -0.032530546
0.13594721 -0.024362419 -0.032851093
0.15943411 -0.02112543 -0.031962212
0.18389253 -0.024636276 -0.032904319
0.21226853 -0.029623613 -0.033578485
0.24568462 -0.023166373 -0.032742634
0.26562786 -0.020667028 -0.031159658
0.27079666 -0.022924166 -0.031490356
-0.12762406 -0.017866582 -0.030540898
-0.021271981 -0.019520989 -0.031229127
-6.6168606e-05 -0.017902113 -0.030560497
0.010074403 -0.019316731 -0.031154852
0.036935374 -0.019941881 -0.0314252
0.076225907 -0.017302969 -0.03033695
0.21224569 -0.018599465 -0.030925982
0.22920963 -0.019135363 -0.031158168
0.24419799 -0.018070353 -0.030723888
0.25335944 -0.01963703 -0.031384569
-0.12753405 -0.056197338 -0.022351781
-0.11918473 -0.056448378 -0.022000831
-0.09881255 -0.056631163 -0.021697035
-0.085544758 -0.055406298 -0.023226961
-0.079503551 -0.053090144 -0.025339773
-0.066532522 -0.054765139 -0.023527252
-0.056333184 -0.051810749 -0.026292617
-0.049980383 -0.050209399 -0.027520765
-0.034168553 -0.055751622 -0.022660056
0.00063082948 -0.056711037 -0.021487303
0.020528972 -0.05249735 -0.025793852
0.041165866 -0.052023754 -0.026163634
0.089014426 -0.057674658 -0.020273943
0.095435612 -0.056842558 -0.021350617
0.10250183 -0.056259215 -0.022106322
0.11165161 -0.054658044 -0.024171568
0.14712271 -0.051092219 -0.026913568
0.22412451 -0.055667166 -0.022914462
0.25645971 -0.055999812 -0.02251544
0.26492074 -0.056104973 -0.021646697
0.29305771 -0.052874923 -0.020571476
-0.21733837 -0.041604251 -0.021436736
-0.084415652 -0.048513427 -0.028842086
-0.041897934 -0.048922807 -0.028508551
0.0061112531 -0.046961233 -0.029719677
0.046036705 -0.049403429 -0.028170962
0.10016426 -0.04785531 -0.029374979
0.14764135 -0.049607255 -0.028050486
0.18913364 -0.049067151 -0.028478451
0.26526892 -0.048330087 -0.028402118
0.28928256 -0.043870959 -0.027160158
0.29720581 -0.048031166 -0.02354867
0.31821096 -0.045080934 -0.020003226
-0.20033924 -0.038181908 -0.026982136
-0.19320615 -0.036135986 -0.028671239
0.29483804 -0.033779234 -0.028705971
-0.24360543 -0.023851436 -0.023816183
-0.21575361 -0.028696131 -0.028201815
-0.20334071 -0.029449329 -0.029429529
0.28765202 -0.023376519 -0.02920872
0.30591655 -0.023739308 -0.025820743
-0.2444988 -0.014698898 -0.022906046
-0.23483372 -0.015756434 -0.024550891
-0.18311547 -0.014962386 -0.028125141
-0.1615037 -0.01104266 -0.025917634
-0.14888757 -0.014417465 -0.028576564
-0.10657418 -0.01155067 -0.026775256
-0.077591822 -0.013449064 -0.028208837
-0.052740868 -0.013147435 -0.027963502
-0.012983928 -0.014763014 -0.029228503
0.0050388039 -0.012666265 -0.02761085
0.027783941 -0.0154581 -0.029549509
0.06199735 -0.014176849 -0.028800737
0.083369441 -0.015207667 -0.029464357
0.10052434 -0.012688736 -0.027661648
0.1608381 -0.015587997 -0.029650319
0.19746244 -0.013505436 -0.028328266
0.2974115 -0.014441136 -0.023285924
0.30585012 -0.019795105 -0.024288114
-0.10420694 -0.0050012479 -0.020202443
-0.029882856 -0.0049637659 -0.020019904
-0.014627893 -0.0064775115 -0.022002611
0.02419563 -0.0052264901 -0.020382017
0.16885887 -0.0088616312 -0.024721377
0.21611403 -0.0082457736 -0.02407028
0.23792782 -0.0061990749 -0.021726545
0.24219619 -0.0090852864 -0.024932457
-0.088677019 -0.061162554 -0.014056646
-0.076632075 -0.060424242 -0.016006127
-0.065001652 -0.062798269 -0.010440286
-0.018552739 -0.061733112 -0.013021663
-0.0034194104 -0.061234169 -0.014221716
0.049520973 -0.061500989 -0.013601306
0.068779349 -0.062668703 -0.010811835
0.075942367 -0.060373776 -0.016309787
0.095127635 -0.062465288 -0.011308147
0.11601727 -0.060004592 -0.01720785
0.2134748 -0.062566757 -0.011106569
0.22788534 -0.060443372 -0.016199686
0.23384058 -0.060058832 -0.017126186
0.26180732 -0.060166113 -0.016469967
0.270814 -0.060401812 -0.014106167
-0.16068301 -0.055995665 -0.016964419
-0.14357635 -0.056780703 -0.019668771
0.14178559 -0.058340136 -0.01943313
0.2680141 -0.058432251 -0.018240524
0.3149544 -0.053682506 -0.013284915
0.33453515 -0.047102548 -0.012677065
-0.26701897 -0.032356042 -0.013272958
-0.25471133 -0.034922943 -0.015447374
-0.24937792 -0.038841359 -0.012665657
-0.22945338 -0.039676249 -0.019524371
-0.29463774 -0.022187043 -0.011097992
-0.28178525 -0.022495523 -0.014405234
0.34015727 -0.02598194 -0.012063295
-0.28742057 -0.011417042 -0.013927506
-0.27883828 -0.010960685 -0.014935024
-0.26938054 -0.014376221 -0.01608712
0.30451834 -0.01025084 -0.017692477
0.31955656 -0.010154769 -0.010920154
-0.31178924 -0.0081380131 -0.010412117
-0.29336596 -0.0032217498 -0.011431668
-0.28810218 -0.0096106194 -0.01383204
-0.2625249 -0.0016005901 -0.011023272
-0.25542051 -0.003094163 -0.012920018
-0.24366362 -0.0043999539 -0.016401079
-0.22594652 -0.001043918 -0.012124081
-0.21585226 -0.0039488189 -0.01758899
-0.1946519 -0.0027811755 -0.01657496
-0.18641892 -0.0047359583 -0.019429673
-0.17255342 -0.00074459496 -0.012384169
-0.13692999 -0.0015642992 -0.014740206
-0.1190061 -0.0017538232 -0.015138167
-0.10599356 -0.0018855795 -0.015315849
-0.066711009 -0.0042483741 -0.019083403
-0.05195098 -0.0012872949 -0.013549814
-0.033950754 -0.0037258198 -0.018401379
-0.027719991 -0.00034988989 -0.011277294
-0.0067717768 -0.0018874165 -0.015025895
0.0083384737 -0.0019499484 -0.015183341
0.022512805 -0.0038136803 -0.018535905
0.073602051 -0.0046741399 -0.019677781
0.09945149 -9.1876223e-05 -0.010693941
0.12214381 -0.0013206219 -0.013691805
0.15422502 -0.0021213985 -0.015651578
0.16343421 -9.6818869e-05 -0.010728345
0.19888246 -0.0022337779 -0.015940661
0.22196911 -0.0022989665 -0.016107362
0.25958842 -0.0024622022 -0.016485492
0.264281 -0.00024879299 -0.010238087
0.27357978 -0.00391084 -0.016896535
0.29975075 -0.0095417667 -0.018581219
0.30872005 -0.0087623782 -0.014305548
0.045717049 0.00013425751 -0.010124896
-0.13442868 -0.063991055 -0.0013174443
-0.12971301 -0.063838132 -0.0026199962
-0.10503701 -0.063797824 -0.0038475599
-0.085209697 -0.063643932 -0.005723475
-0.078212976 -0.064329043 -0.00084775506
-0.057709463 -0.063659541 -0.0063890112
-0.025135506 -0.063678712 -0.0062568374
-0.019912798 -0.064200208 -0.0023531381
-0.0044928156 -0.063510083 -0.0075269407
0.0066849426 -0.063944012 -0.0042811194
0.027713165 -0.06433209 -0.0013820401
0.048785444 -0.063990518 -0.0039475514
0.091971315 -0.063155629 -0.009653965
0.13793904 -0.064296566 -0.0016866507
0.14463225 -0.064139135 -0.0028680002
0.16444725 -0.063494951 -0.0076993657
0.17261994 -0.063963056 -0.0041964645
0.19255148 -0.064307757 -0.00013354828
0.24305333 -0.064338326 -0.00039110426
0.25466591 -0.063583687 -0.0070795841
0.28262648 -0.06235268 -0.0007057102
0.29292572 -0.060608208 -0.0014629526
-0.21655789 -0.050173271 -0.0055339779
-0.19219959 -0.055114981 -0.0020697825
-0.16701798 -0.059351716 -0.0011377375
0.28851753 -0.059664939 -0.009950364
0.3012391 -0.059222542 -0.00067788042
0.3210654 -0.055818468 -0.0038164509
0.33496636 -0.049502451 -0.0096916594
0.34271726 -0.048523813 -0.0034970148
-0.30525833 -0.022298543 -1.4418343e-05
0.35329485 -0.028972089 -0.0046167029
-0.34206954 -0.010279928 -0.0013494586
-0.31467101 -0.019060094 -0.0021543643
-0.33338028 -0.0039667329 -0.0048426408
-0.29975834 -0.0012103369 -0.0091789644
0.30250394 -0.0031631524 -0.0027916571
0.31744587 -0.006961857 -0.0041253585
0.32143241 -0.0085415877 -0.0063044955
-0.32555267 0.00088842137 -0.00211434
-0.29328102 0.0038966397 -0.0012226251
-0.27633682 0.0012429233 -0.0030800886
-0.25013375 0.00047655584 -0.0071394509
-0.23366366 0.0075824042 -0.0014497561
-0.21407802 0.00087132369 -0.0070205671
-0.20212203 0.0014526935 -0.0022107547
-0.19910307 0.00076720217 -0.0081878146
-0.17054254 0.00071282429 -0.0086593609
-0.14650032 0.0015933113 -0.0010467911
-0.030598424 0.0011134812 -0.0044992678
-0.018038219 0.0010752336 -0.0048029018
0.086395383 0.0015766211 -0.00091668067
0.14131521 0.00040072063 -0.0095099425
0.16628376 0.0013910721 -0.0023963137
0.17420559 0.0015574975 -0.00032406219
0.1901831 0.0015993357 -0.00077526271
0.20666113 0.00093442248 -0.0059831585
0.25284678 0.00043239011 -0.0094458284
-0.31424195 0.010208937 -0.00082135265
-0.30817065 0.011390577 -0.0013503116
-0.28785571 0.019166443 -0.003388003
-0.26747596 0.019141806 -0.0035946991
-0.29686952 0.022865774 -0.0026992196
-0.32709065 0.031178724 -0.00044491823
-0.30753982 0.037873764 -0.0024124037
-0.33226883 0.040078852 -0.00029539847
-0.33346933 0.055667549 -0.00077661499
-0.32767421 0.057723738 -0.0014003218
-0.32776681 0.061912499 -0.0015200165
-0.30117005 0.067690633 -0.0020357892
-0.35053417 0.085353322 -0.00029196957
-0.34714869 0.084629945 -0.00061462878
-0.33628327 0.087249652 -0.0016920947
-0.32317218 0.084433228 -0.0021857424
-0.3514657 0.090308532 -0.00043108323
-0.14874023 -0.061332949 0.0072249691
-0.12069036 -0.062416516 0.0095700203
-0.11073066 -0.063502289 0.0044092345
-0.081348598 -0.063531674 0.0053450773
-0.026352704 -0.063490167 0.0063596233
0.0039251577 -0.062875941 0.0087964535
0.015737306 -0.063595407 0.0055189747
0.025681119 -0.063795328 0.0039464366
0.11556877 -0.062537402 0.0095811458
0.16511638 -0.06275849 0.0090258559
0.24230367 -0.063606054 0.0053500142
-0.20435996 -0.052845601 0.0022980336
-0.19120938 -0.054569975 0.0064508775
-0.18308413 -0.056526005 0.0018640074
0.323221 -0.054430693 0.0056146593
0.33779854 -0.05035387 0.0038403489
-0.25399661 -0.040663227 0.0028985667
-0.24492128 -0.042404544 0.005913137
-0.23584732 -0.045221414 0.0049795196
0.34497598 -0.04450867 0.007540273
-0.28224379 -0.031415183 0.00015515788
-0.27488923 -0.034106202 0.0021036386
0.35576853 -0.030831307 0.0020321675
-0.30383992 -0.021624777 0.0050313314
0.34884372 -0.027048323 0.0060585751
-0.30705261 -0.018742794 0.0077122045
0.33134827 -0.012508517 0.00035485753
-0.34054372 -0.0040136403 0.0032905736
-0.31253558 -0.0016011868 0.007556838
-0.27060848 -0.001388459 0.0090405354
-0.25701687 -0.00065548136 0.0084361359
-0.2311321 -0.00071280642 0.0098230001
-0.034455009 -0.00016796475 0.0094481194
0.30018222 -0.0031870636 0.0043780375
0.31474447 -0.0062814211 0.003447942
-0.29808891 0.0043347571 0.0010415643
-0.27127954 0.0089821415 0.0029520523
-0.26530293 0.0042390861 0.0031676558
-0.22134079 0.00075823232 0.006313913
-0.17947441 0.00072981673 0.007251861
-0.16630483 0.0011402022 0.0037313604
-0.12546395 0.00064893125 0.0080946563
-0.087022439 0.00065112382 0.0069483705
-0.034823053 0.00012358339 0.0087500699
-0.013380729 0.0010074762 0.0038714604
-0.002085953 0.00051956036 0.0075311013
0.024469232 0.0013459112 0.001317032
0.039489932 0.0004383084 0.0079704002
0.064425327 0.001249018 0.0020305968
0.074013725 0.0011630268 0.0026729214
0.096623383 0.0014540816 0.00047958421
0.12492587 0.0012145751 0.0022680578
0.15430096 0.0013817389 0.0010026095
0.1792171 0.0006672428 0.0063587991
0.18518221 0.0010649934 0.0033701414
0.19472831 0.0004593732 0.0075171469
0.2046167 0.00098524266 0.0039621647
0.22857058 0.00056066544 0.0060355067
-0.30278713 0.017228613 0.00099782273
-0.27866206 0.011887023 0.0028148014
-0.26888713 0.018191058 0.0026414441
-0.25253868 0.013995686 0.0024250685
-0.24695471 0.013685239 0.0017048308
-0.30404526 0.021299021 0.0010308817
-0.28853273 0.024193244 0.0025119856
-0.27467126 0.028677974 0.0024830045
-0.29860508 0.03996535 0.0024456682
-0.28113157 0.034906432 0.0024599209
-0.32141829 0.045475747 0.00078863074
-0.28532448 0.045275077 0.002246113
-0.32773829 0.057012357 0.00068498508
-0.33012021 0.060955636 0.0006319558
-0.32925734 0.069200575 0.00099256425
-0.34584403 0.090165138 0.0003737376
-0.10147146 -0.060397319 0.015158715
-0.027291488 -0.06199868 0.010941917
0.012646792 -0.061620675 0.011847718
0.052353445 -0.061707973 0.011621411
0.13064782 -0.061172839 0.012896138
0.1531238 -0.061468426 0.012169058
0.17996131 -0.060463943 0.014603795
0.2210336 -0.062095813 0.010618731
0.23471117 -0.060589232 0.014272008
-0.19823284 -0.050675172 0.013742747
-0.18201911 -0.052536715 0.015449621
-0.17696725 -0.051964059 0.017411401
-0.15892902 -0.05733484 0.013464851
-0.12596932 -0.058140919 0.018474951
-0.10463569 -0.057584815 0.019101691
-0.027200626 -0.057751995 0.018699694
-0.012354 -0.058552958 0.017648172
-0.00038072839 -0.059260152 0.016720146
0.076280609 -0.058189712 0.018091705
0.099532329 -0.057064511 0.019553468
0.24183354 -0.059569117 0.016219694
0.25414404 -0.058324575 0.017833574
0.285101 -0.056633282 0.015126077
0.29967839 -0.055273097 0.014442649
0.31280458 -0.051420614 0.015186269
-0.22673672 -0.044013094 0.013720364
-0.21155739 -0.047916263 0.014350086
0.31674555 -0.045654964 0.018249895
0.335051 -0.042995624 0.013674776
-0.26279539 -0.035057746 0.010450525
-0.25716683 -0.031669304 0.015388997
0.33341733 -0.031196088 0.015578449
-0.27472895 -0.021616779 0.01422004
-0.26325211 -0.027309261 0.015683204
-0.25378191 -0.027611177 0.018345023
-0.24839255 -0.029587042 0.019338235
0.31944466 -0.022001579 0.017673409
-0.29560792 -0.012704518 0.011819108
-0.28483868 -0.012778603 0.013095507
-0.26271099 -0.013618911 0.016673343
-0.25821695 -0.010111343 0.017415302
-0.27879882 -0.0034464749 0.011472072
-0.25771976 -0.0037318822 0.013051977
-0.20695131 -0.0031616651 0.015516974
-0.19273426 -0.0022672275 0.014224367
-0.16249962 -0.0023646778 0.014894819
-0.14804825 -0.0005612775 0.010559317
-0.12732564 -0.0014402139 0.013085432
-0.10881968 -0.0047831186 0.0186003
-0.090948507 -0.0029597727 0.016159985
-0.083633423 -0.0027093063 0.0154565
-0.071821667 -0.0023831294 0.014840047
-0.065028481 -0.0052998145 0.019053616
-0.051117148 -0.0026299013 0.015349615
-0.047049996 -0.00046172811 0.010156007
-0.023631742 -0.0030070459 0.01607332
0.0067919921 -0.0057367324 0.019587085
0.016196378 -0.0035187593 0.0157681
0.04445108 -0.0043221675 0.017747477
0.051892769 -0.0016252754 0.012907783
0.062396854 -0.003706912 0.016946806
0.14407089 -0.0048880139 0.018443163
0.1667009 -0.002960132 0.01594615
0.17434102 -0.00056273816 0.010320466
0.19145525 -0.0042139613 0.017491788
0.21301261 -0.0014538292 0.012440842
0.22497803 -0.0037532481 0.016948096
0.30936217 -0.0079587605 0.011009038
-0.11496291 -0.056523401 0.020528968
-0.087046027 -0.055856768 0.021284048
-0.04746535 -0.052071318 0.024676336
-0.033463202 -0.05446367 0.022818657
-0.024223519 -0.055975933 0.02101879
-0.016051922 -0.053027075 0.023925152
-9.0394169e-05 -0.051896527 0.024795128
0.010872901 -0.05417002 0.022927983
0.035876483 -0.054107536 0.022738615
0.05723979 -0.051182285 0.025328226
0.09587159 -0.05324294 0.023718804
0.10776763 -0.0534481 0.023555759
0.11544763 -0.05323948 0.023565888
0.1465845 -0.052426904 0.024333086
0.16166081 -0.05502259 0.022199132
0.21552365 -0.053294841 0.023636825
0.22549212 -0.05129353 0.025181431
0.23414674 -0.054845989 0.022397194
0.26387095 -0.053929158 0.022184253
-0.20285296 -0.040055145 0.024472509
-0.1957038 -0.045981318 0.0208061
-0.14675963 -0.045881838 0.027598143
-0.092791118 -0.047048721 0.02826646
-0.061975237 -0.048770078 0.027238103
-0.0050715022 -0.048121504 0.027720558
0.015223708 -0.044470597 0.029285476
0.082814299 -0.043018442 0.029868226
0.092667259 -0.047440436 0.028018419
0.14645877 -0.043372776 0.029698055
0.18469882 -0.042769752 0.029936509
0.19236249 -0.049061578 0.026923643
0.20587984 -0.049006574 0.026961535
0.21909626 -0.049342223 0.026696965
0.26084709 -0.046128891 0.028356729
0.27577299 -0.048434161 0.025387105
0.2846905 -0.040067684 0.027793039
-0.22345641 -0.034966275 0.023275035
-0.16555113 -0.036439516 0.029781932
0.29250705 -0.033793516 0.02734175
0.31966671 -0.031042598 0.021162717
-0.24168345 -0.024828793 0.022904232
-0.220323 -0.022298682 0.02651896
-0.21988657 -0.022420948 0.026597623
-0.18196994 -0.020258699 0.029113561
0.26803488 -0.020065773 0.02892915
0.30424076 -0.020721514 0.023333475
0.31421262 -0.02315446 0.021045698
-0.20463045 -0.01470924 0.025826687
-0.19527826 -0.015255518 0.026443589
-0.11345041 -0.016615957 0.028670896
-0.10140914 -0.013647577 0.027003452
-0.099225946 -0.012635154 0.026232112
-0.084064208 -0.017583581 0.029034803
-0.072303317 -0.017275052 0.028894514
0.0013551665 -0.012513242 0.026033789
0.027589783 -0.01173513 0.025429055
0.03890549 -0.015276982 0.028027581
0.055231392 -0.014748506 0.027381066
0.084699884 -0.017976696 0.029121252
0.13160993 -0.018079244 0.029146988
0.14545611 -0.018179212 0.029183222
0.15146588 -0.011434204 0.025155226
0.18549234 -0.01900542 0.029508635
0.24346328 -0.011286951 0.024990126
0.2620953 -0.019854903 0.029524799
0.29153413 -0.015182849 0.023200056
-0.16698107 -0.0062865098 0.020214822
-0.12892476 -0.0068756649 0.021360699
-0.091694213 -0.0068771061 0.021211229
-0.058667496 -0.0088808695 0.023274191
0.017739708 -0.0083519127 0.022842627
0.073621742 -0.0065902565 0.020665698
0.11597602 -0.0097906347 0.023909532
0.16790727 -0.0095378263 0.023697896
0.17306361 -0.0095094908 0.023674382
0.20903741 -0.0095826807 0.023717923
0.22174235 -0.0086106798 0.022969268
0.2742784 -0.009500673 0.021909066
-0.011063391 -0.05480893 0.036126167
0.055950817 -0.058627512 0.035369758
0.07423 -0.058049038 0.037177145
-0.062451988 -0.041672111 0.03048126
0.035509251 -0.041339621 0.030585825
0.060754165 -0.041867547 0.036801368
0.085417219 -0.041059811 0.030685205
-0.1428903 -0.034282822 0.031402823
-0.13336626 -0.036915034 0.03161243
-0.087229185 -0.035370264 0.03178883
-0.071741991 -0.033094827 0.032095511
-0.067342706 -0.03422619 0.0319429
-0.035513818 -0.036235459 0.031663511
-0.026191931 -0.035517536 0.031756088
0.039846268 -0.030645527 0.032159753
0.095529221 -0.0393641 0.039871141
0.13853858 -0.03841877 0.031311076
0.18809372 -0.037791818 0.031377502
0.20186637 -0.037033074 0.031473927
0.21932097 -0.03504841 0.031732954
0.238565 -0.036744583 0.03148983
0.24081379 -0.037905332 0.031332653
0.26929924 -0.036453426 0.030449064
-0.1240868 -0.026164481 0.031651746
-0.10713549 -0.028327502 0.031919006
-0.083535723 -0.027280487 0.031776562
-0.076898985 -0.024126513 0.031371392
-0.051709138 -0.025520686 0.031538624
-0.002575913 -0.025119204 0.031470418
0.026179323 -0.023916304 0.031126544
0.070117109 -0.029005293 0.031940214
0.089539282 -0.024023628 0.031298444
0.092709891 -0.025480099 0.031483173
0.12494502 -0.025213899 0.031306885
0.15279713 -0.022541439 0.030973447
0.17653467 -0.02628375 0.031556111
0.19630153 -0.025509605 0.031448815
0.20339754 -0.025602151 0.031459831
0.23294206 -0.024131307 0.03111884
0.25583038 -0.02239269 0.030745143
-0.0030838032 -0.054211795 0.040767699
0.0058586439 -0.050262176 0.040096939
0.015082573 -0.054810401 0.041080102
0.028544078 -0.055737592 0.042642295
0.096636161 -0.052853912 0.040925749
0.10032548 -0.05113728 0.04126193
0.0073997527 -0.049051709 0.049197495
0.019804155 -0.047730871 0.041947983
0.024037305 -0.046557941 0.045316435
0.044955924 -0.043420956 0.041759335
0.057868578 -0.041182615 0.047280267
0.10131896 -0.046435844 0.042867199
0.076319963 -0.038988151 0.046252362
-0.0025340989 -0.052338514 0.053832248
0.026203593 -0.052550133 0.059638858
0.046727989 -0.055260368 0.051902138
0.076794125 -0.055527702 0.050550632
0.0012150807 -0.049782008 0.051450811
0.039097261 -0.042663593 0.054382857
0.044935875 -0.041890204 0.055051811
0.057020504 -0.040565759 0.053420857
-0.0052359952 -0.050980881 0.06330432
0.0028349918 -0.050108068 0.06920059
0.018420191 -0.051747411 0.061561193
0.022363231 -0.051042907 0.067615479
0.08142662 -0.047829311 0.06942255
0.032384902 -0.050771154 0.074404426
0.054947637 -0.051152878 0.072483286
-0.011730667 -0.048819784 0.078436792
-0.0092185754 -0.049730163 0.0720677
0.004940324 -0.047419377 0.073394202
0.024182416 -0.046306416 0.075533092
0.044573672 -0.039992586 0.071254574
0.052015368 -0.038739547 0.074257813
0.074466646 -0.037909176 0.071747214
-0.0087885112 -0.046327863 0.086297348
0.0066211135 -0.047547825 0.087101944
0.018772945 -0.047924165 0.085744321
0.026403695 -0.040486813 0.08526849
0.058191475 -0.049084648 0.082846805
0.075588591 -0.045566078 0.082771093
-0.0049658371 -0.044371463 0.0925598
0.0054233731 -0.041652728 0.096168868
0.014618164 -0.041256912 0.091054611
0.066926569 -0.045149915 0.092792697
0.033070818 -0.037844915 0.099506736
0.0059976913 -0.042488553 0.1081722
0.026757658 -0.045364283 0.1036751
0.035287149 -0.045053378 0.10698493
0.01287929 -0.039072603 0.10919917
0.030497724 -0.037029013 0.10833285
0.045570403 -0.035589058 0.10565364
0.0023101387 -0.044076744 0.11740328
0.021004852 -0.044063985 0.11753255
0.031511601 -0.04424835 0.11556429
0.043025985 -0.044475239 0.11314256
0.055245966 -0.040651772 0.1166882
0.0034565441 -0.039229937 0.11779507
0.016975364 -0.037591133 0.1166237
0.053743761 -0.038062658 0.11533345
0.012444958 -0.037204992 0.12384584
-0.022475692 -0.04158745 0.13584895
0.025824079 -0.042630926 0.13280091
0.014685262 -0.035611853 0.13476402
0.028998392 -0.033564448 0.13770594
0.034892797 -0.034082089 0.1346516
0.040262081 -0.036995526 0.13868105
-0.026376825 -0.041733004 0.14249235
-0.018981606 -0.041360483 0.14635411
0.0071829483 -0.041695893 0.14277086
0.015037343 -0.041400526 0.14591534
0.012257094 -0.034766454 0.14388752
0.029675029 -0.033521775 0.14778277
0.0069589037 -0.040804163 0.15227282
0.012395305 -0.04050032 0.15550864
0.030932613 -0.040261909 0.15015656
0.023457278 -0.032843079 0.15297449
-0.021926863 -0.039445527 0.16676012
-0.0059357467 -0.034223281 0.16385001
0.014294746 -0.039406907 0.16606663
-0.029266052 -0.038237985 0.17962979
-0.01469747 -0.038378611 0.17812617
-0.043772761 -0.037505243 0.18340538
-0.036171902 -0.036177598 0.18278162
-0.023166804 -0.037795961 0.18433765
-0.010778884 -0.037616376 0.18624701
0.0019687992 -0.037981506 0.18235196
0.013564989 -0.036178175 0.18282659
-0.048081249 -0.036957841 0.1919176
-0.036217473 -0.036988813 0.19294286
-0.02421084 -0.036906902 0.19381152
-0.0061482014 -0.033454552 0.19671309
-0.042581178 -0.033314764 0.20830087
-0.0076645762 -0.029896494 0.203253
-0.03727679 -0.03528931 0.21105249
-0.018212762 -0.029553901 0.21375456
-0.053980097 -0.033410139 0.22028944
-0.0380353 -0.030407779 0.22106665
-0.022735275 -0.034297246 0.22169843
-0.029086949 -0.029411577 0.22166948
-0.064467207 -0.033052485 0.23721671
-0.050857972 -0.0331707 0.23573972
-0.044611953 -0.03348526 0.23181961
-0.062039573 -0.032281302 0.24682131
-0.044646598 -0.032266617 0.24699822
-0.033462547 -0.032058306 0.24821343
-0.050964762 -0.029454093 0.24170856
-0.039052121 -0.028116308 0.24065436
-0.063245863 -0.03144462 0.2572428
-0.049810849 -0.031753216 0.2533946
-0.061726809 -0.030752879 0.26585826
-0.055181578 -0.031179223 0.26054573
-0.063455611 -0.02846973 0.26237097
-0.044561986 -0.028011542 0.26700413
-0.046319187 -0.025630394 0.27254972
-0.067247674 -0.026066676 0.28238037
-0.052435808 -0.029471055 0.28027365
-0.082487777 -0.028613087 0.29251716
-0.071373552 -0.027858764 0.30190879
-0.066022478 -0.023667306 0.30380434
-0.083977111 -0.023417391 0.31810287
-0.067320324 -0.026366847 0.31186455
-0.097428173 -0.024764072 0.3221851
-0.084903173 -0.023514675 0.32348102
-0.092397943 -0.018451156 0.32722986
