# .PCD v0.7 - Point Cloud Data file format
VERSION 0.7
FIELDS x y z
SIZE 4 4 4
TYPE F F F
COUNT 1 1 1
WIDTH 929
HEIGHT 1
VIEWPOINT 0 0 0 1 0 0 0
POINTS 929
DATA ascii
0.0041815657 -0.012784548 -0.36949414
-0.067383431 -0.022683954 -0.35984808
-0.054325778 -0.021590807 -0.35641146
-0.043974541 -0.029644063 -0.35449436
0.022191798 -0.025955053 -0.35149139
0.015955038 -0.02825251 -0.34129685
-0.064659014 -0.018022694 -0.34953505
-0.01451823 -0.010468275 -0.34527782
-0.005862535 -0.0097588357 -0.3481074
-0.070128813 -0.017160062 -0.33281088
-0.045078918 -0.034090832 -0.32937235
-0.058859594 -0.016821995 -0.32190663
-0.025119048 -0.011195286 -0.32448387
0.02201445 -0.011211356 -0.32074475
0.032100368 -0.0063797999 -0.32675764
-0.044539697 -0.03414714 -0.31152487
-0.018552754 -0.031117938 -0.3108288
-0.0034434686 -0.033511512 -0.31626093
0.0044152741 -0.012858856 -0.31215647
-0.029999677 -0.036630575 -0.30745053
-0.073477402 -0.017409623 -0.30654883
-0.043866776 -0.038756911 -0.29853323
-0.0054583149 -0.036746502 -0.29609776
-0.077346519 -0.018023077 -0.29449904
-0.029943151 -0.015652658 -0.29055578
-0.19872662 -0.047009997 -0.2805582
-0.18112643 -0.046176679 -0.28277799
-0.16930577 -0.049738184 -0.28498918
-0.15815365 -0.045264632 -0.28913113
-0.067070737 -0.04125347 -0.28910628
-0.025148164 -0.035533816 -0.28536642
-0.0096712783 -0.038968865 -0.2835373
0.016203623 -0.03744331 -0.28050369
-0.055130772 -0.01623071 -0.28343791
-0.0054311929 -0.014348751 -0.28033507
-0.029485669 -0.037820395 -0.27300617
0.015038615 -0.032857135 -0.27440795
0.0037302412 -0.023590306 -0.27598202
-0.035492115 -0.016250825 -0.27200338
-0.011558976 -0.011255247 -0.27942282
-0.014358733 -0.0074757449 -0.27128333
-0.00031687663 -0.0086447671 -0.27514565
-0.041473467 -0.043644741 -0.26581994
-0.17129712 -0.035680428 -0.26288643
-0.14294539 -0.039450038 -0.26631853
-0.022020802 -0.031597562 -0.26533347
0.012584427 -0.034238104 -0.26639336
-0.079809085 -0.018592693 -0.26399386
0.048500795 -0.014464762 -0.26791173
-0.0062574791 -0.0092858477 -0.26296639
-0.19404446 -0.050310686 -0.25164351
-0.15811944 -0.051665507 -0.2543821
-0.070576772 -0.045262542 -0.258102
-0.029583834 -0.04387933 -0.25985727
0.017390916 -0.04126728 -0.25498456
-0.20359522 -0.031108595 -0.25315052
-0.046097152 -0.015381217 -0.25460285
0.021182716 -0.012205383 -0.25867686
-0.040817749 -0.0092803072 -0.25669503
0.013792968 -0.0072855004 -0.25842726
0.044695131 -0.0058436999 -0.25620896
-0.18563457 -0.052070949 -0.24313432
-0.15198381 -0.056308746 -0.24649586
0.029945411 -0.042157844 -0.24223952
0.026145663 -0.036177229 -0.24384123
-0.041286267 -0.016982643 -0.24390385
-0.21272659 -0.02765638 -0.23142612
-0.029520543 -0.011919872 -0.23693544
0.0022518584 -0.008469739 -0.23568988
0.048679207 -0.0058695711 -0.23681028
-0.040483326 -0.050440401 -0.22105086
0.015015389 -0.040282175 -0.22247761
0.037269261 -0.044443611 -0.22324018
-0.16630463 -0.031565882 -0.22658402
-0.21278122 -0.026333135 -0.22471745
-0.067279592 -0.018625224 -0.22526531
-0.042856254 -0.013533242 -0.22578612
0.0090798456 -0.048600174 -0.2115328
-0.13110325 -0.039185546 -0.21398248
-0.0075831418 -0.00953562 -0.21658497
-0.15714516 -0.053709872 -0.20061941
-0.22983071 -0.048089296 -0.20162952
-0.20587984 -0.049148798 -0.20202942
-0.12844646 -0.033766165 -0.20289019
-0.063809238 -0.016220989 -0.20594801
-0.21009508 -0.051559892 -0.19457296
-0.15643223 -0.054123655 -0.19148116
-0.021949284 -0.053709891 -0.1924223
-0.14284888 -0.031171829 -0.19938089
-0.21545652 -0.02165306 -0.19225179
-0.20332594 -0.022612583 -0.19006789
-0.065373525 -0.016440317 -0.1973324
-0.049823713 -0.014451556 -0.19870701
0.03106305 -0.0057699722 -0.19706935
-0.15446854 -0.059613816 -0.18142661
-0.081358694 -0.058452748 -0.18146329
0.0086923176 -0.053351644 -0.18073264
0.0164873 -0.051991314 -0.18563503
0.058083516 -0.042276066 -0.18638743
-0.22195086 -0.022102378 -0.18971518
-0.016892986 -0.0079052411 -0.184847
0.015731096 -0.0072248736 -0.18896706
-0.20097867 -0.050389357 -0.17515011
-0.18508126 -0.056244653 -0.17425963
-0.17470649 -0.052834854 -0.17507002
-0.022903634 -0.050475933 -0.17961848
-0.011943242 -0.055433676 -0.1768399
-0.24046341 -0.047326736 -0.17568853
-0.23485939 -0.047625601 -0.17909735
-0.19973032 -0.024965215 -0.17935869
-0.015367622 -0.018488055 -0.17775339
-0.2089991 -0.053623084 -0.16377458
-0.025230542 -0.052694038 -0.1660597
-0.0054672733 -0.057435386 -0.16080685
-0.22052947 -0.049106047 -0.16425662
0.065013185 -0.045488231 -0.16441368
-0.18560477 -0.026281951 -0.1697208
-0.030729689 -0.012230762 -0.16822723
0.025525896 -0.013121761 -0.16962725
0.060634945 -0.0084169768 -0.16231082
-0.24494001 -0.047606483 -0.1526635
-0.154548 -0.023406338 -0.15016529
-0.13470466 -0.027077496 -0.15732975
0.011432065 -0.021318275 -0.15464503
-0.22981286 -0.017277023 -0.15552633
-0.066275515 -0.016624521 -0.15885626
-0.054141134 -0.018994162 -0.15115018
-0.013043524 -0.013127232 -0.15546407
-0.0038193527 -0.0015183017 -0.15419801
-0.13724072 -0.063275397 -0.14318368
-0.18106422 -0.058388986 -0.14581485
-0.23582575 -0.048396312 -0.14797923
-0.18871012 -0.023289204 -0.14628549
-0.17116955 -0.025348686 -0.1401792
-0.073170811 -0.020062678 -0.14554489
-0.17575504 -0.01941466 -0.14049502
-0.063498162 -0.019615099 -0.14278114
-0.027911007 -0.017528214 -0.14238305
0.029601259 -0.013192149 -0.14049241
0.052433994 -0.011073678 -0.14272726
0.03905711 -0.0051120021 -0.14152561
-0.16846399 -0.060299672 -0.13921811
-0.094763927 -0.066672519 -0.13165078
-0.081658237 -0.066020623 -0.13254276
-0.046561942 -0.064415388 -0.13194458
0.036665134 -0.050974693 -0.13317159
-0.26453567 -0.046606373 -0.13978562
-0.24489665 -0.048009664 -0.13765985
-0.22243334 -0.049867183 -0.13403995
-0.0020014856 -0.015845034 -0.13278952
0.010019736 -0.01651122 -0.13462755
-0.005884157 -0.0095396992 -0.13980693
-0.13302027 -0.061734006 -0.12190528
-0.095473781 -0.067294292 -0.12748906
-0.065210275 -0.067063525 -0.12094605
-0.054100398 -0.062250976 -0.12386891
-0.043237835 -0.060370069 -0.12757017
-0.18273447 -0.053995386 -0.12002049
-0.15384483 -0.057022519 -0.12200343
-0.27181605 -0.046908561 -0.12080815
-0.084106967 -0.020870507 -0.12514479
-0.076242119 -0.020500908 -0.12540637
0.0093370974 -0.021710861 -0.12195969
0.02432118 -0.022420969 -0.12700918
-0.16454072 -0.019385556 -0.12880477
0.0085631302 -0.014797838 -0.12742603
-0.24413295 -0.0091380952 -0.12072673
0.017154474 -0.0023464421 -0.12531421
0.021672089 -0.0067617409 -0.12818916
-0.1418082 -0.064553544 -0.1127277
-0.042305071 -0.067099079 -0.11285204
-0.01930115 -0.064608976 -0.11998589
0.02620085 -0.061506066 -0.11857496
0.045823801 -0.052907538 -0.11370516
-0.26081207 -0.049220346 -0.11234914
-0.14773521 -0.020364407 -0.11835202
-0.092314698 -0.020178219 -0.11854513
-0.21876051 -0.01501811 -0.11460289
-0.19772522 -0.018668514 -0.11645113
-0.032118626 -0.012520168 -0.11671147
0.018458076 -0.016896974 -0.11856294
-0.22907516 -0.0099173356 -0.11494938
0.018941503 -0.0070430045 -0.11950368
0.028048849 -0.0061722421 -0.11453551
-0.23273408 -0.069352873 -0.104572
-0.17936659 -0.06080199 -0.1066552
-0.079443187 -0.066160895 -0.104572
-0.021236874 -0.065677755 -0.10619561
-0.010167013 -0.062328778 -0.10320337
0.0104152 -0.063476607 -0.10461491
-0.19246124 -0.053714633 -0.1006234
-0.1700549 -0.059986465 -0.104572
-0.15962102 -0.054203331 -0.104572
-0.14111674 -0.052209914 -0.104572
-0.13859242 -0.053740792 -0.104572
-0.12729366 -0.054544862 -0.104572
0.014738119 -0.057480518 -0.10259153
0.04717087 -0.053951479 -0.10550915
-0.11341303 -0.046760328 -0.104572
-0.051516429 -0.040548813 -0.104572
0.011902587 -0.045483299 -0.1006676
-0.073309138 -0.037613038 -0.104572
-0.21716522 -0.024624405 -0.104572
-0.13991512 -0.02568334 -0.10273316
-0.087717399 -0.021306457 -0.10662468
-0.23613562 -0.011471932 -0.1091662
-0.15850697 -0.017804956 -0.10979374
-0.065458931 -0.016627531 -0.10137864
-0.021765565 -0.017596437 -0.10717054
-0.17184758 -0.0056302096 -0.10163201
0.0097049484 -0.0079924595 -0.1072735
0.064572453 -0.0098351538 -0.10903612
-0.087917045 -0.071127877 -0.096362069
-0.036759328 -0.072233945 -0.091184236
-0.1460842 -0.065212846 -0.094451383
-0.03040662 -0.064108141 -0.090854689
0.0080981674 -0.067171916 -0.090764359
-0.27493349 -0.054794978 -0.094000652
0.017342847 -0.058502838 -0.093623593
-0.27093965 -0.046400853 -0.090171397
-0.27191901 -0.036482725 -0.090358518
0.069636278 -0.031849723 -0.090237617
-0.13155955 -0.024629734 -0.090579621
-0.063158661 -0.020298591 -0.092922613
-0.040880695 -0.019055035 -0.090345338
0.052680895 -0.011854933 -0.092236847
-0.20862868 -0.0015814874 -0.090589568
-0.01055799 0.0056867478 -0.090183452
-0.081642792 -0.073975876 -0.080925643
-0.059274912 -0.071872428 -0.087675676
-0.043045215 -0.072045892 -0.080796301
0.020434681 -0.07347399 -0.080649897
0.067789279 -0.070818186 -0.084141791
0.05086948 -0.064260826 -0.087115377
0.10995597 -0.063598089 -0.083105199
0.11807618 -0.064095609 -0.08162754
-0.27338365 -0.055223972 -0.086654037
-0.28342879 -0.040142857 -0.087254748
-0.27766901 -0.030101724 -0.084535606
0.075386971 -0.035248674 -0.089181989
-0.10004293 -0.021281315 -0.082774803
-0.13969758 -0.010858475 -0.080839373
-0.041038726 -0.019131312 -0.085454732
-0.18202907 -0.0043813763 -0.080379285
-0.14985409 -0.0022893236 -0.080810778
0.079794586 -0.0096814651 -0.088303164
-0.17455661 0.028860116 -0.080510594
-0.25385121 -0.071412772 -0.077139139
-0.24005073 -0.079056397 -0.076621041
-0.16433594 -0.074867107 -0.078888223
-0.09252055 -0.075048462 -0.078018643
0.064940043 -0.073464632 -0.072574869
0.13155529 -0.071064889 -0.071337208
-0.047503352 -0.068076462 -0.077523582
0.065039329 -0.060959786 -0.079872265
-0.30586368 -0.055777125 -0.070519611
-0.29657257 -0.054664716 -0.073016301
-0.23676497 -0.057934608 -0.073662259
-0.21081418 -0.058220461 -0.078730732
-0.23052692 -0.040713724 -0.078079179
-0.24011275 -0.035743326 -0.077646032
-0.20388311 -0.03305972 -0.079449996
-0.24128211 -0.016750433 -0.077997953
-0.220037 -0.01077255 -0.073141493
-0.1575681 -0.012155689 -0.071821257
-0.2606352 -0.0017696982 -0.076120943
-0.23925222 -0.008450822 -0.078285262
-0.19374833 -0.0033135116 -0.072494015
-0.19677299 0.0078069689 -0.072753392
-0.14523289 0.0081018135 -0.07700789
0.0091040069 0.0080193412 -0.078378305
-0.26397571 0.019445922 -0.075379886
-0.24941893 0.013102969 -0.074566126
-0.22402778 0.014809475 -0.076546773
-0.17923483 0.011469645 -0.07258904
-0.24613994 0.021048225 -0.07852377
-0.19532071 0.029698804 -0.073182642
-0.18780893 0.039015554 -0.073365673
-0.17139468 0.039494805 -0.07441844
-0.24902326 0.040569875 -0.074704207
-0.22595902 0.040963151 -0.079645634
-0.20712934 0.042825468 -0.073620886
-0.22538371 0.059556715 -0.079824954
-0.18312117 0.056908857 -0.075907402
-0.27692279 -0.070340499 -0.066232242
-0.025344606 -0.076072544 -0.068049133
0.05635757 -0.075726055 -0.063872986
0.11977693 -0.072469041 -0.067080207
0.15521999 -0.070720389 -0.068577096
-0.30063528 -0.020701922 -0.063233413
-0.1833009 0.003900547 -0.069650471
-0.16485369 0.0082730856 -0.060497425
-0.15539509 0.0035674954 -0.063787021
-0.092584372 0.0063795219 -0.061980724
0.044796538 0.0088024018 -0.06201414
0.12675208 0.00060724118 -0.063409433
-0.13577393 0.011399551 -0.06227088
-0.12581724 0.013106514 -0.06478785
-0.28040266 0.057046965 -0.069681518
-0.22782353 0.071722031 -0.060997799
-0.22496407 0.089307658 -0.069732957
-0.26506612 -0.0712239 -0.055503428
-0.13028251 -0.076077804 -0.057369854
-0.12977652 -0.076073274 -0.051248677
-0.08004716 -0.076070622 -0.055005275
-0.06502378 -0.076068431 -0.054244086
-0.054366782 -0.076071411 -0.059886813
0.073781818 -0.07605394 -0.05501771
0.1618382 -0.074411675 -0.050729185
0.24098001 -0.058174312 -0.050502487
0.25904772 -0.052565429 -0.05359393
0.26087692 -0.046662878 -0.052171215
0.23826501 -0.019340612 -0.056272812
-0.26536706 -0.0039063734 -0.052215599
-0.23754536 -1.8043298e-05 -0.054762695
0.20501406 -0.0084991939 -0.052027974
-0.20087504 0.0029466115 -0.051278979
-0.18408316 0.0050669182 -0.059560377
-0.17735955 0.0058316449 -0.050311044
-0.14339153 0.01045506 -0.057584912
0.01338948 0.01012009 -0.052365433
-0.26678216 0.053275336 -0.055762552
0.046763364 -0.076046914 -0.042124406
0.15177241 -0.076035701 -0.041683927
0.17248051 -0.074562997 -0.048131086
-0.28361338 -0.069732308 -0.044624608
0.26609814 -0.060828269 -0.041499835
0.25121319 -0.039782267 -0.048708998
0.27614385 -0.023279373 -0.048582673
0.27415428 -0.018731978 -0.040670715
-0.29158458 -0.0086915959 -0.042845201
0.193133 -0.0037868419 -0.042593382
-0.2548044 0.0059455317 -0.042115688
-0.15710893 0.0055510788 -0.042443361
-0.11215894 0.0053538363 -0.041609131
-0.030957304 0.00991912 -0.043507934
0.037942007 0.0095152799 -0.043228567
0.05525111 0.0090689892 -0.04283623
0.074490964 0.0081187701 -0.046031646
-0.27176628 0.019348515 -0.047801487
-0.10621694 0.015164517 -0.042516448
-0.22608371 0.028357286 -0.046552375
-0.26543972 0.032421082 -0.049306087
-0.21090408 0.043859828 -0.049605068
-0.15669566 -0.076068833 -0.032801595
-0.12481762 -0.076062962 -0.034792908
-0.082370713 -0.076056145 -0.037691787
0.15278958 -0.07603018 -0.035790388
0.24521391 -0.053264946 -0.035415679
0.25600654 -0.036499992 -0.039251179
-0.31338504 -0.020495858 -0.036549356
0.24835727 -0.029739771 -0.036686353
0.2531414 -0.02840301 -0.035086781
0.24451663 -0.010809061 -0.035149369
-0.27743131 -0.0051397686 -0.03633941
-0.26012149 0.0032383408 -0.039411552
-0.15257382 0.0056736507 -0.030179258
-0.14879435 0.0058101686 -0.032759164
0.09253753 0.0077509731 -0.031650856
-0.22837383 0.019055486 -0.038082443
-0.16843265 0.016858941 -0.035776444
-0.14047439 -0.076063998 -0.024237875
0.2220163 -0.073186725 -0.023757182
0.24716738 -0.054284751 -0.024216939
-0.31485251 -0.03178639 -0.023002271
0.24033269 -0.038377456 -0.023041543
0.25320694 -0.039779499 -0.020276029
-0.16702285 -0.023553591 -0.023314059
0.24867731 -0.021472996 -0.025436906
0.28651685 -0.024244525 -0.027688056
-0.29097953 -0.0083737141 -0.023078062
-0.28530529 -0.0069471039 -0.02332392
-0.17416406 0.0010936838 -0.023361374
-0.16318542 0.00070399046 -0.021559881
-0.12139098 0.0069332663 -0.021919157
0.027619267 0.0098042041 -0.025647517
0.052883737 0.0093752109 -0.02472215
-0.21428938 -0.075029001 -0.010425514
-0.046691388 -0.076044731 -0.019727198
0.02083504 -0.076029733 -0.010685602
0.15465558 -0.076006465 -0.010167333
0.22040269 -0.073715359 -0.015273282
-0.16720787 -0.050369456 -0.012260916
0.25637236 -0.0529024 -0.016234815
0.26403534 -0.053740211 -0.014903927
-0.16522835 -0.044882249 -0.016502915
-0.15304792 -0.044002589 -0.013709463
0.25461593 -0.034651496 -0.016167456
0.24838561 -0.026787668 -0.01398803
0.28735343 -0.022808261 -0.012149676
-0.30960208 -0.014869777 -0.016529152
-0.12389581 -0.018553058 -0.017848387
-0.2879675 -0.0076397154 -0.018600613
-0.27778265 -0.005356078 -0.019162828
0.24688144 -0.0078824013 -0.014516663
0.2607111 -0.0080717895 -0.011022422
-0.11894468 0.0068147238 -0.010116021
-0.037186533 0.0093828719 -0.011530074
0.051325433 0.0094740791 -0.018963899
0.10857889 0.0073751952 -0.014552327
0.11192925 0.0072685471 -0.011866957
0.1508365 0.0045223646 -0.013724591
-0.11290218 0.020070437 -0.01020794
-0.055305116 0.037616909 -0.01233097
-0.019588038 0.03910169 -0.017676853
-0.11713172 -0.07605654 -0.0093131345
-0.07053975 -0.073844336 -1.85199e-07
-0.050768211 -0.076043352 -0.0084994566
-0.042125821 -0.07604076 -0.0038110316
-0.015928678 -0.076036707 -0.0094425594
0.047819365 -0.071320772 -1.85199e-07
0.10812988 -0.076010562 -0.00011333262
0.1211089 -0.072552875 -1.8519901e-07
0.14950325 -0.076003343 -0.0047671343
0.19673935 -0.07599847 -0.006178007
0.23086566 -0.073469169 -0.0031654665
-0.22638771 -0.066067711 -1.85199e-07
-0.14612465 -0.062366564 -1.85199e-07
-0.13472502 -0.06547568 -1.85199e-07
-0.12348771 -0.067097709 -1.85199e-07
-0.10715535 -0.069149204 -1.8519899e-07
-0.070904471 -0.063785896 -1.8519899e-07
-0.033838827 -0.060801201 -1.85199e-07
0.0024349988 -0.061782882 -1.85199e-07
0.030740626 -0.063097328 -1.85199e-07
0.059547089 -0.066019878 -1.85199e-07
0.13437057 -0.065816671 -1.8519901e-07
0.1637084 -0.067921184 -1.85199e-07
0.17324972 -0.063616492 -1.8519899e-07
-0.3024801 -0.054113306 -1.85199e-07
-0.099536516 -0.053097304 -1.85199e-07
-0.087742567 -0.059645295 -1.85199e-07
-0.0030051544 -0.058006238 -1.85199e-07
0.016848758 -0.053708397 -1.85199e-07
0.020054441 -0.051688835 -1.85199e-07
0.093979262 -0.054378588 -1.85199e-07
0.11956207 -0.057213392 -1.8519899e-07
0.19775699 -0.058537461 -1.85199e-07
0.24393728 -0.050488189 -0.0079729082
0.25183773 -0.059912227 -0.0030522011
0.26989421 -0.050977461 -1.85199e-07
0.27385214 -0.05752968 -0.0073207379
-0.3087365 -0.045033678 -1.8519899e-07
-0.23480791 -0.04291302 -1.85199e-07
-0.17960614 -0.044061538 -1.85199e-07
-0.15308605 -0.049230922 -1.85199e-07
-0.13132119 -0.047301166 -1.85199e-07
0.034137577 -0.048381671 -1.85199e-07
0.18637234 -0.043345857 -1.85199e-07
0.22071359 -0.044526547 -1.85199e-07
0.23531863 -0.04179199 -1.85199e-07
0.27135646 -0.044511829 -0.0066560227
-0.27241501 -0.032135412 -1.85199e-07
-0.26578361 -0.035611592 -1.85199e-07
-0.22133772 -0.0361038 -1.85199e-07
-0.17167364 -0.03641006 -1.8519901e-07
-0.11567269 -0.036052924 -1.8519901e-07
-0.042104028 -0.030520527 -1.85199e-07
0.10749384 -0.037208457 -1.85199e-07
0.19909872 -0.038981851 -1.85199e-07
0.21262392 -0.038243875 -1.85199e-07
0.24355949 -0.032043748 -0.0094798272
0.25858253 -0.030334195 -1.85199e-07
0.27393326 -0.033528533 -0.0022487275
-0.27140927 -0.025058955 -1.85199e-07
-0.26391059 -0.028913124 -1.85199e-07
-0.13844779 -0.026510278 -0.0089454744
0.040649883 -0.028083866 -1.85199e-07
0.10685778 -0.020302925 -1.8519901e-07
0.12200183 -0.022592075 -1.85199e-07
0.28110558 -0.024878308 -1.85199e-07
0.3059186 -0.025263755 -0.00061291351
-0.30465233 -0.018065365 -1.85199e-07
-0.27598235 -0.012654864 -1.8519901e-07
-0.243359 -0.018089874 -1.85199e-07
-0.21215846 -0.015073175 -1.85199e-07
-0.16864753 -0.015094336 -1.8519901e-07
-0.039913867 -0.018046545 -1.85199e-07
-0.011241999 -0.010638533 -1.85199e-07
0.29799777 -0.015385279 -1.85199e-07
0.31335184 -0.019791754 -0.009817373
-0.27277267 -0.0059714387 -1.85199e-07
-0.22736904 -0.0011853131 -1.8519899e-07
-0.19682251 -0.00037050294 -1.85199e-07
-0.16651279 -0.0097618215 -1.85199e-07
-0.076559879 -0.0064563914 -1.85199e-07
-0.011442265 -0.0063362657 -1.8519901e-07
0.25093341 -0.0058565056 -0.0031843907
0.26411468 -0.0075972765 -0.001690364
-0.22806215 8.2933228e-05 -0.0093447492
-0.17423449 0.0025307443 -0.0037569036
-0.11281231 0.0027327728 -1.85199e-07
-0.10025155 0.0074181142 -0.0013660787
-0.075019196 0.00084913516 -1.85199e-07
-0.01297923 0.0041765645 -1.8519901e-07
0.078902647 0.0081851771 -0.0072795693
-0.03995797 0.042694598 -0.0081920326
-0.24895099 -0.088786729 0.00937133
-0.2733421 -0.070395529 0.0019865949
-0.12183788 -0.076056309 0.0033605506
-0.079312682 -0.076047532 0.0011080692
-0.021508925 -0.076037347 0.0071253534
0.22628091 -0.073786147 0.0040594209
-0.28862751 -0.068842277 0.0046885498
-0.1730458 -0.052263178 0.0095916828
0.25294343 -0.055389017 0.0070795231
0.26375496 -0.056621883 0.0078346226
0.28401247 -0.053309653 0.0029545482
0.24554828 -0.046011563 0.0029384634
0.25590485 -0.048069648 0.0096838577
0.27583396 -0.026499838 0.006329665
-0.26701653 -0.0036320346 0.0051783724
0.24765885 -0.0056757303 0.0061031538
0.25069112 -0.0062405234 0.0074378438
0.15802869 0.0045102676 0.0016062764
0.18285157 0.0022484162 0.0025131246
-0.035835806 0.043995988 0.0054439069
-0.24417056 -0.087156489 0.010599389
-0.25327677 -0.078965008 0.014187539
-0.21612865 -0.074955165 0.018064536
0.153483 -0.076008633 0.01240093
0.19132188 -0.075935438 0.01652579
0.22879106 -0.073011443 0.0162523
-0.28698343 -0.069379479 0.016818022
-0.20291486 -0.060310662 0.015873319
-0.2234907 -0.051427681 0.015495535
0.25066626 -0.041340478 0.016767344
0.26729861 -0.049110249 0.016240302
-0.18146238 -0.03802656 0.012054089
0.25595823 -0.034735329 0.018714052
0.27289605 -0.025120098 0.016642466
-0.29574028 -0.0097507657 0.017593641
-0.2605463 -0.0026871415 0.013791784
-0.22607288 0.00037476645 0.019271081
-0.18383642 0.0033737272 0.013113718
-0.12923509 0.0056822933 0.011846063
0.048783865 0.0095970184 0.012158895
0.062559143 0.0092607196 0.015534854
0.16113684 0.0033256896 0.019655
-0.028355528 0.038552329 0.017238345
0.030599691 -0.076029785 0.020887341
0.069661193 -0.076028809 0.024969995
0.076107904 -0.076032609 0.029828958
-0.24106917 -0.057850908 0.020176085
0.23873672 -0.054219574 0.028909698
0.26141623 -0.055216897 0.027230993
0.25954932 -0.047720149 0.021663951
0.2653217 -0.042014785 0.029199129
-0.31283137 -0.036388375 0.028804209
0.26106054 -0.033749636 0.026750062
-0.31359798 -0.020833271 0.024003632
-0.16739067 -0.026604272 0.022420447
0.26729998 -0.028846947 0.028771112
-0.23298043 -6.9906229e-05 0.028361898
-0.21307465 -0.009223111 0.026557498
-0.13821843 0.0062818169 0.029043308
-0.055245873 0.0091805141 0.022931565
0.025632968 0.0098102391 0.029266201
0.070602894 0.0035006395 0.024048449
-0.18806896 0.014166862 0.029756293
-0.26974547 -0.070797712 0.039582361
-0.25105387 -0.072255969 0.039672311
-0.096157968 -0.076057702 0.036672432
-0.28465265 -0.069611788 0.032428592
0.2447408 -0.054791406 0.032332093
-0.31784126 -0.041610368 0.036565207
0.24010238 -0.047566541 0.032369554
0.25912935 -0.043311946 0.035816781
0.25516599 -0.034480482 0.032932825
0.25650454 -0.02957955 0.032074615
0.26275915 -0.027779285 0.035047852
-0.24523568 -0.019892063 0.032895446
-0.29416123 -0.0091867698 0.030104078
-0.24990974 -0.0014093993 0.038127828
-0.21097672 -0.0059415046 0.034035746
-0.20751849 -0.002341494 0.034787722
-0.26068455 0.0026434325 0.039347347
-0.21505156 0.0015747488 0.035353076
-0.16718546 0.0047573522 0.031614497
0.15032676 0.0026902617 0.033005197
-0.040386077 0.019909566 0.030631699
-0.010756025 0.01911296 0.034670223
-0.18746087 0.032137834 0.035487149
-0.25794688 -0.071730651 0.043490577
-0.23600787 -0.073525108 0.04016275
0.075770557 -0.076045692 0.044042125
-0.28208175 -0.069866776 0.049260534
0.26398051 -0.064990014 0.043059621
0.24389341 -0.05067315 0.047054913
0.24661526 -0.030550543 0.041999191
0.25955433 -0.034138348 0.048343565
-0.25445983 0.0012905467 0.040568776
-0.16407412 0.0062348414 0.046337962
-0.12037013 0.0051060854 0.046572767
-0.028665306 0.009906929 0.040095598
0.019456994 0.0020814983 0.041178748
0.08440154 0.0074808812 0.0476432
-0.22034764 0.026570171 0.045346979
-0.1920702 0.033134501 0.043887231
-0.21975976 0.040401619 0.043269943
-0.16879496 0.040027834 0.040623877
-0.12075265 -0.076075077 0.055047493
0.077164844 -0.076050155 0.050351739
0.090114981 -0.075472109 0.058919739
0.14799818 -0.074172854 0.05429624
-0.2950182 -0.067324549 0.056545082
0.24107534 -0.051825196 0.052981094
0.25739515 -0.048026059 0.056375585
0.26286757 -0.033259556 0.055427838
-0.29636025 -0.011071672 0.052150398
-0.28531581 -0.0091781728 0.059079796
-0.27564794 -0.0060972404 0.054044578
0.19106172 -0.0073954081 0.056219988
-0.17905328 0.0057700872 0.059656046
0.068462357 0.0079877693 0.05567468
0.084670208 0.0065548061 0.057521962
0.11634728 0.0033263597 0.057914227
-0.0063163843 0.010196678 0.053174499
-0.26694548 0.046380125 0.056233458
-0.25935841 0.04213582 0.051013369
-0.26308757 0.050233223 0.057105336
-0.23940723 0.052538261 0.05045975
-0.21083368 0.053974185 0.052699529
-0.10217071 -0.076077126 0.063100472
-0.033671632 -0.076073185 0.068098605
0.0011394769 -0.076070473 0.06753426
0.09358941 -0.073214903 0.068468988
0.11697755 -0.072718784 0.066452034
0.14886427 -0.072179623 0.063075393
0.21187156 -0.069519356 0.063688561
-0.3045997 -0.042785421 0.066723064
0.2256546 -0.042359918 0.061982665
0.17933254 -0.016141452 0.069117546
0.18421687 -0.013633948 0.066649757
-0.2835601 -0.008974513 0.060389746
-0.21299759 0.0018183541 0.069496892
-0.16348964 0.0030963509 0.064189799
0.033006169 0.0095269671 0.060159136
-0.0051005371 0.010168346 0.063367128
-0.24414212 0.064476788 0.060659718
-0.22989818 0.083018005 0.060311776
-0.21960896 -0.074707232 0.07313069
-0.07035359 -0.07607694 0.070188478
-0.044338867 -0.076076671 0.073096827
0.050493188 -0.074314415 0.071338855
0.15003321 -0.070409372 0.070947647
-0.23203215 -0.060139943 0.077570572
-0.21242453 -0.064855173 0.078529187
-0.20151618 -0.060939461 0.079101987
-0.19892919 -0.062234815 0.071887165
-0.064392552 -0.06997516 0.079114571
-0.023059648 -0.067281835 0.078043692
0.041100875 -0.061371755 0.07836464
-0.24031062 -0.052627817 0.073873915
0.038528517 -0.058596313 0.078496575
-0.29540893 -0.043201167 0.073729813
-0.25664693 -0.048907414 0.076237954
0.1375777 -0.046299644 0.078032836
0.16959485 -0.042855807 0.072193511
-0.21148086 -0.037040506 0.072586142
-0.29511622 -0.028951462 0.070662692
-0.25942394 -0.024765503 0.075066842
0.16960435 -0.021915313 0.071922548
-0.24625784 -0.013833618 0.075967908
0.13724881 -0.012296584 0.077038504
0.040798694 -0.0052673845 0.079054177
-0.14356992 0.0031984837 0.075599372
-0.001974426 0.0096058417 0.07008481
6.1976287e-05 0.0092346715 0.072824597
-0.26040807 0.015017064 0.075161502
-0.253959 0.019309547 0.078069225
-0.22830719 0.011194804 0.073652066
-0.19019654 0.012977786 0.072746083
-0.12422579 0.012619913 0.073368527
-0.094914019 0.015124169 0.075149857
-0.20521435 0.023653418 0.073202737
-0.15400219 0.021345707 0.078747816
-0.25803742 0.035984416 0.075093523
-0.2463823 0.036018863 0.076597005
-0.23726611 0.039232083 0.079235718
-0.19539249 0.036255404 0.073341608
-0.24558982 0.044764865 0.07460051
-0.22383782 0.048538536 0.074012153
-0.21630821 0.055833649 0.079991713
-0.1846315 0.055418357 0.076925963
-0.21419081 0.063412689 0.074176453
-0.24265772 -0.071869723 0.080201909
-0.15753949 -0.073839545 0.08368668
-0.097420216 -0.074086912 0.082512408
-0.067643285 -0.069671214 0.084193259
0.00073614431 -0.068118408 0.08807981
0.02650648 -0.06662827 0.085044667
0.066051506 -0.069985077 0.088265598
0.07222531 -0.055198886 0.083713196
0.080667138 -0.05587415 0.085851036
-0.27785856 -0.042877953 0.084301859
0.073761798 -0.042085487 0.089509681
0.079393603 -0.031970501 0.088430367
-0.13939297 -0.029584466 0.080965638
-0.27584183 -0.019043542 0.083829239
-0.18808359 -0.01865029 0.080134973
-0.05357429 -0.015178517 0.080589943
0.118964 -0.011484891 0.080787264
-0.22581506 -0.00057655288 0.080216415
-0.21961847 -0.00072050776 0.0834691
-0.16656452 -0.0084981173 0.080632269
-0.15482865 -0.0037925201 0.080765508
0.075744681 -0.0042591365 0.086639211
-0.14223121 0.0044974666 0.082410328
-0.068685681 0.0073735248 0.081410661
-0.024527118 0.0080097951 0.081372187
-0.19013438 0.031333763 0.080346078
-0.20465542 -0.070975929 0.09707965
-0.11531775 -0.070710965 0.098313749
-0.066056803 -0.070835941 0.097728692
-0.036723588 -0.070037678 0.091529429
-0.014550238 -0.068502076 0.092474028
0.068386704 -0.066724658 0.090683401
-0.27154967 -0.050151639 0.097923599
-0.17563678 -0.055524219 0.098252401
-0.14204818 -0.059518926 0.09797056
0.063145258 -0.05423503 0.09351106
0.052379206 -0.035562523 0.093463734
-0.13305245 -0.025383696 0.096371412
-0.0091535496 -0.016941089 0.09070304
0.048411928 -0.013252378 0.094201356
-0.2113713 -0.0021551843 0.091894552
-0.2091525 -0.0045319614 0.099220313
0.056491047 -0.0036206571 0.098742463
-0.074352786 0.004448879 0.092847675
0.001075604 0.0044917129 0.09263774
-0.093179263 -0.070939355 0.10369318
-0.23321208 -0.060311776 0.1045704
-0.22478065 -0.062361307 0.104572
-0.15689135 -0.063264847 0.10945815
0.0099496786 -0.069435745 0.10065258
0.020171382 -0.064566135 0.10176326
-0.24140772 -0.050581601 0.10399714
-0.15223885 -0.057978101 0.1016975
-0.14103755 -0.059573285 0.10117207
-0.015400195 -0.052658297 0.10362014
0.012372598 -0.056170676 0.10060096
0.064240254 -0.052940845 0.10225683
0.074723199 -0.058782067 0.10195526
-0.2488015 -0.044871081 0.10247096
-0.23237273 -0.044762183 0.104572
-0.25253975 -0.035886347 0.10128605
-0.10772546 -0.037766762 0.104572
-0.098087348 -0.038857147 0.104572
-0.21670388 -0.015626455 0.104572
-0.066958934 -0.0190136 0.104572
-0.01181118 -0.010271091 0.10334317
-0.00093909516 -0.012383464 0.10229607
0.062334321 -0.010310256 0.10967848
-0.16052209 -0.0058761509 0.10219575
-0.14675543 -0.0026135265 0.10061292
0.030722037 -0.0059392005 0.10298857
0.047730513 -0.0043744012 0.10334092
0.064946778 -0.0097184153 0.10968283
0.070410356 -0.0084128501 0.10061646
0.039949983 -0.053820822 0.1110631
0.050399628 -0.052185819 0.11587901
0.063829571 -0.059473921 0.1103394
-0.12633231 -0.027400786 0.11906698
-0.2093778 -0.011472414 0.11017119
-0.18606184 -0.019980045 0.11157002
-0.17948782 -0.01546058 0.1130746
-0.15921353 -0.018853005 0.11890908
-0.047906402 -0.014415679 0.11026464
-0.25723004 -0.008525962 0.11768302
-0.24303563 -0.0080354391 0.11172358
-0.22918835 -0.0099281697 0.11512242
-0.16358331 -0.061737072 0.12348975
-0.090764672 -0.067749843 0.12370238
-0.076794952 -0.066725396 0.12660934
-0.017651966 -0.063125871 0.12899521
-0.23957667 -0.051555965 0.12596925
-0.21535128 -0.054829627 0.12924024
-0.17723988 -0.054497693 0.12170029
-0.03297963 -0.05967617 0.12379865
-0.26902154 -0.046729371 0.12807508
-0.083652124 -0.020840734 0.12570293
-0.010246213 -0.020991612 0.12514134
0.021084361 -0.02030417 0.12958758
0.062049657 -0.020508984 0.12231449
-0.21902171 -0.016509695 0.1294148
-0.053791605 -0.019317281 0.12649441
0.013643759 -0.014797454 0.12094842
0.024575824 -0.013169726 0.12050291
0.04513441 -0.019158065 0.12971264
-0.16532193 -0.060786493 0.13710444
-0.061944649 -0.061289322 0.13760532
-0.045932978 -0.06325341 0.13931796
-0.17109838 -0.054683395 0.13415548
-0.0075574629 -0.054908615 0.13685109
0.03581544 -0.057457134 0.1397061
-0.17433876 -0.02410594 0.13312766
-0.14536378 -0.022951309 0.13639399
-0.24084269 -0.01275523 0.1301699
-0.22988287 -0.015396952 0.13696606
-0.1886117 -0.016668968 0.13144264
-0.0079438565 -0.016259931 0.13435757
-0.059892364 -0.06015281 0.1436847
0.01200577 -0.051269662 0.14785415
0.050710108 -0.055476345 0.14408325
-0.18601243 -0.023138555 0.14088662
-0.07534419 -0.020232489 0.14095293
-0.034100361 -0.017842568 0.14851028
-0.00010711513 -0.017217303 0.14968736
-0.02395305 -0.060117718 0.15134172
-0.18245414 -0.057602726 0.15654929
0.045956258 -0.054959256 0.15017335
-0.22472998 -0.049055822 0.15469705
-0.086821727 -0.020529687 0.15599054
-0.0066687292 -0.021632712 0.15394838
0.0034703072 -0.02106981 0.15942258
-0.21954533 -0.018988227 0.15443209
0.012479981 -0.014782582 0.15238465
0.02554881 -0.013271768 0.15912926
0.0062210443 -0.0064048162 0.15618861
0.011169335 -0.007750859 0.1506291
-0.13489524 -0.062321126 0.16537216
0.049564719 -0.044832483 0.16815895
-0.18696415 -0.020546637 0.16009194
-0.15808553 -0.029786814 0.16308004
-0.091446958 -0.020019287 0.16895604
-0.030060261 -0.012157507 0.16678762
0.0043861764 -0.016921621 0.16231331
0.039376754 -0.0050584078 0.16278477
-0.20232205 -0.050205391 0.17729622
-0.172548 -0.052935466 0.17830099
0.039323818 -0.05146604 0.17658958
-0.25042638 -0.046727993 0.17327997
-0.2313194 -0.018676108 0.17239308
-0.073359497 -0.01962872 0.17603722
-0.010588378 -0.015857564 0.1780813
0.0021685036 -0.0086093489 0.17584066
-0.1931659 -0.054779444 0.18090744
-0.16819599 -0.05300878 0.18844625
-0.065598667 -0.054402627 0.18915078
-0.24224374 -0.047554847 0.18048525
-0.23721927 -0.047248174 0.18764938
-0.2291569 -0.04794614 0.18225126
-0.20304343 -0.02170499 0.18299067
-0.070162803 -0.017086776 0.18789214
-0.066250905 -0.01656992 0.18867812
-0.010142657 -0.013129933 0.18977106
-0.018467661 -0.0022834095 0.184847
0.045773517 -0.0045307237 0.18681693
-0.14023125 -0.05567684 0.19797248
-0.22032601 -0.048183117 0.19717377
-0.21450442 -0.048780054 0.19153912
0.0030262331 -0.044988751 0.19807275
0.022709468 -0.049337134 0.19962886
-0.083229095 -0.019863483 0.19001366
-0.046182055 -0.018002342 0.19034815
0.017165471 -0.01350905 0.19195262
-0.21230158 -0.050658002 0.20364542
-0.12514269 -0.038083669 0.20267749
-0.07687895 -0.052529022 0.2162151
-0.21183473 -0.048311371 0.21523608
-0.012096345 -0.044043019 0.2159147
0.030989323 -0.040004138 0.2138547
0.057323933 -0.039352879 0.21693964
-0.078707792 -0.019367423 0.21021831
-0.057984896 -0.015456306 0.21175714
-0.015000159 -0.015660286 0.21567437
-0.13517565 -0.055323206 0.22236392
-0.078733012 -0.050922122 0.22630748
-0.060318064 -0.05121699 0.22259881
-0.038639642 -0.0501329 0.22238354
0.0007402086 -0.041710321 0.22257331
-0.032500375 -0.012302403 0.2232403
0.0031324436 -0.014167385 0.22602522
-0.20087186 -0.030564778 0.23632851
-0.18267103 -0.033509701 0.23383573
-0.17694503 -0.031016894 0.23201153
-0.16301814 -0.037089698 0.23730372
-0.12596522 -0.038242936 0.23586556
0.012133267 -0.0074945721 0.23212078
-0.15530883 -0.052165791 0.24821635
-0.2127568 -0.029195959 0.24516027
-0.20967877 -0.029425506 0.24500725
-0.041786581 -0.016948169 0.24851772
0.0059974664 -0.013624888 0.24867074
-0.18760978 -0.051279433 0.25131276
-0.16156529 -0.051430989 0.25149637
-0.14459999 -0.056913618 0.25142872
-0.036781766 -0.0096737286 0.25635922
0.0302762 -0.0057699732 0.25636601
-0.15539774 -0.054707751 0.26650098
-0.0347776 -0.044033453 0.26083645
0.027595825 -0.032663558 0.26761606
-0.060282253 -0.01773859 0.26328754
-0.058374442 -0.016537197 0.26784748
-0.041081373 -0.013226105 0.2650699
-0.025645144 -0.0045806123 0.2641342
-0.010740921 -0.040989496 0.27079219
0.049049534 -0.020001883 0.27025941
-0.060836203 -0.017542768 0.27873918
-0.040778436 -0.016486749 0.27783412
-0.15939566 -0.040671188 0.28393924
-0.010308434 -0.038449638 0.28721961
-0.014721587 -0.021167213 0.28076884
0.033153128 -0.029328529 0.28771359
-0.059714761 -0.015557573 0.28033978
-0.032081503 -0.015843449 0.28643799
-0.073557228 -0.040837433 0.29234794
-0.058569103 -0.017165342 0.29731718
-0.0146566 -0.010114723 0.29074982
0.017771013 -0.012009157 0.29251516
-0.050458889 -0.036050722 0.30358908
-0.046573348 -0.03835215 0.30206946
-0.025187138 -0.037317406 0.30105293
-0.013628107 -0.036540087 0.30120277
-0.053673439 -0.016781002 0.30718371
-0.005349122 -0.0090590315 0.31988394
0.011696288 -0.0073863054 0.31829822
-0.029309275 -0.032032862 0.33810008
-0.035514362 -0.015452005 0.33425516
-0.042510964 -0.032369055 0.34069341
0.0094752377 -0.020480886 0.34874123
-0.065460838 -0.017353809 0.34323931
0.010809016 -0.012419107 0.34050563
-0.06374114 -0.025960023 0.35895997
-0.010653244 -0.027141681 0.35786122
-0.066498384 -0.018200723 0.35273334
-0.012666255 -0.012092821 0.36042717
-0.005108146 -0.012023423 0.36410171
