# .PCD v0.7 - Point Cloud Data file format
VERSION 0.7
FIELDS x y z
SIZE 4 4 4
TYPE F F F
COUNT 1 1 1
WIDTH 886
HEIGHT 1
VIEWPOINT 0 0 0 1 0 0 0
POINTS 886
DATA ascii
-0.12209424 -0.041820988 -0.36516947
-0.085546888 -0.0422564 -0.3669495
-0.030041421 -0.041315407 -0.36543265
-0.023462752 -0.0422564 -0.36546379
-0.11924249 -0.038480464 -0.36793298
-0.10013996 -0.0422564 -0.3561787
-0.094782464 -0.0422564 -0.35182911
-0.039673496 -0.040368374 -0.35396272
-0.11591013 -0.036386915 -0.35200489
-0.090068236 -0.038122829 -0.3578406
-0.051806569 -0.039819818 -0.35580197
-0.099846303 -0.0422564 -0.341398
-0.030610546 -0.0422564 -0.34958404
-0.026581272 -0.04086471 -0.34956187
-0.12255386 -0.036003102 -0.34275013
-0.068792619 -0.038643524 -0.34805587
-0.10840075 -0.0422564 -0.33711675
-0.011948314 -0.040891983 -0.33131078
-0.0037713302 -0.041352931 -0.33237776
-0.044403173 -0.039429195 -0.33634573
-0.07705009 -0.0422564 -0.32226864
-0.035981946 -0.0422564 -0.32461467
-0.010802901 -0.0422564 -0.3246184
-0.10567151 -0.0422564 -0.31304809
-0.087151639 -0.0422564 -0.31501064
-0.044832341 -0.0422564 -0.31793904
-0.029803503 -0.0422564 -0.31299588
-0.0030304436 -0.040553018 -0.31119987
-0.12178762 -0.036003102 -0.31531104
-0.11424422 -0.036003102 -0.31305388
-0.052391596 -0.038248893 -0.31685191
-0.11469062 -0.0422564 -0.30671632
-0.060723711 -0.0422564 -0.30808288
-0.049377326 -0.0422564 -0.30542025
-0.087576099 -0.036107112 -0.30825761
-0.079913616 -0.036430482 -0.30651307
-0.041155834 -0.038479067 -0.30812657
-0.0573957 -0.0422564 -0.29786646
-0.11090443 -0.036003102 -0.29449373
-0.044688247 -0.0422564 -0.28178719
-0.0050325878 -0.0422564 -0.28820097
0.0091427108 -0.0422564 -0.2873759
0.017553862 -0.040528119 -0.28392661
-0.10423263 -0.036003102 -0.28259107
-0.10475927 -0.0422564 -0.27098697
-0.094699144 -0.0422564 -0.27847263
-0.02652535 -0.0422564 -0.27857071
0.0040618498 -0.0422564 -0.27923092
0.017032068 -0.0422564 -0.27301654
-0.094229504 -0.036003102 -0.27586278
-0.0015006121 -0.039268911 -0.27676219
0.0055334363 -0.039480098 -0.27299541
-0.095492847 -0.0422564 -0.26562858
-0.050894938 -0.0422564 -0.26885632
-0.042005774 -0.0422564 -0.26399118
0.027459174 -0.040205989 -0.26296318
-0.084864527 -0.036003102 -0.26033112
-0.016213231 -0.038205579 -0.26892865
-0.12206799 -0.0422564 -0.25292838
-0.079221703 -0.0422564 -0.25736433
-0.038380992 -0.0422564 -0.25220901
-0.026288873 -0.0422564 -0.25463891
-0.0087037664 -0.0422564 -0.25594428
0.027932497 -0.0422564 -0.25729245
-0.11891127 -0.036003102 -0.2565538
0.027110448 -0.039721407 -0.25116602
-0.11412731 -0.036003105 -0.246921
-0.033218484 -0.036433659 -0.24615221
-0.10650769 -0.0422564 -0.23685911
-0.095311925 -0.0422564 -0.23206232
-0.066267982 -0.0422564 -0.23754901
0.0095662028 -0.0422564 -0.2326791
0.040502053 -0.0422564 -0.23060617
-0.10057302 -0.036003102 -0.23745926
-0.05708256 -0.036003102 -0.23016183
-0.001460975 -0.037802115 -0.23963554
0.012691073 -0.038495224 -0.23883674
-0.11737604 -0.0422564 -0.22592172
-0.10381262 -0.036003102 -0.22577016
-0.026442654 -0.036061905 -0.22595271
-0.0075720549 -0.036851279 -0.22351199
-0.095493883 -0.0422564 -0.21504635
-0.050727174 -0.0422564 -0.21328744
-0.10527314 -0.036003102 -0.21627903
-0.066778317 -0.036003102 -0.21210346
-0.077477932 -0.0422564 -0.20989607
-0.054425452 -0.0422564 -0.20059758
-0.046629511 -0.0422564 -0.20299688
0.0038715173 -0.0422564 -0.20841616
-0.085548669 -0.036003102 -0.20245466
-0.065143265 -0.036003102 -0.20627366
0.026212007 -0.03792353 -0.20688517
-0.043959156 -0.0422564 -0.19567755
-0.030835889 -0.0422564 -0.19616705
-0.026682757 -0.036003102 -0.19449985
0.0480824 -0.038443759 -0.19172618
-0.11250085 -0.0422564 -0.18207563
-0.10552429 -0.0422564 -0.18784359
-0.075217813 -0.0422564 -0.18795626
-0.048968211 -0.0422564 -0.18426695
-0.12302899 -0.038023926 -0.18303117
-0.0763641 -0.036003102 -0.18176784
-0.02379223 -0.036003102 -0.18870355
0.012273204 -0.036304943 -0.18401524
-0.10973785 -0.0422564 -0.17681155
-0.067676 -0.0422564 -0.1731481
-0.043987498 -0.0422564 -0.17801225
0.058325298 -0.0422564 -0.17642458
-0.0065101753 -0.036003102 -0.17025024
0.017239489 -0.036011215 -0.17016272
0.026526537 -0.036621556 -0.17356893
0.063032001 -0.038520731 -0.17432129
0.046715565 -0.0422564 -0.16545066
-0.12186776 -0.036391042 -0.16556863
-0.043245062 -0.036003102 -0.16000189
-0.029348766 -0.036003102 -0.16254507
-0.019739892 -0.036003102 -0.1679244
0.019288126 -0.036003102 -0.16516045
0.012588048 -0.0422564 -0.15363246
-0.053142138 -0.036003102 -0.15043302
-0.090661079 -0.0422564 -0.14447288
-0.072499566 -0.0422564 -0.14918153
-0.034090478 -0.0422564 -0.14480323
0.053756669 -0.0422564 -0.14287856
-0.10652353 -0.036003102 -0.14568216
-0.07613638 -0.036003102 -0.1435658
-0.0307301 -0.036003102 -0.14717624
-0.0090987729 -0.036003102 -0.14107886
0.050119363 -0.036746949 -0.14620027
-0.086068675 -0.0422564 -0.13627237
-0.033878393 -0.0422564 -0.13711415
-0.052769814 -0.036003102 -0.13126147
-0.0010190662 -0.036003102 -0.13498996
0.043034177 -0.036135022 -0.13990398
0.074215613 -0.037722453 -0.1396679
-0.0050047152 -0.0422564 -0.12341428
0.053872291 -0.0422564 -0.12457868
0.062435914 -0.0422564 -0.12403053
0.078877434 -0.0422564 -0.12410463
-0.08924821 -0.036003102 -0.12562272
-0.066756181 -0.036003102 -0.1252528
-0.013501722 -0.036003102 -0.12716129
0.063669488 -0.036531061 -0.12320448
-0.077845663 -0.0422564 -0.11436114
-0.050710086 -0.0422564 -0.11966406
-0.026268806 -0.0422564 -0.1156963
0.022695698 -0.0422564 -0.11511291
0.051153764 -0.0422564 -0.11620031
-0.018626515 -0.036003102 -0.11761101
0.0068528345 -0.036003102 -0.11045004
0.047131959 -0.036003102 -0.11589801
0.058322042 -0.036003102 -0.11082358
-0.034032378 -0.0422564 -0.10199832
-0.022180147 -0.0422564 -0.10066738
0.055603169 -0.0422564 -0.10564663
0.071104333 -0.0422564 -0.10245278
-0.053319275 -0.036003102 -0.10162713
-0.031638451 -0.036003102 -0.10475656
0.035472259 -0.036003105 -0.10751425
0.058954943 -0.036003102 -0.10200004
-0.021847893 -0.0422564 -0.094864361
-0.012748509 -0.0422564 -0.093753606
0.00067916512 -0.0422564 -0.092505887
0.010448244 -0.0422564 -0.099253535
0.05569616 -0.0422564 -0.09078566
-0.065514676 -0.036003102 -0.099959284
-0.041011892 -0.036003102 -0.094147012
-0.096536316 -0.0422564 -0.081590518
-0.064487867 -0.0422564 -0.085287735
0.037419837 -0.0422564 -0.081635818
0.057347137 -0.0422564 -0.087102383
0.098729491 -0.04104086 -0.088720545
-0.082530499 -0.036003102 -0.08000841
0.037254944 -0.036003102 -0.088904507
0.061209537 -0.036003102 -0.086643562
-0.11117237 -0.0422564 -0.070080645
-0.10445024 -0.0422564 -0.075360045
-0.083039813 -0.0422564 -0.078073673
0.0092637967 -0.0422564 -0.078615367
-0.092079684 -0.036003102 -0.072372004
-0.081668489 -0.036003098 -0.074706323
-0.0016338564 -0.036003102 -0.073391519
0.0053072218 -0.036003102 -0.075663567
0.032928638 -0.036003102 -0.070003226
-0.079686359 -0.0422564 -0.060442571
0.00030113012 -0.0422564 -0.062422253
0.02401619 -0.0422564 -0.066341385
-0.10003617 -0.036003102 -0.065740503
-0.021040145 -0.036003102 -0.06625814
0.047955208 -0.036003102 -0.060296174
-0.31010953 -0.0046247994 -0.067663267
-0.30363101 -0.0077811321 -0.062442064
-0.28681788 -0.004302829 -0.053237036
-0.086762197 -0.0422564 -0.048768941
0.0088629574 -0.0422564 -0.048922524
0.015990982 -0.0422564 -0.048645847
-0.07284794 -0.036003102 -0.044207174
0.025634404 -0.036003102 -0.046992924
0.067661814 -0.036003102 -0.047383185
0.18604566 -0.072096512 -0.030191254
0.24509478 -0.071293235 -0.030798737
-0.024638006 -0.068520151 -0.032469392
-0.019596875 -0.063925743 -0.0338654
0.06017464 -0.060432892 -0.03321987
0.12353963 -0.063680351 -0.0338654
0.132743 -0.063700423 -0.0338654
0.1959947 -0.060183425 -0.0338654
0.21497443 -0.064055718 -0.0338654
0.22181801 -0.067899264 -0.032771252
-0.13501477 -0.054626916 -0.033252303
-0.045004681 -0.059591599 -0.031762123
0.0091593098 -0.059404396 -0.033840753
0.013846209 -0.05973918 -0.0338654
0.025638493 -0.053408537 -0.033051405
0.057588127 -0.059969947 -0.033575088
0.074616261 -0.059591599 -0.032185234
0.088688664 -0.058960512 -0.033782318
0.1042285 -0.058577389 -0.033731878
0.12400575 -0.054086186 -0.035690486
0.13990332 -0.051201515 -0.03734085
0.14234184 -0.053092621 -0.036557484
0.17501087 -0.053924825 -0.03311938
0.21479806 -0.053347711 -0.033043403
0.24187088 -0.055779051 -0.035444681
-0.087940313 -0.041687388 -0.03076
-0.076181851 -0.047837809 -0.032318026
-0.034100313 -0.048340935 -0.032384261
-0.020947516 -0.0422564 -0.03325817
0.028519789 -0.0422564 -0.034160841
0.065564364 -0.043051518 -0.031687915
0.074680403 -0.040208526 -0.031049743
0.11734151 -0.0422564 -0.038340554
0.15781933 -0.048171613 -0.035099391
0.20548803 -0.042523209 -0.038775891
0.21653365 -0.04505473 -0.038442686
0.22919212 -0.046968501 -0.032203592
-0.12302901 -0.032537535 -0.030041263
-0.11150841 -0.037947048 -0.03101592
-0.087309524 -0.036003102 -0.034645647
-0.040101223 -0.034179192 -0.030519888
-0.034420159 -0.03781056 -0.030997951
0.023480397 -0.034330573 -0.030539816
0.0652906 -0.034796834 -0.030601198
0.071918592 -0.036003102 -0.033212438
0.08080174 -0.031171847 -0.030580558
0.097007722 -0.030974947 -0.03377942
0.12008014 -0.034387432 -0.030547302
0.13521188 -0.037289724 -0.038738079
0.14744757 -0.031991288 -0.03804069
0.15178014 -0.038928557 -0.038953781
0.23472828 -0.033296909 -0.030403756
-0.23865294 -0.029681243 -0.030099222
-0.21858606 -0.028896974 -0.030147281
0.16105524 -0.026508868 -0.036350906
0.17104743 -0.021260019 -0.034176663
0.19195932 -0.022726415 -0.03478409
0.2213354 -0.018036846 -0.03196881
-0.072323933 -0.07552959 -0.020713193
-0.036407903 -0.072986349 -0.020746725
-0.025725123 -0.076055855 -0.026141116
-0.016148325 -0.075248308 -0.027144767
-0.0058984049 -0.072188064 -0.021787094
0.056793064 -0.071350478 -0.022878693
0.074799411 -0.070946097 -0.023405708
0.12655288 -0.071820199 -0.022266516
0.13963574 -0.074163139 -0.028336715
0.16911855 -0.077150583 -0.024509918
0.17629629 -0.076559171 -0.025418926
0.2142169 -0.071286187 -0.027198276
0.23798747 -0.07067778 -0.023755401
-0.098248534 -0.067380786 -0.026833855
-0.043862455 -0.068865798 -0.026116882
0.16000557 -0.069956861 -0.024694944
-0.123029 -0.054700114 -0.02134441
-0.092129931 -0.059591599 -0.020247268
0.031793647 -0.059591599 -0.028347516
0.11331659 -0.059591599 -0.020526916
-0.19009124 -0.042243499 -0.028944574
-0.21482207 -0.035845973 -0.029533094
0.12673415 -0.032737501 -0.022914529
0.15297808 -0.031710852 -0.027654599
0.23578078 -0.031064451 -0.027654599
0.25070119 -0.032737501 -0.021047372
-0.2453834 -0.027940162 -0.02624815
-0.23193203 -0.022669012 -0.029372452
-0.20034786 -0.022695918 -0.029269286
-0.15109572 -0.027262818 -0.029704161
-0.12432096 -0.024462605 -0.027664749
0.069292232 -0.026107639 -0.02945729
0.13912977 -0.021394059 -0.028836766
0.16620354 -0.023409858 -0.027654599
0.20055491 -0.02816307 -0.027654599
0.21348046 -0.02043833 -0.027654599
0.23340933 -0.026944019 -0.029567409
0.2468652 -0.022133801 -0.027654599
-0.30804026 -0.011731677 -0.027768608
-0.2951698 -0.015061092 -0.021087617
-0.28549677 -0.015434662 -0.028600933
-0.2745831 -0.011795752 -0.028085018
-0.15133223 -0.011688163 -0.027618323
-0.10194997 -0.017707013 -0.02835137
-0.064429328 -0.010178031 -0.027667951
-0.027473213 -0.016334344 -0.028170662
-0.0097867679 -0.011690045 -0.027658924
0.014779247 -0.011901673 -0.02765766
0.055552695 -0.015751889 -0.028093982
0.065985635 -0.019143764 -0.028540514
0.079861969 -0.019099304 -0.028534662
0.13520011 -0.016851384 -0.029117558
0.18377385 -0.011136066 -0.026266463
0.22644109 -0.016962774 -0.028699378
0.23992847 -0.019580314 -0.027654599
0.25528103 -0.01002679 -0.021211972
-0.29297456 -0.0073221656 -0.027654599
-0.12549031 -0.0036996992 -0.027715296
-0.055268198 -0.0019660413 -0.027495941
-0.018247135 -0.0076900502 -0.027689878
-0.0073951855 -0.0055079837 -0.027712654
0.013136504 -0.0011933831 -0.027021781
0.025780331 -0.0060378686 -0.027711699
0.053033188 -0.0059798579 -0.027715746
0.092804909 -0.0071747666 -0.027828366
0.15605949 -0.0055740769 -0.027437033
0.19188195 -0.0011979742 -0.022681374
-0.24363843 0.0034212454 -0.026655262
-0.2054354 0.0083607696 -0.02455206
-0.15302609 0.0050694002 -0.025846697
0.0016641654 0.0044486541 -0.025348533
0.10580294 0.0012428639 -0.027470002
0.12503895 0.0057918523 -0.026330864
0.13588175 0.0029739335 -0.026737584
-0.32330075 0.012454292 -0.022905601
-0.25798112 0.011030618 -0.023278095
0.026078429 -0.077588357 -0.010648021
0.11471349 -0.079132996 -0.015754765
0.12226359 -0.073963493 -0.01939906
0.1889649 -0.075558811 -0.015547689
0.20475888 -0.079132996 -0.01164414
0.21490598 -0.079132989 -0.012193348
0.23160252 -0.075751245 -0.015083119
-0.10243053 -0.066066265 -0.011315204
0.27209759 -0.061110422 -0.019746676
-0.12862487 -0.058144026 -0.018683441
-0.054782283 -0.059591599 -0.018740572
-0.017709976 -0.059591599 -0.01878312
-0.0044381209 -0.059591599 -0.014638631
0.048813604 -0.059591599 -0.011564599
0.098774739 -0.059591599 -0.011751371
0.29162961 -0.055295967 -0.012055192
-0.19687617 -0.040488325 -0.014804715
-0.17534007 -0.04605943 -0.017854568
0.122047 -0.049371179 -0.010016936
0.29716918 -0.048436508 -0.014714581
-0.20209225 -0.039138999 -0.012280987
-0.19955677 -0.039794892 -0.010102784
0.1567961 -0.032737501 -0.011268417
0.25102001 -0.030316345 -0.011951504
0.29192889 -0.036327932 -0.018975349
0.30217502 -0.03969866 -0.014500901
-0.24210924 -0.028787142 -0.013037182
-0.30927923 -0.011411163 -0.016392095
-0.27726582 -0.019692615 -0.015908234
-0.20852421 -0.010220867 -0.019652832
-0.18461488 -0.010834276 -0.012342867
-0.136419 -0.01207077 -0.015083054
0.25102001 -0.011239615 -0.013184214
0.26716202 -0.01091045 -0.010850571
-0.32263646 -0.0072936574 -0.011223953
-0.30481341 -0.0077508315 -0.012864381
-0.27415228 -0.0085372087 -0.010189403
-0.26334766 -0.0088143563 -0.017963821
-0.23346242 -0.0095810611 -0.013319603
0.25914001 -0.0070628352 -0.011537511
0.18479043 0.0053218706 -0.016210008
-0.10111453 0.017555054 -0.015032459
-0.07245598 0.015882976 -0.016621377
-0.024609989 0.018370077 -0.011147643
0.046199173 0.014395161 -0.016609525
0.054454256 0.016404778 -0.013262102
0.071483187 0.012485408 -0.018840164
0.093679652 0.014573762 -0.018867387
-0.30077472 0.02135645 -0.012225399
-0.25318485 0.021219671 -0.011207941
-0.025869256 -0.079132996 -0.0071121794
-0.004951993 -0.078963988 -0.0013025089
0.022456001 -0.079061031 -0.00065179722
0.032342769 -0.078634493 -0.0038050967
0.054483861 -0.079132996 -0.0014501483
0.068595298 -0.077993058 -0.0086769937
0.082924597 -0.078185543 -0.007215003
0.095813371 -0.078535482 -0.004557108
0.10436019 -0.079132996 -0.0087063704
0.11807387 -0.079132996 -0.008737023
0.18798104 -0.078567937 -0.0043106033
0.23986165 -0.079132996 -0.004362714
-0.11706593 -0.061465956 -0.0066724801
-0.1134465 -0.059591599 -0.0091255447
-0.10926657 -0.059591599 -0.0019862237
-0.094395891 -0.059591599 -0.0053820312
0.023692816 -0.059591599 -0.00036042696
0.072620772 -0.059591599 -0.0084323343
0.081937529 -0.059591599 -0.0016475348
0.10914581 -0.059591599 -0.0093805874
0.122047 -0.045202706 -0.0055701802
-0.20991592 -0.037115119 -0.0073381364
0.14229214 -0.032737501 -0.0045014443
0.24622464 -0.032737501 -0.0057643577
-0.26209885 -0.023616098 -0.0051283902
-0.24593927 -0.027796367 -0.0002096789
-0.21367589 -0.010088697 -0.0081445426
-0.12572652 -0.015562832 -0.001992964
0.28439206 -0.01762153 -0.0048480877
-0.32346314 -0.00774199 -0.0073578707
-0.31229281 -0.0075589782 -0.0067032119
-0.23404996 -0.0095659979 -0.0099726915
0.26542312 -0.008704301 -0.0050818902
-0.02231475 0.019441413 -0.0087555675
-0.0013745986 0.019616198 -0.0074926754
0.057211317 0.018080052 -0.009544272
0.16876104 0.014258163 -0.0050778445
-0.32071802 0.025738105 -0.0015608154
-0.31170183 0.026524508 -0.0013804811
-0.27978805 0.025900358 -0.0007421677
-0.24168944 0.023575421 -0.00093954947
-0.23286891 0.023379 -0.0015332863
-0.15046503 0.021612605 -0.0066271154
-0.073009342 0.021300055 -0.002052852
-0.057202499 0.020814558 -0.0040389169
-0.0148126 0.02072021 -0.0010191837
0.11194701 0.023008535 -0.0070752185
0.1272153 0.023832457 -0.0010540499
-0.2749221 0.036597114 -0.00064484315
-0.30509299 0.050796308 -0.0012482962
-0.29212093 0.055697076 -0.00098883966
-0.063172445 -0.078148782 0.0039344667
-0.055449232 -0.079132996 0.0040567867
0.0053822002 -0.079132996 0.0048934915
0.035546903 -0.079132996 0.009576492
0.044574253 -0.079037979 0.0051104561
0.052041672 -0.077907339 0.0092903199
0.074974954 -0.079132996 0.0069540148
0.1053109 -0.079132996 0.0037566724
0.17349258 -0.07878948 0.0026413875
0.19515932 -0.078722969 0.0030954389
0.21410546 -0.078639001 0.0037331248
0.22342208 -0.078357443 0.0058717057
0.25313604 -0.077708468 0.0030863476
0.27268344 -0.068155438 0.0043802098
-0.14828189 -0.053059015 0.0084002614
-0.030868668 -0.059591599 0.0095633911
-0.025496336 -0.059591599 0.0018354263
-0.016090393 -0.059591599 0.0083750375
0.047361363 -0.059591599 0.0019458034
0.059913356 -0.059591599 0.00026304461
0.061321381 -0.059591599 0.0055940864
0.31016734 -0.050589431 0.0011435593
-0.19248113 -0.041625269 0.0012211306
0.3182466 -0.046115719 0.0029917876
-0.23037595 -0.031822387 0.00085745007
0.12204699 -0.034932245 0.0017345557
0.13788414 -0.032737501 0.001028222
0.14691785 -0.032737501 0.0040982794
0.25102001 -0.021014387 0.0039751381
0.29817373 -0.025087092 0.0064733974
0.3028208 -0.028853299 0.0085458122
-0.1875602 -0.010758713 0.0028868043
-0.17557281 -0.011066255 0.0043755705
-0.15481162 -0.011598896 0.0014972384
-0.13407552 -0.012130895 0.0086250398
-0.30011609 -0.0078713214 0.0042861039
-0.28639233 -0.0082233464 0.0066086231
0.037232928 0.01916039 0.0072585861
0.055898774 0.018966028 0.0069819498
-0.30259296 0.024245171 0.00156201
-0.28993163 0.027425727 0.00075961999
-0.25657216 0.02944741 9.2558592e-05
-0.230763 0.022755906 0.0056650615
-0.1671098 0.022726689 0.00031019759
-0.12741089 0.021267839 0.0069822236
-0.10968077 0.02126516 0.0054620001
0.094564855 0.02149367 0.004779005
0.11552069 0.023759797 0.0044864216
-0.29436243 0.043939658 0.00084821868
-0.32387891 0.05053946 0.0014384347
-0.29271543 0.050233316 0.00081528537
-0.31643003 0.062977441 0.0012894855
-0.078901142 -0.073462203 0.012586485
-0.04242789 -0.075576507 0.015467277
-0.023555767 -0.079132996 0.011584201
-0.010144887 -0.079132996 0.019894866
-0.007220462 -0.077054255 0.011899736
0.00073294528 -0.075197197 0.016382987
0.015745796 -0.079132996 0.019794935
0.078542434 -0.073642142 0.01985435
0.082771569 -0.07749781 0.015601669
0.11250095 -0.073762089 0.019698028
0.12432834 -0.079132996 0.019917008
0.14231147 -0.079132996 0.012999736
0.18335611 -0.079132996 0.017747428
0.19457303 -0.077091083 0.014125468
0.20713362 -0.079132996 0.017424392
0.28123301 -0.061454568 0.011988967
-0.13852476 -0.055583056 0.010335411
-0.053435814 -0.059591599 0.019657306
-0.049955465 -0.059591599 0.016124511
-0.039858267 -0.059591599 0.012255616
-0.024800003 -0.059591599 0.014668187
-0.014591616 -0.059591599 0.013084859
0.28113657 -0.055133611 0.019183135
-0.20844252 -0.037496272 0.019662552
0.15339541 -0.032737501 0.017894104
0.30103698 -0.032682858 0.013057694
0.25102001 -0.025527425 0.012634784
0.29313049 -0.026187126 0.012646523
-0.21653363 -0.01001546 0.019864948
-0.1874958 -0.010760399 0.015284877
-0.14591403 -0.011827171 0.017677162
-0.12327574 -0.012407971 0.015139201
0.26628235 -0.011578869 0.013520407
0.27427119 -0.016494438 0.013918286
-0.25497109 -0.0090293651 0.019475879
0.12204699 -0.0089098336 0.013618283
-0.32700348 0.0059551131 0.01226429
0.17511669 0.0082147624 0.01575703
0.18328737 0.008447472 0.013567037
0.20412247 0.00093482924 0.017989587
-0.31956959 0.016378403 0.019621434
-0.13791353 0.019046204 0.012764496
-0.11162172 0.016994197 0.015884021
-0.096996024 0.018961197 0.011826053
-0.073971108 0.017831184 0.013650823
-0.051840276 0.012802319 0.019824116
-0.010723859 0.018242443 0.011020418
-0.0066725481 0.013669188 0.018174857
0.0046108309 0.017846646 0.011459988
0.052017372 0.014591612 0.016265122
-0.18467179 0.020275816 0.011365042
-0.052304491 -0.075452968 0.026563978
-0.049555968 -0.071198463 0.023039112
-0.0044503398 -0.075247258 0.022298057
0.0088349925 -0.074399978 0.028052922
0.037858319 -0.072988793 0.020705847
0.066337332 -0.071811646 0.022239964
0.096217126 -0.074901536 0.027224954
0.13911365 -0.071997255 0.021998076
0.15922129 -0.072323233 0.029982099
0.16387117 -0.076996401 0.024735423
0.17695628 -0.076158799 0.025946548
0.23519334 -0.075160563 0.027214278
-0.055946507 -0.06817627 0.026977831
-0.036198005 -0.06964381 0.02506524
0.037034992 -0.066200927 0.028756341
0.045969129 -0.068359256 0.026739348
0.15529707 -0.069386706 0.025400305
0.18565924 -0.066896453 0.028222658
-0.12386478 -0.05937539 0.024992784
-0.087796509 -0.059591599 0.028704885
-0.017712802 -0.059591599 0.023011103
-0.0029437207 -0.059591599 0.027661102
0.010089397 -0.059591599 0.027317151
0.086722791 -0.059591599 0.022343753
0.27734539 -0.056108724 0.020709038
-0.16039993 -0.049924243 0.025545796
0.24699205 -0.032737501 0.023978416
-0.25359312 -0.022930017 0.029442262
-0.24533427 -0.025555793 0.029760053
-0.22002922 -0.023807969 0.029444478
-0.16589643 -0.02924972 0.029978009
-0.054559138 -0.028340915 0.029713593
-0.017298955 -0.021963872 0.028874075
0.077807263 -0.023348263 0.029056326
0.096271753 -0.027623327 0.029619126
0.11022396 -0.027598742 0.029615888
0.12204701 -0.027791206 0.022493964
0.18459955 -0.02289051 0.028996095
-0.30688506 -0.012030513 0.024738124
-0.27431631 -0.017810654 0.028838282
-0.26849508 -0.012436695 0.028111123
-0.22700313 -0.011184834 0.027806189
-0.207775 -0.010240173 0.024763018
-0.18232945 -0.010892964 0.023776144
-0.16518827 -0.015952853 0.028225122
-0.14566472 -0.011833587 0.02604614
-0.074327871 -0.010736214 0.027626932
-0.058627896 -0.017016625 0.028222783
-0.021113645 -0.012926287 0.027684301
-0.0095153302 -0.01576585 0.028058121
0.031520888 -0.015719334 0.028051998
0.073138624 -0.019973688 0.028612072
0.092996947 -0.016147336 0.028108343
0.12151678 -0.015270436 0.027631786
0.19293514 -0.013435692 0.028400633
0.20711021 -0.013238991 0.0282497
0.21591805 -0.016910285 0.028208796
0.22504976 -0.018333174 0.027616899
0.24030085 -0.019240843 0.028515616
-0.29163882 -0.00423491 0.027616899
-0.28922933 -0.00424106 0.029358201
-0.27976155 -0.008393432 0.026503388
-0.2632919 -0.0093397833 0.024479277
-0.24753508 -0.0092201419 0.022469616
-0.22563364 -0.0097820079 0.021373268
-0.10304047 -0.0036176832 0.027437139
0.031207375 -0.006959233 0.027665719
0.24445932 -0.0088115614 0.023426149
-0.32651034 0.001696292 0.022788331
-0.31304428 0.00153433 0.027415784
-0.27661788 0.0046395212 0.026387408
-0.2333246 0.0019290145 0.027003961
-0.17507699 0.00084047951 0.027098628
-0.13102698 0.0060521341 0.025377739
-0.11783406 0.0013481597 0.026738485
-0.08798483 0.0066390801 0.02464857
-0.074510962 0.0021932372 0.026338167
0.078167945 0.0065685287 0.024027871
0.10190962 0.0071148532 0.025102202
0.12452786 0.0022864374 0.027738713
0.15497035 0.0021978675 0.025279418
-0.055911783 0.010716951 0.021797985
0.10370524 0.013588922 0.021010742
0.122047 0.013298011 0.021860113
0.0010318682 -0.070878819 0.03104702
-0.063219152 -0.069343925 0.031653289
0.003070456 -0.063584693 0.0338278
0.029624289 -0.065899856 0.033538125
0.066512585 -0.064702332 0.03218627
0.17853285 -0.06379512 0.033455819
0.22327302 -0.060385067 0.033218961
0.23196313 -0.063060209 0.0338278
-0.1248108 -0.059130672 0.031646483
-0.11178505 -0.059591599 0.033727534
-0.060742173 -0.054720458 0.033186499
-0.028928533 -0.059591599 0.03140673
0.047216412 -0.05720346 0.033496659
0.10600103 -0.053323034 0.033002526
0.13833179 -0.058949836 0.033743311
0.19833753 -0.056187652 0.035237789
0.21010412 -0.052373067 0.036817875
0.22776116 -0.051562998 0.037153423
0.25081125 -0.050168656 0.037730992
-0.11495686 -0.046093531 0.032050736
-0.077175155 -0.0422564 0.034325216
0.043581124 -0.0422564 0.032583509
0.056479257 -0.042362381 0.031559519
0.097193308 -0.0422564 0.03224862
0.1177244 -0.041536335 0.0307223
0.20494306 -0.04670487 0.036144566
0.21544872 -0.043259658 0.031677697
-0.097743087 -0.03970072 0.030722298
-0.078168355 -0.03314488 0.030346021
-0.058725383 -0.036003102 0.034218691
-0.038124606 -0.032228582 0.030225396
-0.017584475 -0.035614692 0.030671176
0.1021839 -0.036003102 0.0341805
0.11604673 -0.031992249 0.037134394
0.14413773 -0.032117505 0.038019687
0.16965035 -0.036496535 0.038596235
0.20915252 -0.038528144 0.038863715
0.22938845 -0.039719593 0.031211648
0.248455 -0.030613529 0.037821677
0.25114596 -0.036575787 0.038546216
0.16572131 -0.028062066 0.036956612
0.18814915 -0.029850854 0.037697569
0.24323338 -0.020053424 0.033478532
-0.2954697 -0.0060357479 0.034994535
-0.12302901 -0.041065909 0.049285807
-0.064521492 -0.0422564 0.049412809
-0.04942099 -0.0422564 0.04835036
-0.123029 -0.039027631 0.042502549
-0.054263406 -0.036003098 0.045957662
-0.033625085 -0.036003105 0.041528236
-0.0065540113 -0.036003102 0.04760335
0.0075320881 -0.036003105 0.042853203
0.087091707 -0.036003102 0.048393026
-0.28673542 -0.0082145473 0.04164619
-0.096902974 -0.0422564 0.059880119
-0.071148366 -0.0422564 0.05805916
-0.025226034 -0.0422564 0.058784641
-0.0037824921 -0.0422564 0.056739155
0.015894778 -0.0422564 0.057294399
0.020941753 -0.0422564 0.054247178
0.067554928 -0.0422564 0.055376705
-0.11380821 -0.036003102 0.058620341
-0.10697492 -0.036003102 0.05535613
-0.080941573 -0.036003102 0.059602186
-0.069400147 -0.036003102 0.050468825
-0.025953729 -0.036003102 0.057528608
-0.013455071 -0.036003102 0.056287799
0.022156309 -0.036003102 0.0516419
0.083851814 -0.036003102 0.059338666
-0.30719879 -0.0076896441 0.05337216
-0.28981522 -0.0081355469 0.053941287
-0.098296583 -0.0422564 0.067308664
-0.064216852 -0.0422564 0.065307856
-0.038514994 -0.0422564 0.062450483
-0.022335839 -0.0422564 0.061630704
-0.080023795 -0.036003102 0.068395764
-0.033556536 -0.036003102 0.062944688
0.0040140413 -0.036003102 0.060896311
0.051735438 -0.036003102 0.068442434
-0.30094588 -0.007850036 0.064533025
-0.29170406 -0.0063275145 0.060772903
-0.086140499 -0.0422564 0.071121626
-0.062848732 -0.0422564 0.075751558
0.037736882 -0.0422564 0.073026329
0.075627513 -0.0422564 0.075469814
-0.11707701 -0.036003102 0.071622349
-0.10237983 -0.036003102 0.07880564
-0.057965249 -0.036003102 0.071021371
0.0077666473 -0.036003102 0.075479075
0.032488644 -0.036003102 0.078570753
0.075528935 -0.036003102 0.073462665
-0.010037813 -0.0422564 0.086489066
-0.0022701211 -0.0422564 0.083527617
-0.091600604 -0.036003098 0.08433269
-0.046013966 -0.036003102 0.085619211
0.0056434264 -0.036003102 0.086303622
0.057720166 -0.036003105 0.086816221
-0.042991199 -0.0422564 0.099273205
0.0064116716 -0.0422564 0.093420155
0.067052692 -0.0422564 0.09030138
0.070617899 -0.042256404 0.094494104
-0.088476576 -0.036003102 0.098854415
-0.068094805 -0.036003102 0.095562585
-0.044204384 -0.036003102 0.092991658
-0.038600076 -0.036003102 0.093280159
-0.12302899 -0.040454984 0.10024852
0.069925837 -0.0422564 0.10959008
0.087364651 -0.0422564 0.10361081
-0.041731589 -0.036003102 0.10092786
-0.01044577 -0.036003102 0.1087484
0.036008589 -0.036003102 0.10667816
0.048216816 -0.036003102 0.10846188
-0.085085712 -0.0422564 0.11620925
-0.0071570892 -0.0422564 0.11471351
0.013678469 -0.0422564 0.11948518
0.029428285 -0.0422564 0.11801359
0.0093693174 -0.036003102 0.11211674
0.07381878 -0.036579251 0.1123634
-0.046089295 -0.0422564 0.12489393
-0.083933771 -0.036003102 0.12791088
-0.076146558 -0.036003102 0.12277804
-0.040223718 -0.036003102 0.12208143
-0.031623729 -0.036003102 0.12665612
-0.010716 -0.036003102 0.12926084
0.016949022 -0.036003102 0.12702189
-0.066956826 -0.0422564 0.13176343
0.005490059 -0.0422564 0.13749842
0.049193323 -0.0422564 0.13962454
-0.033302024 -0.036003102 0.13909145
-0.027745107 -0.036003102 0.13256089
-0.015575569 -0.036003102 0.13248242
0.026284229 -0.036003102 0.13855696
-0.097538456 -0.0422564 0.14337154
-0.082776487 -0.0422564 0.14249749
-0.077612765 -0.0422564 0.14722589
-0.056068152 -0.0422564 0.14590763
-0.037754804 -0.0422564 0.14742573
0.039997656 -0.0422564 0.14231861
0.055650193 -0.0422564 0.14107801
0.077650815 -0.041582581 0.14109063
-0.123029 -0.03878453 0.14923525
-0.079976201 -0.036003102 0.14464927
-0.03835839 -0.036003102 0.14187928
0.038978074 -0.036003102 0.14211899
-0.029452242 -0.0422564 0.15787032
0.070560567 -0.0422564 0.15747817
-0.11994396 -0.036003102 0.15307218
-0.045519218 -0.036003102 0.15554121
-0.021880189 -0.036003102 0.15642945
-0.0098750638 -0.036003102 0.15371969
-0.12302901 -0.041136194 0.16264097
-0.10760402 -0.0422564 0.16232327
0.044528823 -0.0422564 0.16289634
0.053111453 -0.0422564 0.16067989
-0.051923968 -0.036003102 0.16450334
-0.038384266 -0.036003102 0.16788697
0.047172211 -0.037317734 0.16589412
0.054210018 -0.037544139 0.16211005
-0.031478122 -0.0422564 0.17832226
-0.0033466292 -0.0422564 0.17668113
0.0077354461 -0.0422564 0.1705095
-0.10819118 -0.036003102 0.17339574
-0.0241923 -0.036003102 0.1795164
0.0067533618 -0.036003102 0.17633636
0.028851211 -0.036629517 0.17331649
0.050540481 -0.037848689 0.17446561
-0.10338096 -0.0422564 0.18494146
0.025885878 -0.0422564 0.18554369
0.039330773 -0.0422564 0.18625705
0.01258773 -0.036197923 0.18431132
-0.093465254 -0.0422564 0.19689853
-0.1227385 -0.0422564 0.20141704
0.024465019 -0.0422564 0.20633784
-0.12302901 -0.036706317 0.20137522
-0.11629602 -0.036003102 0.20183331
-0.084459439 -0.036003102 0.20988746
-0.024913564 -0.036003102 0.20569339
0.034193084 -0.038230918 0.20556614
-0.063163459 -0.0422564 0.21503542
0.012007629 -0.0422564 0.21403265
-0.099490963 -0.036003102 0.21977001
-0.072028577 -0.036003102 0.21767965
-0.026597358 -0.036003102 0.21921179
0.045382485 -0.039258547 0.2159535
-0.067268439 -0.0422564 0.22686788
-0.031233158 -0.0422564 0.2276351
-0.12151949 -0.036003102 0.2224658
-0.077380955 -0.036003102 0.2235201
-0.030251112 -0.036003102 0.2221109
0.005516673 -0.037671939 0.22991598
-0.10248268 -0.0422564 0.23997527
-0.093161553 -0.0422564 0.23723769
-0.078586996 -0.0422564 0.23187983
-0.016038679 -0.0422564 0.2357755
-0.030754978 -0.036003102 0.23392904
-0.0021206737 -0.037514552 0.2361919
0.0062615536 -0.037761971 0.23113874
0.01613318 -0.038386703 0.23337756
0.028490821 -0.039263401 0.23850536
-0.10713218 -0.036003102 0.24762578
-0.0069817528 -0.037412107 0.24013057
0.022504004 -0.039380237 0.2493265
-0.084509715 -0.0422564 0.25068876
-0.076077439 -0.0422564 0.25669426
-0.068031937 -0.0422564 0.25452897
-0.058331117 -0.0422564 0.25105762
0.0026115859 -0.038360782 0.25069779
-0.12029003 -0.036003102 0.26748112
-0.0033184774 -0.038513929 0.26233569
0.0090516917 -0.039289758 0.26496857
-0.11361744 -0.0422564 0.27568877
-0.009054428 -0.0422564 0.27641973
0.0082235001 -0.0422564 0.27841988
0.014672032 -0.040176518 0.27929091
-0.071713232 -0.036003102 0.27091062
-0.12302899 -0.040750269 0.28946495
-0.067289561 -0.0422564 0.28203321
-0.05725687 -0.0422564 0.28781554
-0.022254856 -0.0422564 0.2818743
-0.017105754 -0.0422564 0.28605461
-0.10525176 -0.036003102 0.28848255
-0.057010487 -0.036679428 0.28856942
-0.034864854 -0.037663318 0.28333196
-0.0026800265 -0.039476231 0.28512996
-0.087010324 -0.0422564 0.29257604
-0.123029 -0.03739788 0.29724872
-0.10001206 -0.036003102 0.29418945
-0.0051270295 -0.039793525 0.29617503
-0.097964101 -0.0422564 0.30982664
-0.010000672 -0.0422564 0.3035447
0.0095263338 -0.04085616 0.30282217
-0.12123601 -0.036003102 0.30688915
-0.1133114 -0.036003102 0.3098796
-0.099408023 -0.036003102 0.30603278
-0.075839944 -0.03632734 0.3049252
-0.054264847 -0.037294634 0.30003765
-0.033711169 -0.038728759 0.30797595
-0.07897424 -0.0422564 0.31030586
-0.006043091 -0.0422564 0.31137404
0.0020380132 -0.0422564 0.31096318
-0.086993523 -0.036129288 0.31487164
-0.056956887 -0.037822522 0.31658217
-0.11758735 -0.0422564 0.32178551
-0.082885951 -0.0422564 0.32465976
-0.1165686 -0.036003102 0.32429934
-0.032955501 -0.039638862 0.3293322
-0.025720078 -0.039800309 0.32368979
-0.067210972 -0.0422564 0.33698434
-0.047799535 -0.0422564 0.33456659
-0.031376168 -0.040139433 0.33953303
-0.013979572 -0.0422564 0.33973429
-0.12302899 -0.038434412 0.33422214
-0.10630888 -0.036003102 0.33241957
-0.055312268 -0.038788117 0.33812118
-0.045713786 -0.039118875 0.33350033
-0.056962222 -0.0422564 0.34788665
-0.034304123 -0.041183978 0.34315851
-0.083429381 -0.037399925 0.34135589
-0.057842892 -0.038784161 0.34138477
-0.10218301 -0.0422564 0.35462314
-0.016219262 -0.041575551 0.35468736
-0.11930846 -0.036026329 0.35525727
-0.075132854 -0.042196672 0.36793301
-0.041874263 -0.0422564 0.36047986
-0.055793144 -0.039973091 0.3678726
