# .PCD v0.7 - Point Cloud Data file format
VERSION 0.7
FIELDS x y z
SIZE 4 4 4
TYPE F F F
COUNT 1 1 1
WIDTH 835
HEIGHT 1
VIEWPOINT 0 0 0 1 0 0 0
POINTS 835
DATA ascii
-0.082040608 -0.020510476 -0.2567035
-0.065739989 -0.020917211 -0.25873369
-0.068470865 -0.027956914 -0.23522419
-0.040938146 -0.023657257 -0.235342
-0.053385939 -0.030247413 -0.22804429
-0.049236625 -0.032285646 -0.22023752
-0.036904261 -0.030015763 -0.22659466
-0.051827349 -0.027534045 -0.22886783
-0.062640354 -0.032244876 -0.21196648
-0.021755226 -0.031190615 -0.21529761
-0.032595571 -0.027673783 -0.21576278
-0.058235154 -0.033581074 -0.20490506
-0.028773816 -0.035552014 -0.20659119
-0.015249667 -0.035222407 -0.20157894
-0.043578319 -0.029544832 -0.20978647
-0.034136094 -0.029430784 -0.20779887
-0.057068586 -0.040796794 -0.19352704
-0.049969003 -0.043250605 -0.19541389
-0.052321371 -0.034117032 -0.19961469
-0.045801938 -0.036173541 -0.19510126
-0.036433976 -0.032631509 -0.19477364
-0.022748616 -0.034939915 -0.1953954
-0.03620676 -0.040497825 -0.18403809
-0.03148146 -0.034473699 -0.18311527
-0.02316362 -0.033073626 -0.18628295
-0.012942664 -0.039270617 -0.18716839
-0.040459123 -0.041307986 -0.17809378
-0.029145174 -0.035637692 -0.17636232
-0.0029741526 -0.034965068 -0.17831412
-0.049749948 -0.041996293 -0.16675298
-0.039952442 -0.043459959 -0.16479948
0.0050459122 -0.043161675 -0.16404796
-0.033975497 -0.043811586 -0.15424767
-0.029508686 -0.045270622 -0.15736808
-0.019320697 -0.045621116 -0.15761346
0.0077606058 -0.045780167 -0.15246569
0.014353301 -0.042893194 -0.15739696
0.0087719169 -0.037751429 -0.15928632
-0.036035493 -0.045155384 -0.14417705
-0.023542996 -0.041931137 -0.14698412
-0.01682247 -0.04161546 -0.1427682
-0.0063732406 -0.039211918 -0.14573891
0.0098301824 -0.039005317 -0.14553386
-0.031383064 -0.050201304 -0.13780503
-0.018762834 -0.051454004 -0.13710234
-0.023521082 -0.046901032 -0.13600253
-0.0038819045 -0.049994115 -0.13218604
0.0094873896 -0.040476706 -0.13069895
0.020360122 -0.040287629 -0.13759577
0.0088544264 -0.039952241 -0.13620861
0.012478305 -0.051602453 -0.12051313
-0.032569263 -0.048693728 -0.12705579
-0.021511082 -0.04531274 -0.12723956
0.071334161 -0.080705181 -0.11083829
0.066439107 -0.078156479 -0.11352567
0.090460904 -0.07966771 -0.11277653
0.057058133 -0.063265838 -0.11019714
0.068416379 -0.069469981 -0.11495971
0.072331019 -0.069779336 -0.11502974
0.10237733 -0.06467703 -0.11018173
0.003318608 -0.051806513 -0.11853266
0.020793214 -0.052833702 -0.11038207
0.031544749 -0.051314183 -0.11399424
0.071567386 -0.059922017 -0.11001215
-0.0023227364 -0.044833414 -0.11131924
0.018070754 -0.041884176 -0.11366459
0.028665926 -0.042050976 -0.11108147
0.042467892 -0.043802459 -0.11055952
-0.36295804 -0.022266688 -0.11382377
0.045945521 -0.081599087 -0.10353102
0.067003652 -0.084703207 -0.10415064
0.071877398 -0.082658544 -0.10938253
0.083312333 -0.088015862 -0.10269967
0.039656185 -0.068530589 -0.10016738
0.049827456 -0.06279479 -0.10626052
0.067235015 -0.061893225 -0.10935856
0.097461835 -0.065227859 -0.10790303
0.02826097 -0.053394593 -0.10441473
0.047142178 -0.050240904 -0.10524876
0.056192297 -0.054882891 -0.10311009
0.074432731 -0.056500655 -0.10180517
0.089656614 -0.059620172 -0.10306645
0.097736083 -0.057572231 -0.10199135
-0.010979034 -0.047198743 -0.10454977
0.045772679 -0.044376351 -0.10666463
0.051193483 -0.046426304 -0.10327572
0.060928158 -0.087036222 -0.094739012
0.071631767 -0.086314917 -0.09816616
0.089245692 -0.074548066 -0.09118297
0.044119231 -0.067237154 -0.095681317
0.089218177 -0.062624902 -0.090278104
0.10109609 -0.060126811 -0.094196461
-0.018375846 -0.051491931 -0.090940826
0.052524574 -0.059725545 -0.092000663
0.064145356 -0.056057103 -0.097569153
0.072469488 -0.055958115 -0.097895235
0.088331476 -0.055123456 -0.093123235
-0.01271025 -0.049060233 -0.096451968
-0.004641952 -0.047967516 -0.092336714
0.033517778 -0.043683767 -0.091183983
0.051596493 -0.045189738 -0.095194086
-0.37087765 -0.022398625 -0.096605644
0.062159162 -0.083183236 -0.088968433
0.071290523 -0.082162105 -0.085319072
0.066710487 -0.078348562 -0.084635668
0.07334543 -0.075956076 -0.082810856
0.085866719 -0.079845384 -0.082650594
0.053641785 -0.067670144 -0.088399865
0.061275613 -0.064419821 -0.084155612
0.097325757 -0.063359708 -0.083613053
-0.011876583 -0.050786253 -0.086878136
0.010221742 -0.056095704 -0.0877859
0.03421431 -0.057562977 -0.081208549
0.048019182 -0.05444042 -0.089720272
0.052997358 -0.055320449 -0.08401233
0.061776958 -0.047068957 -0.081142634
-0.34304094 -0.027227778 -0.080201648
-0.0160181 -0.058577992 -0.075775042
-0.0066278423 -0.054847851 -0.073171221
0.013669473 -0.058825087 -0.073307976
0.068442889 -0.054909419 -0.070670165
0.07382343 -0.051977746 -0.072592258
-0.0010656861 -0.049991921 -0.077192388
0.014050117 -0.046910331 -0.078173175
0.058066212 -0.045673955 -0.070676252
0.070996232 -0.049505718 -0.074824393
-0.33930308 -0.027563414 -0.077969104
0.0043812306 -0.060021173 -0.065825738
0.015777573 -0.061228506 -0.060463395
-0.021421844 -0.058686234 -0.061300285
-0.017774653 -0.057346001 -0.060159691
0.002731299 -0.056104343 -0.064924046
0.018947717 -0.059638046 -0.069858566
0.065987572 -0.056970663 -0.067156613
0.05993209 -0.046010837 -0.065635994
0.067184016 -0.046816103 -0.064614281
-0.36464453 -0.025710033 -0.068317592
-0.35641551 -0.027221093 -0.063743979
-0.3433578 -0.029684087 -0.060466494
-0.014818816 -0.092522271 -0.054090537
-0.00757924 -0.091892019 -0.054311961
0.0053467453 -0.094261155 -0.051772837
-0.012749318 -0.086021394 -0.050272923
-0.00080405595 -0.08996512 -0.050335698
0.0087933391 -0.086262323 -0.053454094
-0.015894599 -0.060636893 -0.052037887
-0.0041628145 -0.06171836 -0.053175971
0.0083261924 -0.061849706 -0.056651775
-0.021433011 -0.058869138 -0.057410322
-0.0069851074 -0.055509385 -0.056187619
0.074981019 -0.059706502 -0.051413715
0.076046124 -0.048726335 -0.056662783
-0.32439122 -0.030838311 -0.054922935
-0.33665252 -0.027383897 -0.053435564
-0.32906705 -0.027559653 -0.058723539
0.011721021 -0.092944197 -0.048797444
-0.013778811 -0.087813973 -0.040455438
0.0052860682 -0.0861011 -0.04323481
-0.021995008 -0.061001468 -0.045284789
-0.019063365 -0.061941318 -0.041858554
0.012577388 -0.063846216 -0.046604022
0.04311955 -0.064849541 -0.044923883
0.062782191 -0.063674882 -0.045450546
0.0072572329 -0.056763068 -0.045060445
0.087046482 -0.054614298 -0.04675433
0.026409438 -0.049940366 -0.044917632
0.047046229 -0.047119971 -0.045131747
-0.31745103 -0.032659203 -0.043461639
-0.32732743 -0.02885101 -0.041234814
-0.0082597192 -0.095391527 -0.039165389
0.0292753 -0.093622282 -0.034938119
-0.00050183799 -0.088572934 -0.039776299
-0.010645187 -0.060188498 -0.034070112
-0.0072743632 -0.062042851 -0.034140021
0.0082615372 -0.067128912 -0.030166721
0.034151364 -0.066056319 -0.037744239
0.046018828 -0.065983176 -0.035046872
0.073588267 -0.063407071 -0.030786542
0.10271298 -0.064448506 -0.030174505
-0.018505352 -0.057367709 -0.030153241
-0.00032793818 -0.057576127 -0.035560954
0.023735551 -0.051842831 -0.036640018
0.030794997 -0.056590207 -0.030872133
0.05077244 -0.059679821 -0.0308888
0.10274834 -0.05386515 -0.030059356
-0.077120304 -0.043966826 -0.030338271
-0.032169115 -0.040124767 -0.030758556
0.017182183 -0.041634385 -0.030591566
0.035354771 -0.04398429 -0.030367373
0.049032174 -0.04659823 -0.030628666
0.057012551 -0.048157521 -0.030351158
0.074971385 -0.04053181 -0.03071353
0.088679053 -0.048724573 -0.030656576
0.12541056 -0.044500198 -0.030295795
0.18772003 -0.044172689 -0.030321764
0.21407238 -0.042262282 -0.030521991
0.23260592 -0.045444742 -0.030220577
-0.31603464 -0.030047089 -0.03840699
-0.20903054 -0.033374093 -0.030725524
-0.13510668 -0.037024248 -0.03087444
-0.085408904 -0.036548823 -0.030784411
-0.076647192 -0.034033835 -0.030752443
-0.052873287 -0.032636836 -0.030539356
-0.031220581 -0.035676319 -0.030819433
0.015817406 -0.032962676 -0.030623846
0.088395461 -0.035309158 -0.030804474
0.12616758 -0.032155059 -0.03041446
0.13076724 -0.033539392 -0.030732267
0.19730373 -0.038434371 -0.03093194
0.20994024 -0.035014696 -0.030792454
0.22467694 -0.03518758 -0.030799512
0.23690397 -0.032585196 -0.030525954
0.2671814 -0.035327628 -0.030805226
0.27335447 -0.03145219 -0.030232213
0.28490204 -0.036647834 -0.030859079
-0.34806159 -0.029693298 -0.031683888
-0.0082772765 -0.071886428 -0.023300003
0.06648092 -0.071046874 -0.02510374
-0.21601185 -0.060882755 -0.024169356
-0.19617841 -0.065012187 -0.02136361
-0.18948361 -0.064258665 -0.022148315
-0.17920524 -0.064791091 -0.021725088
-0.11737648 -0.061418828 -0.024332946
-0.035884481 -0.068144366 -0.027458908
-0.02919437 -0.068954289 -0.027077235
-0.009304502 -0.068716727 -0.028417777
0.007464393 -0.065890498 -0.026564715
0.080483928 -0.069875181 -0.026979595
0.095615014 -0.068387508 -0.027993601
0.10500328 -0.061758257 -0.029467078
0.16319041 -0.065218866 -0.021287374
0.17571031 -0.060572185 -0.024866972
0.18060389 -0.060619622 -0.024836812
0.20759082 -0.065749213 -0.020877846
0.22232512 -0.066485494 -0.020026069
0.31389329 -0.062563822 -0.02349554
0.32450724 -0.062262721 -0.023466332
-0.26360434 -0.056227017 -0.020188484
-0.24325037 -0.058610275 -0.021764778
-0.22637217 -0.053764731 -0.027357733
-0.18531469 -0.059757464 -0.025380822
-0.16567574 -0.051858671 -0.028898425
-0.14531751 -0.053120181 -0.028669694
-0.13317069 -0.052940331 -0.02870932
-0.054930396 -0.051892944 -0.028940629
-0.044215035 -0.055345595 -0.028206503
-0.03359171 -0.053230997 -0.029163677
0.022556892 -0.053940922 -0.026958456
0.19474246 -0.057934176 -0.026530748
0.211963 -0.054096833 -0.028265342
0.2309486 -0.05236204 -0.028836984
0.24676129 -0.058808833 -0.02597907
0.27377477 -0.055562854 -0.027616434
0.32596648 -0.051773254 -0.028535629
0.34586507 -0.055689469 -0.024343245
-0.31627476 -0.040610731 -0.02072789
-0.28496712 -0.04516479 -0.024338895
-0.16989511 -0.048126362 -0.029771755
-0.06591294 -0.048870686 -0.029607598
0.10761921 -0.049941584 -0.029783439
0.11996793 -0.049666733 -0.029431986
0.14696038 -0.047897179 -0.029822271
0.20410533 -0.04849996 -0.029689349
0.23289895 -0.048233874 -0.029748125
0.28459433 -0.048677891 -0.029650001
0.32985795 -0.040702499 -0.02999749
-0.33091372 -0.034326352 -0.025091885
-0.32511622 -0.035830982 -0.020554775
-0.30195227 -0.037164617 -0.024408283
-0.29660711 -0.033213887 -0.022773454
-0.11011535 -0.030443586 -0.029935585
-0.0083346162 -0.030054683 -0.02982117
0.29278269 -0.030465307 -0.02994197
0.34871846 -0.030425552 -0.026352355
-0.34379101 -0.029955877 -0.02841777
-0.32325184 -0.028571639 -0.020695768
-0.29604024 -0.023363382 -0.023443583
-0.25201884 -0.022106159 -0.025760503
-0.19885802 -0.026078679 -0.028651942
-0.16360979 -0.027270937 -0.029002558
-0.082668141 -0.024985876 -0.02833057
-0.065620244 -0.024765743 -0.028265789
-0.01827159 -0.029708929 -0.029719681
0.016603218 -0.023493996 -0.027697928
0.025782209 -0.028765555 -0.029442023
0.057576895 -0.022852242 -0.027336627
0.13745168 -0.022716809 -0.027280767
0.14766254 -0.02563566 -0.028521558
0.18418835 -0.024295613 -0.02792003
0.19656165 -0.022410389 -0.027116295
0.2139965 -0.021721359 -0.026746454
0.24400648 -0.026931196 -0.028902601
0.27592322 -0.024373027 -0.028150305
0.2835798 -0.024435567 -0.027894683
0.31556344 -0.029714344 -0.029721139
0.34021258 -0.021596694 -0.024524275
0.35534766 -0.025465176 -0.02216883
-0.27609164 -0.016430795 -0.020588228
-0.24627805 -0.019217363 -0.02424516
-0.22286852 -0.019689459 -0.025475537
-0.2030575 -0.015178367 -0.021257088
-0.17417893 -0.015021014 -0.021049257
-0.16203827 -0.01798147 -0.024179351
-0.14605016 -0.015895823 -0.022093518
-0.095602475 -0.016628839 -0.023104146
-0.082642235 -0.017095534 -0.02347512
-0.073204935 -0.014736647 -0.02067367
-0.051263466 -0.014850724 -0.020824343
0.01225399 -0.015523544 -0.02171299
0.058365855 -0.01499135 -0.021010078
0.06400685 -0.018094039 -0.024268832
0.094872475 -0.019555841 -0.025430821
0.10820479 -0.016751647 -0.023201764
0.19247726 -0.016731363 -0.023185641
0.21304584 -0.017204914 -0.023562066
0.24483219 -0.015130991 -0.021194514
0.27730662 -0.015263163 -0.021369083
0.31400815 -0.019368451 -0.025281865
-0.207121 -0.070971422 -0.012561441
-0.16936627 -0.070359968 -0.014747341
-0.090662085 -0.071718194 -0.012110422
-0.087832376 -0.070316829 -0.014817341
0.052184723 -0.073749706 -0.011377524
0.069899239 -0.073784083 -0.010347757
0.12917511 -0.070647351 -0.014280983
0.18768692 -0.071254157 -0.013205152
0.20958515 -0.071915798 -0.011644246
0.23085132 -0.072042242 -0.011345943
0.27785194 -0.071738496 -0.012062523
0.30822879 -0.071991436 -0.01146581
0.33014908 -0.07177525 -0.010686631
-0.19716825 -0.068672217 -0.017114252
-0.18575805 -0.069694467 -0.015827293
-0.15422267 -0.06686981 -0.019581702
-0.12913543 -0.066541739 -0.019961197
0.18695852 -0.069259129 -0.016533734
0.25922036 -0.066620648 -0.019870007
0.34130839 -0.066523343 -0.017281048
0.37087977 -0.061131664 -0.011373292
-0.2900922 -0.053543657 -0.015879769
-0.2800146 -0.057439052 -0.014284529
0.007171846 -0.050054561 -0.015796639
-0.32158238 -0.047851086 -0.012985111
-0.31913215 -0.044111006 -0.018258974
-0.34709519 -0.032428756 -0.018428616
-0.33153886 -0.031807434 -0.019345459
-0.32495967 -0.031532869 -0.015695153
0.366162 -0.030092215 -0.019969741
-0.36219344 -0.029365834 -0.010642454
-0.32822159 -0.027479116 -0.019209379
-0.31936648 -0.020759888 -0.017403845
-0.2665661 -0.012559243 -0.015133971
-0.22144847 -0.010826245 -0.014358317
-0.14330167 -0.010132127 -0.012627126
-0.13066708 -0.011399554 -0.015432911
-0.11084878 -0.011161 -0.015016526
-0.10441929 -0.011421235 -0.015278395
-0.095782086 -0.010130794 -0.01262374
-0.053420857 -0.012294388 -0.01699481
-0.015776765 -0.010799719 -0.014321788
-0.0087257875 -0.012781393 -0.01784485
0.017445972 -0.010588869 -0.013786552
0.043860607 -0.011246879 -0.015096799
0.056324422 -0.010230385 -0.012876548
0.073829755 -0.01212981 -0.016707541
0.17703967 -0.011727544 -0.016005404
0.20103526 -0.01275592 -0.017800387
0.22978914 -0.012256587 -0.016928826
0.36406147 -0.01840383 -0.011053378
-0.12988923 -0.0097873807 -0.011751996
-0.0010451898 -0.0091333874 -0.010091855
0.055640824 -0.009103735 -0.010016582
0.091092251 -0.0097408276 -0.011633826
0.10402878 -0.009151604 -0.010138096
0.1452648 -0.0098669548 -0.011953991
0.34942508 -0.091347404 -0.0013399824
0.35171515 -0.090013817 -0.0063388692
-0.17229436 -0.073706806 -0.0061720172
-0.14315714 -0.073058024 -0.0087803127
-0.06076213 -0.074315749 -0.001752955
-0.030950081 -0.073771954 -0.0081353011
0.013727287 -0.073897794 -0.0089902561
0.039973013 -0.074433967 -0.00048019766
0.048815031 -0.074257672 -0.0028293105
0.075521931 -0.073843136 -0.0085793398
0.1060297 -0.072801895 -0.0095538348
0.12707946 -0.073649488 -0.0061313426
0.16636693 -0.072684482 -0.0098308446
0.1768114 -0.074387558 -0.00086470967
0.18215498 -0.074420579 -0.00045623296
0.19867735 -0.073154315 -0.0083931787
0.33759198 -0.07231503 -0.0039995257
0.3499406 -0.071112685 -0.003527368
-0.25479722 -0.064675808 -0.0078860354
-0.24866432 -0.066489801 -0.0037408334
0.35484967 -0.069925807 -0.0030773012
-0.28710097 -0.058071822 -0.0080404645
-0.34682548 -0.045304023 -0.0026860819
-0.37193346 -0.038838092 -0.005016386
-0.35442257 -0.033128213 -0.0093522742
-0.33309102 -0.032118961 -0.0085717095
-0.37391657 -0.025691237 -0.00095157552
-0.35108486 -0.020431438 -0.00084941782
0.37508687 -0.021587549 -0.0040335883
-0.3438825 -0.013323474 -0.0011803565
-0.33040833 -0.016814776 -0.00039664764
-0.31232589 -0.014357591 -0.0026603497
-0.25875476 -0.010294721 -0.0079956558
0.35579988 -0.013384782 -0.0024448775
-0.26391608 -0.0046000588 -0.0030046371
-0.22754817 -0.0086086029 -0.0064015915
-0.2006935 -0.0076332735 -0.0010583539
-0.19711742 -0.0076745097 -0.0016070862
-0.18711016 -0.0086141899 -0.0079830075
-0.15358981 -0.0087105865 -0.008400701
-0.12635092 -0.0082864538 -0.0065629026
-0.10358837 -0.0080960235 -0.0042773304
-0.01014707 -0.0077921543 -0.0031725687
0.022250867 -0.0086843912 -0.0082871942
0.035683215 -0.0076406561 -0.0011565902
0.079011813 -0.0075821406 -0.00037793303
0.083771162 -0.0080480957 -0.0041609397
0.12485436 -0.0085866833 -0.0078638177
0.16802762 -0.0083795674 -0.0069663697
0.17145284 -0.0080924649 -0.005722336
0.18026927 -0.0075861639 -0.00043065942
0.19843876 -0.0078172376 -0.0035051841
0.30045903 -0.0076591214 -0.001402223
0.33418894 -0.0099632917 -0.0096992841
-0.34394616 0.0096999109 -0.0019006296
-0.31387246 0.01580471 -0.003960669
-0.29803139 0.018113799 -0.0032005035
-0.37120023 0.02915973 -0.00044317832
-0.36053666 0.026666481 -0.0011747185
-0.35443535 0.026134163 -0.0016318236
-0.32034385 0.020021202 -0.0037386874
-0.35649747 0.037192576 -0.0019568435
-0.32796192 0.036468606 -0.0035693753
-0.31607878 0.039447878 -0.0022253194
-0.36135572 0.042387515 -0.0017345862
-0.32140383 0.045597959 -0.0019625186
-0.31797913 0.043146513 -0.0018729002
-0.38240278 0.053298179 -0.00035233333
-0.35590851 0.062247902 -0.0026711854
-0.37185153 0.075756356 -0.0021495635
-0.36799711 0.082472958 -0.0022347211
-0.35742962 0.080325127 -0.0013673916
-0.38562375 0.090838738 -0.0016784573
0.35295084 -0.087838441 0.0063822521
-0.22838524 -0.071023464 0.00014297001
-0.20769385 -0.072239526 0.0075144032
-0.18771942 -0.073044807 0.0087338807
-0.16634393 -0.073926345 0.0051895063
-0.12021121 -0.074447989 4.0945812e-05
0.017845921 -0.073889993 0.0088225883
0.050584994 -0.074256882 0.0023925654
0.065729663 -0.074289426 0.0019920948
0.079398803 -0.074039534 0.0054728682
0.091816202 -0.074156411 0.0036289897
0.10830269 -0.074282467 0.0020778275
0.11942386 -0.074255615 0.0024082498
0.22713418 -0.074265741 0.0022836416
0.23610623 -0.074055344 0.0046708407
0.24050459 -0.074282169 0.0020814291
0.30392307 -0.074293196 0.0019457696
0.33813661 -0.073050581 0.00062840752
0.35374421 -0.077711977 0.00018773985
-0.26291424 -0.063336946 0.0056648846
0.36020231 -0.067256011 7.6569151e-05
0.3746978 -0.063735247 0.0035413615
-0.3534351 -0.041642468 0.0092025548
0.39780745 -0.049377795 0.0061313524
0.40284371 -0.044726074 0.0022478616
-0.37282914 -0.025982004 0.0040337974
-0.3526797 -0.020808512 0.0014168317
-0.35411778 -0.010127235 0.00042745599
-0.33649758 -0.018521978 0.0053082043
-0.25359902 -0.010071007 0.0076924954
0.35774505 -0.014586663 0.0054978393
-0.32904568 -0.0031919682 0.0025117372
-0.31014839 -0.0035938001 0.0037958338
-0.20617622 -0.0076706214 0.0014722979
-0.077718191 -0.0079016434 0.0045319204
-0.06825868 -0.007690941 0.0017414091
-0.034475051 -0.0078011961 0.0032016074
-0.012200025 -0.0080527132 0.0054505961
0.11472311 -0.0078207096 0.0034600389
0.13139603 -0.0079266736 0.0043783062
0.14849731 -0.008422859 0.007054463
0.21924946 -0.0083237523 0.006625026
0.26431474 -0.0081177019 0.0057321964
0.32099175 -0.0084644696 0.0072528161
0.33325869 -0.0091134915 0.005955277
-0.28824174 0.016562693 0.0015668434
-0.35417205 0.023735266 0.0014897494
-0.3154344 0.039753992 0.0020001864
-0.38237756 0.049627703 0.00016279246
-0.36627281 0.04311927 0.0011992044
-0.35517162 0.047546748 0.002325942
-0.37561423 0.057571977 0.00097306579
-0.34683806 0.056577943 0.0029081847
-0.38888717 0.067611106 0.00023447239
-0.3565672 0.063851207 0.0025817794
-0.34151715 0.062057715 0.0020932639
-0.38366669 0.072136767 0.00089022965
-0.38304904 0.090693399 0.0017506601
-0.21408489 -0.07067395 0.01223862
-0.061912619 -0.072491549 0.010186521
-0.034823805 -0.071912996 0.019281782
0.0091422498 -0.073782086 0.011400701
0.011340393 -0.073288321 0.016670955
0.080731869 -0.07379853 0.010871514
0.10166094 -0.071343496 0.017472085
0.13910675 -0.070867494 0.013824288
0.17291719 -0.072407193 0.0103855
0.27570641 -0.070977345 0.013646063
0.28185755 -0.071302652 0.012991323
0.30089393 -0.072186083 0.010907168
0.31339955 -0.07118348 0.0132128
-0.24171874 -0.062880367 0.017134072
-0.23376571 -0.065989912 0.015013989
-0.21478513 -0.066982716 0.018094746
-0.14315759 -0.069696456 0.015724592
-0.10026073 -0.066836797 0.019520391
0.21718696 -0.068692803 0.017353274
0.22965632 -0.069152206 0.016607806
0.23678166 -0.069269523 0.016417431
0.27411824 -0.068452545 0.017651288
-0.29215646 -0.056470577 0.011141466
-0.26977783 -0.057761315 0.016630366
0.35347116 -0.059952091 0.01991906
-0.30724812 -0.04900343 0.016799584
-0.35902381 -0.037847951 0.010939237
-0.34897617 -0.033074841 0.018151952
-0.33747134 -0.037784673 0.016809324
-0.32868889 -0.031934068 0.019972553
-0.30131817 -0.037071027 0.014889157
0.38337725 -0.034537993 0.01273967
-0.30246213 -0.017079672 0.015853139
-0.29628748 -0.015436487 0.015046459
-0.28959724 -0.016494747 0.018884771
-0.27060276 -0.013835568 0.016989013
-0.21574283 -0.011369444 0.015280857
-0.19754255 -0.012426743 0.017126326
-0.17462921 -0.01219305 0.016718425
-0.16720308 -0.01161701 0.015712971
-0.15987524 -0.01210853 0.016570896
-0.12026025 -0.012570897 0.017377939
-0.11265462 -0.010769332 0.014145148
-0.1042297 -0.011709871 0.015875056
-0.057839666 -0.011615646 0.015316027
-0.036609687 -0.010654079 0.013852583
-0.017223928 -0.010705976 0.013984322
0.029568184 -0.010734564 0.014056893
0.10365787 -0.012407979 0.017093571
0.12010832 -0.010341676 0.013059557
0.25350571 -0.011202795 0.01498998
0.29329813 -0.01072285 0.014027156
0.30919024 -0.012530555 0.017307524
0.3238315 -0.01354645 0.018714
0.34364533 -0.014643173 0.016404437
0.36451796 -0.019466892 0.012000496
-0.063200399 -0.0098134279 0.011718615
-0.027242579 -0.0096434988 0.011287256
0.31008491 -0.0096133668 0.011210766
-0.02319593 -0.071735717 0.023024684
0.00031059422 -0.07133016 0.024448242
0.011158137 -0.071677305 0.023766909
0.075821035 -0.071012847 0.024982732
0.086841553 -0.07247588 0.02169781
-0.20655198 -0.065575987 0.020382259
-0.17364973 -0.065572388 0.02098297
-0.12233648 -0.063171834 0.022912735
-0.11184736 -0.062430784 0.023501793
-0.071066111 -0.064060859 0.022206046
-0.03287911 -0.060841423 0.029234251
0.091251664 -0.063814811 0.027682845
0.16274893 -0.06412553 0.02215464
0.17741692 -0.066007093 0.020480141
0.2156387 -0.066029876 0.020453716
0.26608199 -0.063133731 0.022942843
0.3211824 -0.06503956 0.021302192
-0.26824886 -0.051833156 0.022282755
-0.23205611 -0.052946765 0.026897566
-0.18893647 -0.051186245 0.028996851
-0.1463131 -0.057717938 0.026562685
-0.12312722 -0.05485104 0.027832124
-0.069004029 -0.055584069 0.02750745
-0.058552586 -0.051050913 0.029026644
-0.024288548 -0.057203427 0.029717788
0.0050506555 -0.056719791 0.020074988
0.14384672 -0.057463635 0.026488896
0.16590072 -0.059863672 0.025214085
0.17297876 -0.050448403 0.029159646
0.18049236 -0.05507211 0.027734173
0.19151574 -0.052006073 0.028815959
0.27968568 -0.051401284 0.028949358
0.30474654 -0.054087229 0.028170176
-0.29459047 -0.04564292 0.021927532
-0.13367832 -0.048576191 0.029572824
-0.060991656 -0.048673153 0.029551314
-0.039263532 -0.04763256 0.029781017
0.13654216 -0.049196947 0.029435754
0.1577599 -0.046842631 0.029955303
0.16787319 -0.048061136 0.029686471
0.17173386 -0.046990391 0.029922692
0.18858686 -0.046995532 0.029921632
-0.32157201 -0.033744875 0.021554014
-0.2423988 -0.03727622 0.0295632
-0.23468986 -0.035085227 0.029963143
0.17010394 -0.03007488 0.029727634
0.18884265 -0.030237656 0.029775508
0.36516428 -0.033138391 0.021589451
-0.25682956 -0.024865067 0.026636129
-0.22775571 -0.022584507 0.026870025
-0.17919315 -0.024627035 0.028125258
-0.14786588 -0.027433325 0.028950717
-0.13593397 -0.022903997 0.027281474
-0.1003709 -0.029271584 0.029491354
-0.092067853 -0.021716872 0.026644394
-0.073803872 -0.027109396 0.028855413
-0.02564468 -0.020139318 0.025795124
-0.011629822 -0.021939751 0.026764002
0.023482941 -0.023877228 0.027803771
0.043693826 -0.028742379 0.029335652
0.063854232 -0.024860792 0.028193947
0.096128061 -0.028330643 0.029214539
0.11297911 -0.023741864 0.027731128
0.15888433 -0.027490901 0.02896766
0.18040425 -0.021453444 0.026503023
0.29169828 -0.020636974 0.026064854
-0.26610932 -0.017230162 0.021581719
-0.1587711 -0.015465192 0.021536421
-0.13953429 -0.016753443 0.023103692
-0.12725805 -0.015434929 0.021496449
-0.05715096 -0.018435242 0.024440557
-0.0072427019 -0.016097182 0.022371141
0.055804532 -0.017843144 0.023969898
0.086647972 -0.016595013 0.022977758
0.094103441 -0.01541805 0.021474155
0.27162471 -0.019933749 0.025631718
0.29784739 -0.015749078 0.021911371
0.30133861 -0.01970122 0.025446881
0.31722215 -0.017160209 0.023336776
-0.00051934773 -0.091675431 0.037761807
0.008372738 -0.082379818 0.03878098
0.018054644 -0.087867208 0.038726658
0.0059810909 -0.07059703 0.033585701
-0.016883899 -0.062385846 0.035585314
0.01021255 -0.063068621 0.030715337
0.041136466 -0.065734208 0.030321319
0.050757952 -0.067400485 0.032349393
-0.005486459 -0.052151863 0.030690365
0.0077738967 -0.056588221 0.030859753
0.015579659 -0.054385331 0.03488246
0.061179757 -0.057794642 0.030787125
0.078637108 -0.057337817 0.030781638
-0.22289884 -0.04185475 0.030352943
-0.20891771 -0.041679248 0.030486822
-0.19601557 -0.040763419 0.030588146
-0.17249338 -0.0416357 0.030491922
-0.12072299 -0.046513915 0.030027822
-0.028030451 -0.041446313 0.030512869
0.036123574 -0.047336325 0.030498266
0.044801123 -0.049548913 0.030515071
0.06700559 -0.047569722 0.035406239
0.083717331 -0.0492616 0.037759662
0.13874617 -0.04322461 0.030316152
0.15070553 -0.04089848 0.030573469
0.23738874 -0.043330882 0.030304296
-0.34720218 -0.032203533 0.031016443
-0.33840045 -0.032740925 0.034570731
-0.30958828 -0.03104385 0.031660162
-0.21577069 -0.039122868 0.030769743
-0.17979617 -0.039961193 0.030676976
-0.16593334 -0.033584081 0.030634593
-0.066581629 -0.037204463 0.030728497
-0.044741876 -0.033755612 0.030641556
-0.0057838913 -0.038059346 0.03081682
0.064366624 -0.038383834 0.030830212
0.072610855 -0.038340941 0.030828413
0.13763428 -0.037797146 0.030806439
0.16755289 -0.035720203 0.030721743
0.21321444 -0.031105092 0.030030627
0.23100293 -0.036246687 0.030742973
0.27730781 -0.038812798 0.030804038
0.30656675 -0.03636628 0.030748039
-0.35773093 -0.029769577 0.033580042
-0.34357888 -0.029001765 0.0367487
-0.33014169 -0.029370124 0.035395794
-0.012737534 -0.087992579 0.045028061
-0.00085131067 -0.081165776 0.043919124
0.0078930445 -0.081848487 0.04444978
0.0083151497 -0.063582957 0.04275538
0.013336562 -0.063537292 0.048125193
0.053713076 -0.064460635 0.044949017
0.067554586 -0.062331513 0.048087165
0.0032675301 -0.055339757 0.043354481
0.091750845 -0.053252961 0.043349169
0.038316004 -0.047867849 0.046189122
-0.3474645 -0.030033011 0.042243358
-0.31043071 -0.031038985 0.042475261
-0.35496044 -0.027905837 0.048016977
0.020842621 -0.083589137 0.050314691
0.010571145 -0.062404078 0.053982295
0.038088664 -0.063407853 0.051975198
0.017548256 -0.049407497 0.057841908
0.02649951 -0.048428178 0.054835234
0.034654055 -0.047698498 0.051051706
0.064266711 -0.046690751 0.055719372
0.076020122 -0.048649207 0.054633792
0.0052931365 -0.060708389 0.062317237
0.013840444 -0.061022501 0.061467808
0.041649856 -0.06168383 0.060847826
0.051654615 -0.060594052 0.062626958
-0.019937055 -0.05728633 0.063003086
0.00063257641 -0.05251687 0.061706245
0.074420668 -0.05373583 0.065716103
0.046635494 -0.04513593 0.069414303
0.059094287 -0.045944773 0.066100352
-0.35472605 -0.028461192 0.063386247
-0.32558787 -0.029730633 0.061382584
-0.020091267 -0.060074426 0.075678416
-0.015667081 -0.062639229 0.074261136
0.00054234557 -0.056400284 0.074704722
0.025265492 -0.058892041 0.074536562
0.049544364 -0.058604788 0.071898952
0.072982654 -0.052674767 0.072834641
0.023820417 -0.045880441 0.076001063
0.031996418 -0.045457147 0.071940579
-0.36846536 -0.02473318 0.077304445
-0.3580946 -0.024971735 0.072742879
-0.34442037 -0.028280919 0.072402656
0.085028239 -0.0818244 0.083888665
0.04867379 -0.074891403 0.088918358
0.051382802 -0.076959662 0.086006112
0.070893519 -0.073653817 0.083948791
0.095355958 -0.076617435 0.085531853
0.058152765 -0.069970824 0.086740822
0.067868896 -0.063645497 0.086659856
0.071535043 -0.06463746 0.083383456
0.093509741 -0.065135114 0.087332785
-0.0054886425 -0.055550382 0.085876115
0.022082834 -0.057365965 0.082288839
0.036905397 -0.057212546 0.082023591
0.054600939 -0.055063359 0.084129304
0.063823946 -0.053293955 0.080039069
0.022225516 -0.045502588 0.080576405
0.066527233 -0.049211666 0.082532302
-0.35863376 -0.023815107 0.083664037
-0.34299517 -0.025805973 0.084541969
0.058606632 -0.084664822 0.093339235
0.063923828 -0.084954023 0.092040427
0.089593865 -0.087458476 0.090752818
0.094672702 -0.084490955 0.095312543
0.067370512 -0.074304558 0.096093439
0.02915776 -0.060290419 0.097976856
0.053395223 -0.061337993 0.093346789
-0.023486642 -0.053441945 0.090425648
0.0005643206 -0.05507116 0.090987191
0.026807062 -0.052273989 0.096638218
0.038175903 -0.052893464 0.096475005
0.058419503 -0.050183766 0.095059231
0.06158489 -0.058632899 0.091217011
0.075927697 -0.055200804 0.097798444
0.09438175 -0.059952635 0.098385327
0.10234357 -0.059887201 0.090435669
0.039851241 -0.043420903 0.097036876
0.059535012 -0.049526803 0.094364554
-0.37150732 -0.022512624 0.09831468
-0.36405683 -0.023798458 0.091558702
0.058945507 -0.083667144 0.10381196
0.064295463 -0.083782583 0.10507844
0.076511696 -0.086041346 0.10602757
0.08064054 -0.084265731 0.10971238
0.094629541 -0.08112935 0.10697801
0.047808934 -0.074181072 0.1046648
0.062100854 -0.070132501 0.10852212
0.089703307 -0.073721536 0.10420555
0.046598278 -0.067164764 0.10477071
0.051400386 -0.064936168 0.10861791
0.062971428 -0.062330067 0.10574077
0.089679644 -0.067859851 0.10361916
-0.015225278 -0.052365348 0.10769982
-0.00017913809 -0.053821646 0.10067385
0.0039159372 -0.05231772 0.10114839
0.052625392 -0.050073136 0.10056306
0.065698281 -0.05889532 0.10826851
0.0066931844 -0.044049393 0.10512753
0.016905252 -0.04278785 0.10539203
0.030724036 -0.049439687 0.10384625
-0.36527449 -0.022242114 0.10575491
0.058731306 -0.078341261 0.11164836
0.063297682 -0.0766268 0.11345521
0.071569219 -0.077441387 0.11182544
0.058868188 -0.068288818 0.11155622
0.06731274 -0.063198909 0.11117055
0.0087939836 -0.052255496 0.11569075
-0.017088229 -0.046103872 0.11873902
-0.36373422 -0.022708513 0.11070444
-0.0014198347 -0.050560322 0.1279202
-0.034814917 -0.047663957 0.12905592
0.012097633 -0.040691845 0.12788108
-0.015611973 -0.049381878 0.13533066
0.016415026 -0.048167713 0.1387178
-0.038118314 -0.045783319 0.14922559
-0.024806809 -0.04534734 0.14199716
-0.016020847 -0.044582717 0.145666
-0.001916808 -0.038515173 0.14826691
-0.042494521 -0.043385517 0.15485813
-0.031657767 -0.041636202 0.15324636
-0.024375625 -0.046524115 0.15163191
-0.019943191 -0.040297516 0.15043038
0.00036094803 -0.04362911 0.16420022
-0.021130923 -0.041654538 0.179048
-0.0039737029 -0.041661482 0.17396894
-0.017539915 -0.041118093 0.18067317
-0.04155843 -0.036686994 0.18138532
0.001705244 -0.036947511 0.18185464
-0.055294905 -0.041386381 0.19431478
-0.052381162 -0.036533844 0.19608201
-0.032849874 -0.038553003 0.19511288
-0.012384687 -0.032747824 0.19683105
-0.0091055231 -0.033519678 0.19361758
-0.056369118 -0.031747784 0.20937759
-0.046402752 -0.031460285 0.20533651
-0.062889993 -0.030173549 0.21817669
-0.053800244 -0.031506903 0.22302467
-0.059812032 -0.026795425 0.22774482
-0.027631281 -0.028781254 0.2246203
-0.033689562 -0.02547548 0.23123267
-0.063151605 -0.024617681 0.2451303
-0.054861937 -0.019666895 0.25193521
-0.086239845 -0.017665803 0.26356119
-0.095224187 -0.011083468 0.2768783
