# .PCD v0.7 - Point Cloud Data file format
VERSION 0.7
FIELDS x y z
SIZE 4 4 4
TYPE F F F
COUNT 1 1 1
WIDTH 880
HEIGHT 1
VIEWPOINT 0 0 0 1 0 0 0
POINTS 880
DATA ascii
-0.10353816 -0.042808991 -0.3309094
-0.11120115 -0.042295258 -0.32957494
-0.10016521 -0.040927436 -0.32625863
-0.10198389 -0.046066631 -0.31176001
-0.080666445 -0.040552303 -0.31933403
-0.083632611 -0.04783145 -0.30766171
-0.066122413 -0.04269731 -0.30215901
-0.1002758 -0.045352891 -0.29976478
-0.087092713 -0.043210082 -0.29715511
-0.0643484 -0.045434628 -0.29910147
-0.088111013 -0.051130332 -0.27242258
-0.066205822 -0.044399343 -0.27496743
-0.084663205 -0.052074604 -0.26613611
-0.052755523 -0.052741304 -0.26710367
-0.052798804 -0.045826152 -0.26280722
-0.090300821 -0.050323114 -0.25444749
-0.046596143 -0.054534689 -0.2526648
-0.084783621 -0.048339356 -0.25789747
-0.052809924 -0.046469472 -0.25141436
-0.091860563 -0.051779095 -0.24807836
-0.08401709 -0.050022915 -0.24657269
-0.044286288 -0.055387624 -0.24595426
-0.052856281 -0.057459086 -0.23161063
-0.052218251 -0.048086114 -0.2324563
-0.049699929 -0.047521148 -0.2392375
-0.08750245 -0.054491647 -0.22745895
-0.077718467 -0.052224256 -0.22360292
-0.043891646 -0.057875805 -0.22798233
-0.050555758 -0.048671748 -0.22567156
-0.045443825 -0.048749316 -0.22505277
-0.073887147 -0.053294972 -0.21124747
-0.064180717 -0.054652274 -0.21896957
-0.044692017 -0.059493631 -0.215379
-0.038608335 -0.059513085 -0.21480706
-0.027240366 -0.050801426 -0.21165709
-0.035881251 -0.050662868 -0.20311993
-0.07282193 -0.057609066 -0.19622381
-0.051521875 -0.052464977 -0.19251701
-0.018084656 -0.052714895 -0.1902236
-0.067899652 -0.060872525 -0.18884528
-0.082679689 -0.059205819 -0.18918386
-0.045023248 -0.053366926 -0.18000445
-0.0050773798 -0.055750169 -0.18286218
-0.059095688 -0.063397534 -0.17152774
-0.047378078 -0.064165182 -0.17264377
-0.018793695 -0.063750215 -0.17944182
-0.062074862 -0.063416541 -0.16768716
-0.036612779 -0.065333702 -0.16646916
-0.060640939 -0.058261193 -0.16091245
-0.064404167 -0.060622584 -0.15248449
-0.046217721 -0.066011511 -0.15612887
-0.011993313 -0.06635423 -0.15901816
-0.0068695317 -0.066762328 -0.15479168
0.011620861 -0.061691277 -0.15455766
-0.054174207 -0.056955244 -0.15881503
-0.025073821 -0.054521248 -0.15841086
-0.069986805 -0.064678818 -0.14402942
-0.010426633 -0.070056379 -0.13110894
-0.0084658116 -0.056719828 -0.13353263
0.0016615385 -0.057146978 -0.13676035
-0.056426242 -0.062540293 -0.12863564
-0.0042911088 -0.057576053 -0.12371279
-0.027579587 -0.070886597 -0.11916396
0.031842113 -0.070269942 -0.11005635
0.030793346 -0.063876607 -0.11296735
-0.029802298 -0.059898827 -0.11017428
-0.038588606 -0.071234219 -0.10579776
-0.0073018102 -0.073268451 -0.10130893
-0.04757487 -0.06371998 -0.10102033
-0.010728016 -0.05849801 -0.10443303
0.026589438 -0.073639609 -0.09224917
-0.050040107 -0.065069884 -0.093438983
-0.0014388682 -0.058576588 -0.09697634
-0.31314248 0.098098032 -0.091033496
0.028081436 -0.074626617 -0.083142333
-0.055736721 -0.067132607 -0.08697436
-0.024061758 -0.060807154 -0.084998876
0.05017196 -0.066888608 -0.084714562
0.0027951333 -0.058822822 -0.0855956
0.018171852 -0.05894037 -0.083415344
-0.024860222 -0.074821115 -0.07162948
-0.0027846657 -0.07586097 -0.071356013
-0.046553433 -0.065646231 -0.078158394
-0.023654293 -0.061163012 -0.078074381
0.040207841 -0.060974702 -0.076985866
0.016630953 -0.059016336 -0.079211347
-0.31201318 0.09904626 -0.074939728
-0.31790659 0.10219831 -0.077018403
-0.30683786 0.10257668 -0.0767406
-0.054362513 -0.072211511 -0.063170709
-0.041777983 -0.073557235 -0.063650303
-0.024410293 -0.075245731 -0.06655594
0.011478207 -0.077212758 -0.061618723
0.034968838 -0.076419801 -0.065313525
-0.05656749 -0.069534808 -0.064047195
-0.013910084 -0.060956404 -0.066166624
-0.00099145388 -0.059827641 -0.065450124
0.015377216 -0.05931928 -0.063635208
-0.32519731 0.10098337 -0.064436942
-0.053118519 -0.073091231 -0.051437892
-0.013336295 -0.076802433 -0.053415708
-0.0099635739 -0.076582506 -0.058132395
0.036913522 -0.077264696 -0.057312705
0.059434645 -0.076492764 -0.053154208
-0.047921389 -0.068098299 -0.056135453
-0.032183174 -0.064470962 -0.052327167
-0.29855269 0.10013505 -0.054223917
-0.0047824667 -0.10353132 -0.048510227
0.013102995 -0.10707039 -0.045011453
0.036942389 -0.10980484 -0.042308114
0.056854885 -0.10035767 -0.043319944
0.06480445 -0.10243689 -0.040825497
0.12337875 -0.10819368 -0.040985096
0.13697183 -0.10079692 -0.047657974
0.14267477 -0.10784403 -0.042803109
0.00084039947 -0.092566125 -0.043352179
0.024108056 -0.097253852 -0.044636898
0.044524167 -0.091924593 -0.046103656
0.06348867 -0.099456958 -0.040571172
0.077326939 -0.097157873 -0.045802556
0.1626142 -0.098471247 -0.041116882
-0.044232275 -0.082405895 -0.04435771
-0.033042811 -0.087408967 -0.043293219
-0.0056145657 -0.083827466 -0.047766238
0.006956201 -0.083694018 -0.047375105
0.026659353 -0.087110415 -0.047897112
0.03368428 -0.084547445 -0.047794938
0.041165076 -0.085484475 -0.047451898
0.05185166 -0.081131771 -0.044599582
0.060528524 -0.083533831 -0.047493551
0.079939559 -0.086116374 -0.0475353
0.098177828 -0.08219298 -0.047574531
0.10194645 -0.086548686 -0.047582634
0.15484333 -0.088758864 -0.045596369
-0.054851159 -0.073548406 -0.046044007
-0.032651301 -0.075938575 -0.041826144
-0.0079286462 -0.073509887 -0.048156109
0.0059525743 -0.076075293 -0.047869474
0.011342337 -0.078507602 -0.046292052
0.02693115 -0.073704302 -0.048258912
0.034400459 -0.076405063 -0.04793074
0.043998782 -0.076309457 -0.048048697
0.053865064 -0.079549879 -0.047588531
-0.081726238 -0.068000458 -0.044099741
-0.056479529 -0.063832678 -0.047061734
-0.046066385 -0.066514075 -0.045636967
-0.027508147 -0.069796085 -0.048406545
0.015946068 -0.063528091 -0.04432223
0.072770901 -0.069525138 -0.047695212
0.11774637 -0.066491641 -0.047671899
0.13576905 -0.069601506 -0.045383476
0.17723866 -0.061148167 -0.041398264
-0.086826988 -0.055658836 -0.044029705
-0.060822956 -0.05634138 -0.046797372
-0.055019185 -0.052865811 -0.047150634
0.10691345 -0.056674488 -0.047671899
0.13097778 -0.058348931 -0.04759191
0.17717549 -0.059417609 -0.042117834
0.22627415 -0.053919863 -0.040749546
-0.054475851 -0.041286677 -0.0471837
0.0051725833 -0.046183039 -0.048978399
0.088300206 -0.047249965 -0.048881277
0.099682316 -0.043013893 -0.048978403
-0.067377582 -0.037743401 -0.046394315
-0.057467103 -0.032100946 -0.046286393
-0.047404163 -0.032888044 -0.04703474
-7.3440897e-05 -0.03700266 -0.048978403
0.041325543 -0.03801167 -0.048978399
0.067141145 -0.038886815 -0.048978399
0.072603241 -0.036616366 -0.048961408
0.15557416 -0.038147956 -0.048474666
0.20081112 -0.036367357 -0.045131743
-0.090326265 -0.022566684 -0.040137529
-0.080829546 -0.022457799 -0.041712642
-0.072045594 -0.020524861 -0.042294189
-0.011676108 -0.022346636 -0.046596397
0.028417898 -0.025267772 -0.047467452
0.065588683 -0.026560118 -0.047637638
0.075297683 -0.028527228 -0.047896568
0.1609952 -0.029983679 -0.047487594
0.21444002 -0.029259676 -0.041612908
0.020299442 -0.010611472 -0.04115488
0.053056926 -0.012620452 -0.042567741
0.090013579 -0.01201312 -0.042230487
0.11791463 -0.016963407 -0.044366639
0.13754086 -0.01543846 -0.04373499
0.1546182 -0.011571741 -0.041243117
-0.32303965 0.10300489 -0.047328375
-0.29374352 0.10065307 -0.044863258
0.12626226 -0.11251757 -0.036105879
0.00046558864 -0.10375843 -0.034458816
0.086553626 -0.10008 -0.033439945
0.11994714 -0.10458939 -0.031984903
0.12686594 -0.10035291 -0.033784308
0.14532588 -0.10120504 -0.037493378
-0.066830516 -0.090511546 -0.035077836
0.08332976 -0.099484682 -0.033359386
0.091245949 -0.099568136 -0.033370677
0.13778356 -0.09701366 -0.034964472
0.10282558 -0.087595604 -0.031750493
0.17664869 -0.081262365 -0.030217865
0.18258889 -0.080666788 -0.030737899
-0.12179878 -0.074205823 -0.034733173
0.13553114 -0.074495107 -0.03990116
0.14105345 -0.075559177 -0.039273132
0.15734439 -0.072039649 -0.034548201
0.18942122 -0.076884121 -0.037416786
0.21287547 -0.073571816 -0.030646831
-0.13609701 -0.067053102 -0.034552291
0.16063699 -0.06511461 -0.039194297
0.20465472 -0.062796041 -0.039406836
0.23308538 -0.065036088 -0.035727017
0.011052455 -0.058555402 -0.031552896
0.19740863 -0.05038229 -0.035016999
0.22704041 -0.053892806 -0.030932544
0.24140032 -0.054998111 -0.037955988
-0.019561369 -0.041815661 -0.035016999
0.19314873 -0.042605821 -0.031306095
0.23805937 -0.049744554 -0.039264686
-0.11442607 -0.032532737 -0.039078236
-0.023746572 -0.038617738 -0.035016999
-0.012231002 -0.039959971 -0.033655751
0.18705705 -0.033440404 -0.035016999
-0.14747237 -0.027768508 -0.032542687
0.17688677 -0.028891459 -0.030162167
-0.10926482 -0.017506292 -0.034435786
0.17923874 -0.011683212 -0.038485922
0.20221767 -0.015983175 -0.03783384
-0.04385224 -0.0046807127 -0.034082968
-0.00085908547 -0.0054992661 -0.037232172
0.0076965028 -0.00012079214 -0.032038011
0.046353169 -0.0066203061 -0.038092364
0.06213668 -0.001226468 -0.033479031
0.096781157 -0.0072731823 -0.038593419
0.11567093 -0.00055725704 -0.032606855
0.12333099 -0.0084406631 -0.039489254
0.13200405 -0.0040680822 -0.036134072
0.17177856 -0.0087313643 -0.037210625
0.18278335 -0.0077237277 -0.034977149
0.074683547 0.0013361042 -0.030139249
-0.30619374 0.10205303 -0.034115247
-0.2820605 0.10164421 -0.036356375
-0.02948747 -0.11826004 -0.028771143
0.021232411 -0.11033075 -0.027522087
0.031310663 -0.11254351 -0.02172002
0.044589557 -0.11794992 -0.020992747
0.10321824 -0.1146563 -0.02338247
0.12905961 -0.11233924 -0.025730826
0.13598311 -0.11475854 -0.02771445
-0.055832699 -0.10546445 -0.023731358
-0.017210167 -0.10671701 -0.028607665
0.010242235 -0.10834903 -0.029579315
0.078355506 -0.10418336 -0.02227943
0.08320187 -0.10558105 -0.027166039
-0.13009351 -0.084827185 -0.024076413
0.10104009 -0.084127471 -0.029462479
0.13229407 -0.088211149 -0.021601781
0.16621992 -0.081686817 -0.027501985
0.22210109 -0.080200762 -0.021381715
-0.16868463 -0.072604172 -0.02326085
-0.13852267 -0.078039356 -0.027859591
0.17462212 -0.079523519 -0.023511086
0.28686455 -0.072480753 -0.022587702
-0.17944333 -0.064976089 -0.025939263
-0.16099221 -0.069136985 -0.028111147
-0.20010597 -0.053918965 -0.026183318
-0.18717755 -0.051178284 -0.028764088
0.022528114 -0.051777791 -0.028360123
0.29875773 -0.055778231 -0.02178219
-0.22395362 -0.047501933 -0.023147799
-0.2167519 -0.046851113 -0.020857383
-0.19815108 -0.042253848 -0.027525287
0.019581309 -0.04823678 -0.02522603
0.18352833 -0.049093612 -0.029565094
0.28119519 -0.042912245 -0.022604082
-0.22071971 -0.031898249 -0.021756792
-0.013537349 -0.038212653 -0.029830297
0.26644117 -0.03900402 -0.026924048
-0.16592123 -0.021285687 -0.02563097
-0.15217429 -0.021661855 -0.028759591
0.17590064 -0.025891911 -0.021257581
0.24735817 -0.024811439 -0.023854949
0.17410652 -0.012659614 -0.021409618
-0.099456809 -0.0048847115 -0.024421867
-0.027736474 -0.0099641616 -0.024331113
-0.05209846 0.0043629236 -0.021783181
-0.045185558 0.0045015044 -0.022944197
-0.039996609 0.00506842 -0.022698225
0.044777609 0.0049728407 -0.025399517
0.060125232 0.0023502717 -0.028817493
0.18920083 0.0014338326 -0.022775428
-0.30160213 0.10292183 -0.020857789
-0.28078344 0.10452705 -0.025832213
0.025005989 -0.11431485 -0.016850736
0.04647322 -0.11510724 -0.010374444
0.071771592 -0.113057 -0.016756799
0.11633296 -0.113057 -0.016389014
0.13479045 -0.11576499 -0.011985699
0.14290494 -0.1155875 -0.011434049
-0.072576851 -0.10656915 -0.017340895
-0.061197236 -0.10901246 -0.014745367
0.065237798 -0.10431895 -0.017484285
0.067143083 -0.091055661 -0.015008844
0.075589359 -0.091061264 -0.014993412
0.10779738 -0.091655359 -0.013357772
-0.16633025 -0.081208959 -0.011404986
-0.14185135 -0.086425893 -0.016361047
0.10807364 -0.089544788 -0.019168509
0.17163332 -0.087231062 -0.011564836
0.19555955 -0.084110662 -0.012346165
0.21892628 -0.083602227 -0.01298322
-0.19570707 -0.070687681 -0.014862131
-0.15632145 -0.079540603 -0.019926423
0.32285979 -0.07068602 -0.01256164
-0.2278444 -0.062347241 -0.012163937
-0.22973892 -0.055043593 -0.018634794
-0.21563742 -0.059950709 -0.011807556
-0.01112775 -0.058555402 -0.018450566
0.18730569 -0.05639511 -0.014084009
0.20570855 -0.058555402 -0.017288268
-0.013169439 -0.04623317 -0.016233593
0.18382502 -0.049996048 -0.014701247
0.20138684 -0.048533801 -0.012839102
0.29754597 -0.044606995 -0.013747185
-0.21209519 -0.030439179 -0.01195625
-0.20540071 -0.033927903 -0.014715256
0.1783734 -0.033413582 -0.019483835
-0.20857497 -0.025532771 -0.012017384
0.17617515 -0.026727246 -0.010817285
0.1872128 -0.024257928 -0.016251959
0.26989201 -0.029974949 -0.012683822
-0.2072598 -0.018843254 -0.012771921
-0.19030085 -0.018984638 -0.017810741
-0.18667662 -0.017818043 -0.017296676
-0.16263923 -0.010057156 -0.011692707
-0.16100818 -0.0095228488 -0.011138694
0.21911436 -0.0030735196 -0.010043667
-0.084235944 0.0039868737 -0.013162107
-0.022936914 0.0082846824 -0.018180314
-0.0011428045 0.0082414905 -0.01828466
0.071818501 0.0086514568 -0.017294656
0.10617764 0.0076063219 -0.019817626
0.13189869 0.0092404224 -0.015873192
0.08914113 0.010714598 -0.011536608
-0.30817389 0.10633748 -0.016371053
-0.27839485 0.1023511 -0.016882621
-0.033140499 -0.11771512 -0.0095727481
-0.0052019022 -0.11557285 -0.002948903
0.023611033 -0.11769303 -0.0087949261
0.05057789 -0.11565381 -0.0065319571
0.064184532 -0.11576501 -0.0036585249
0.10064054 -0.113057 -0.0072450824
-0.081048958 -0.10738724 -0.0059616007
-0.078334689 -0.10886642 -0.0010386775
-0.12902942 -0.093975872 -0.0029934184
0.074507818 -0.093464732 -0.0039172885
0.13807973 -0.092915118 -0.0018980795
-0.17651904 -0.080001205 -0.0050683757
-0.14776064 -0.088474572 -0.0037113107
0.18922971 -0.089936994 -0.00079743227
0.19027966 -0.087187663 -0.0043530306
0.23390332 -0.08520858 -0.0040291999
0.27945378 -0.084149018 -0.0012223028
-0.17918035 -0.079285927 -0.0046891584
-0.21341406 -0.063037843 -0.0035005535
-0.22583789 -0.053076942 -0.005757066
-0.21073736 -0.050687607 -0.0095531335
-0.2058593 -0.057719477 -0.0039052409
-0.0038780854 -0.050712891 -0.0041209799
0.19729552 -0.05652621 -0.0041209799
0.32161027 -0.055466905 -0.00911141
-0.22370429 -0.046263449 -0.0083679426
-0.015126373 -0.041910853 -0.0041209799
0.29884911 -0.041728079 -0.0062366677
-0.22587228 -0.032106362 -0.0019940217
-0.21073279 -0.029854786 -0.0025446306
0.17722592 -0.023946812 -0.0041209799
0.18145609 -0.029104546 -0.0041209799
-0.22360709 -0.014780665 -0.0024880164
-0.21819074 -0.018408485 -0.0050081192
-0.18540791 -0.012245515 -0.0047499808
-0.23214498 -0.0093170842 -0.00082832813
-0.22879726 -0.0065745446 -0.0018222479
-0.16104373 -0.00056990213 -0.0055731055
-0.087449148 -0.0011469726 -0.0054957704
-0.2118386 0.00014969741 -0.0043028719
-0.18868518 0.0087382393 -0.005603747
-0.16989622 0.0043045809 -0.0056704846
-0.15883595 0.0060432265 -0.0056530125
-0.065440893 0.0082207071 -0.0054223598
-0.059144206 0.0099874493 -0.0045843157
-0.21623448 0.019028202 -0.0046295272
-0.20307523 0.015034627 -0.0052660648
-0.1777965 0.015102724 -0.0055258148
-0.14365862 0.010361155 -0.0056038164
-0.11836541 0.013175153 -0.0053182631
-0.0500964 0.013293626 -0.0029569787
-0.036096837 0.010372191 -0.0069521712
-0.020431448 0.011419371 -0.0061834431
0.0028819423 0.011836826 -0.0030119324
0.014102847 0.011843047 -0.0029644747
0.033635084 0.01151897 -0.0054263696
0.059886552 0.011992732 -0.0018271469
0.073463894 0.011069825 -0.0088384543
0.10296583 0.011747546 -0.0036896951
0.12732387 0.011833212 -0.0030389368
-0.2360265 0.022445964 -0.0033079179
-0.19214974 0.028034193 -0.0049014585
-0.16803564 0.024774831 -0.0039705257
-0.23501767 0.039467543 -0.0041347626
-0.21215676 0.043799788 -0.0047665685
-0.19572961 0.043556467 -0.0043479996
-0.18562582 0.043578815 -0.0030697011
-0.24057825 0.055078782 -0.0043495968
-0.27043658 0.063616052 -0.0022738366
-0.25104377 0.062050916 -0.0039293198
-0.20645994 0.066450089 -0.0015815692
-0.28318059 0.076603107 -0.0016306895
-0.23532042 0.073043436 -0.0041523771
-0.28798771 0.095862746 -0.002784105
-0.25262642 0.099758334 -0.0034906778
-0.30369294 0.10541295 -0.00052738492
-0.29603887 0.10410974 -0.003887923
-0.26509905 0.10426965 -0.0064896564
-0.066679716 -0.1108686 0.0023125387
-0.054237362 -0.1113577 0.0085806018
-0.028802838 -0.11531976 0.00019400494
-0.011400428 -0.11765435 0.0074320729
0.0083383694 -0.11539204 0.0053409617
0.018672932 -0.11496267 0.0093798768
0.14223473 -0.11549441 0.0043697804
-0.095815852 -0.1034038 0.004029044
-0.12736356 -0.093732908 0.0081176404
0.18412438 -0.090195194 0.0012259857
-0.15884033 -0.084640414 0.0084395921
0.17645931 -0.089844674 0.0070130797
0.23093432 -0.084592909 0.0089650098
0.24431035 -0.084696449 0.0083718104
-0.17998244 -0.078751281 0.0069989227
0.31856632 -0.076378047 0.0086548775
0.3213008 -0.078022949 0.0036534108
-0.22696757 -0.065371454 0.0051497272
-0.21793693 -0.068490662 0.0020450389
-0.22533867 -0.053988144 0.0030342741
-0.21751633 -0.055253923 0.0081956312
-0.20354216 -0.056742977 0.0064893137
0.012976844 -0.055893209 0.0040715099
0.021334792 -0.056504384 0.0092953919
0.18947181 -0.057736926 0.005597481
-0.24141864 -0.045686018 0.0030754886
0.10136414 -0.046714354 0.0088078966
0.12016264 -0.045658667 0.0059612868
0.13138963 -0.043059777 0.0058683995
0.19873017 -0.048927389 0.0091251619
-0.24022195 -0.038393348 0.0083077457
-0.23880684 -0.032761745 0.00066796294
0.12139475 -0.036751855 0.0053093596
0.28507009 -0.034752913 0.004954766
-0.20527077 -0.026288256 0.0032214804
-0.026606675 -0.024149893 0.0040715099
-0.018793922 -0.027187461 0.0040715099
0.26111034 -0.024727656 0.0097190598
-0.18146616 -0.015802143 0.0052303495
-0.12372579 -0.011775389 0.0052732886
0.23360673 -0.010525263 0.0091186352
0.24659565 -0.016801305 0.0049880198
-0.20632049 -0.0063264086 0.0047205323
-0.18354858 -0.00091182138 0.0055845813
0.22076327 -0.0038884878 0.0096809613
-0.24092878 0.0056223287 0.00057981006
-0.22554138 0.00075151265 0.0026683579
-0.19109005 0.0084090773 0.0056069079
-0.17420994 0.00068831211 0.0056145219
-0.14001009 0.0032385318 0.0056458879
-0.047462329 0.0093265092 0.0075416621
-0.01345849 0.0098109962 0.0015725371
0.18359813 0.007622174 0.0043710312
-0.22223437 0.017777773 0.0042007943
-0.15800986 0.010989237 0.0055888444
-0.14284818 0.016432287 0.0050361147
-0.11211409 0.017636579 0.0022628333
-0.066550978 0.015187571 0.001445033
0.064122304 0.010933924 0.0098700803
0.072571844 0.011333098 0.006837884
0.10955996 0.011068156 0.0088504329
-0.24231265 0.022380123 0.0022448555
-0.21544209 0.02703966 0.0049434467
-0.17788368 0.02472057 0.0047222963
-0.25272346 0.03303314 0.0017238278
-0.21263058 0.038954545 0.0049808114
-0.18196067 0.036244556 0.0037160902
-0.21474893 0.045888454 0.0047471742
-0.21035412 0.053838614 0.0043011592
-0.23236394 0.062554821 0.004512208
-0.26287064 0.08499223 0.0040083388
-0.25157127 0.080890536 0.0042056222
-0.2324211 0.091033585 0.0021094494
-0.30444327 0.10282736 0.0010822957
-0.29403526 0.10464677 0.0016592875
-0.26996666 0.10932427 0.0024541877
-0.30305326 0.11399744 0.0024626106
-0.27600336 0.1180096 0.0018723492
-0.030691426 -0.11270316 0.014409743
-0.02349294 -0.11160305 0.018835653
0.0077934843 -0.11799911 0.019577868
0.036449157 -0.1147048 0.014640987
0.059078209 -0.11171617 0.010036711
0.065237798 -0.11000299 0.019873997
0.074175693 -0.11507863 0.018127583
0.095015414 -0.11457405 0.016503634
-0.069772638 -0.1035181 0.01821363
0.065237798 -0.10625681 0.019336103
-0.11347878 -0.095261887 0.015513731
0.079687133 -0.090362988 0.016915474
-0.13974151 -0.088607535 0.012699837
0.14864728 -0.089875691 0.014693457
0.15775628 -0.083374113 0.019186929
0.18322293 -0.086471729 0.017017411
0.19037402 -0.088455342 0.010585886
-0.17775868 -0.074065596 0.01800824
0.32088909 -0.074533597 0.010409003
-0.21009719 -0.055211402 0.016249385
-0.20498309 -0.050832171 0.011363462
0.10024026 -0.058555402 0.014681173
0.11248002 -0.058555402 0.014504509
0.18590924 -0.054976042 0.018682409
0.19696908 -0.050180178 0.01912581
0.20435303 -0.058555402 0.014101171
0.22288576 -0.058021404 0.01322131
0.31170043 -0.058678616 0.016994324
-0.2324554 -0.043332808 0.010538261
-0.21444875 -0.046109676 0.01369475
0.20888983 -0.048094224 0.015191682
-0.20705411 -0.033331413 0.016441107
-0.2311624 -0.02495621 0.014246689
-0.22638977 -0.025529604 0.014325345
-0.21216223 -0.026159076 0.019816976
-0.20169207 -0.022480953 0.019157898
-0.030052003 -0.022052435 0.019790331
-0.029418336 -0.023979686 0.019891195
0.13753444 -0.02437032 0.013002549
-0.15536976 -0.011612202 0.01790162
0.13941541 -0.013316814 0.013601895
0.23778486 -0.013825129 0.012808941
-0.14617015 -0.0083748028 0.015061706
-0.12779567 -0.0035470552 0.011696956
-0.095287956 0.00098206918 0.01542969
-0.048941068 0.0077060973 0.014395134
0.094565831 0.0099860756 0.014072647
0.14297064 0.0095170327 0.015204944
0.15005505 0.0091099553 0.015235839
0.18784221 0.0061259381 0.011494136
0.20087686 0.0022002708 0.015115188
0.0060681375 0.01005346 0.013909976
0.081886567 0.010821723 0.010722383
0.14300911 0.01072765 0.011436974
-0.30834782 0.10633476 0.01620505
-0.28452903 0.10241514 0.013021908
-0.015401647 -0.11824045 0.028080471
-0.0059959623 -0.1181321 0.024263596
0.0073206951 -0.11818485 0.026121937
0.019934127 -0.11807552 0.022269979
0.025381379 -0.11821074 0.027033774
0.031237083 -0.11824735 0.028323349
0.074751928 -0.11181157 0.02433072
0.084669933 -0.11374474 0.023838256
0.10670181 -0.11410941 0.025698382
0.12672582 -0.11550313 0.023548625
-0.050011031 -0.10359221 0.027546987
-0.045615222 -0.10233977 0.029906161
-0.001314159 -0.10742857 0.029474199
0.087557971 -0.10046169 0.0236951
-0.091625161 -0.094095416 0.028228763
-0.14266524 -0.080834918 0.023962054
-0.12510736 -0.088905625 0.020940121
0.075887054 -0.086845882 0.024668055
0.098623022 -0.088914186 0.020904265
0.14263295 -0.085996427 0.024771338
0.15605757 -0.083857752 0.022591032
0.18343818 -0.08361809 0.025778532
0.2037217 -0.076489046 0.026949825
0.23344353 -0.079169303 0.022242367
0.24131478 -0.078171328 0.023244428
-0.16021518 -0.067761675 0.029102961
0.29081845 -0.067819118 0.024033703
-0.21350786 -0.059197836 0.020468619
-0.19763462 -0.052374758 0.026880506
-0.1832685 -0.059955124 0.027314648
0.022185702 -0.054765165 0.023418088
0.18392582 -0.050302669 0.029779417
0.1922401 -0.050081275 0.021114269
0.29332882 -0.051767163 0.022516724
-0.22236243 -0.047632039 0.023392525
-0.19836667 -0.04585287 0.027493224
0.20719537 -0.047779609 0.025732521
0.27737018 -0.043471739 0.025051191
-0.20743801 -0.034118704 0.024942163
0.1897843 -0.032637708 0.029450474
0.26035616 -0.036466919 0.027924316
-0.2141913 -0.029905671 0.022044865
-0.19750886 -0.025863862 0.022617716
-0.17228445 -0.028884947 0.028771758
0.13823093 -0.022251923 0.021847118
-0.14021775 -0.017640863 0.02814427
-0.13662474 -0.016747613 0.028201185
-0.030949213 -0.01304326 0.023028778
-0.13089176 -0.0084986947 0.020640792
-0.092816114 -0.00089613046 0.021079166
0.18266985 -0.0012452545 0.027766233
0.1969932 -0.00044849637 0.023965025
0.20021081 -0.00064730877 0.022560531
0.01570208 0.0030418986 0.027915701
0.066881925 0.0042160004 0.026385503
0.074630618 0.0072827348 0.020598663
0.11217932 0.0039247111 0.02676514
0.12939633 0.0033744262 0.02748232
0.16389358 0.00029713253 0.029377582
0.17481284 0.0024072884 0.024521459
-0.28376094 0.10716217 0.027167572
-0.023014164 -0.11499222 0.037179459
0.011640206 -0.11814409 0.032780789
0.022803634 -0.11831512 0.030711193
0.057917915 -0.11278735 0.0310646
0.067742676 -0.11069456 0.033012539
0.098589405 -0.11006903 0.037309732
0.13861471 -0.11402576 0.031478167
-0.019022673 -0.10373881 0.032284245
0.0023984194 -0.1030172 0.035533164
-0.064304769 -0.091902778 0.037258267
-0.004844354 -0.098166972 0.038692571
0.065695927 -0.091026351 0.032214757
0.09031865 -0.098299578 0.033199012
0.11078452 -0.096198373 0.032914665
0.12019356 -0.093804434 0.032590702
0.15040724 -0.096183777 0.03749042
-0.058197558 -0.088297829 0.039370701
0.095171303 -0.089425907 0.031998176
0.156638 -0.080959655 0.034891892
0.17114632 -0.080415547 0.037049849
0.18541962 -0.081147134 0.034620032
-0.051770952 -0.074267969 0.035197798
0.011455496 -0.079338185 0.03592344
0.033088583 -0.079460181 0.038677782
0.14536354 -0.077966422 0.034493282
0.16994962 -0.079909436 0.03291668
0.17420572 -0.076641515 0.036698442
0.18765172 -0.078289151 0.036237702
-0.12266263 -0.066429459 0.037538018
-0.042180337 -0.068544313 0.036237627
0.0055260435 -0.060935773 0.035510302
0.060956359 -0.062076893 0.039375629
0.1741292 -0.066638961 0.037596337
0.2087217 -0.066443294 0.03668116
0.21485288 -0.065227158 0.037436027
-0.13245422 -0.055277698 0.037264902
-0.0088884169 -0.058555402 0.0328518
0.085773379 -0.053650822 0.030355601
0.10199714 -0.052545536 0.034968
0.11783484 -0.058555398 0.030520655
0.22219369 -0.055884019 0.032889873
0.26735413 -0.056487795 0.032224845
-0.17156623 -0.047609631 0.031466454
-0.1546097 -0.042384408 0.033980299
-0.14282769 -0.049299441 0.035727009
-0.014044775 -0.040280722 0.03482911
0.12521181 -0.045565367 0.034967996
0.19909742 -0.048371341 0.033316087
0.24779576 -0.045779623 0.036565166
-0.15757959 -0.039894585 0.033491757
-0.14554544 -0.037200373 0.03496521
-0.025617363 -0.035539925 0.032891139
0.13509382 -0.031793628 0.033649549
0.17919454 -0.035911392 0.034070529
0.23356476 -0.033202164 0.036963489
-0.12777326 -0.023858903 0.03428391
-0.094764121 -0.02402184 0.039983101
-0.10893429 -0.015317753 0.032824736
-0.024440367 -0.011215011 0.033580385
0.12743936 -0.016292455 0.033721935
0.18397886 -0.012916964 0.038803492
0.21731004 -0.014864097 0.032011256
-0.061067566 -0.0084389839 0.036070637
-0.059858557 -0.0031778039 0.031461034
-0.0044151065 -0.0041132588 0.0361683
0.0054600555 -0.0021504746 0.034662247
0.14606509 -0.0027365841 0.034959916
0.16130987 -0.0029534507 0.034112338
0.19654824 -0.0079028681 0.033288103
0.20211619 -0.0069439588 0.030042592
-0.30312321 0.10201098 0.032081816
-0.29077324 0.1010789 0.037168175
-0.28215766 0.10164869 0.038993612
0.020626774 -0.11208323 0.040055435
-0.015240621 -0.10454073 0.047512293
0.010581209 -0.10720839 0.044874918
0.029264156 -0.10662664 0.045450054
0.054753158 -0.10067512 0.042585857
0.075022995 -0.10407108 0.040361695
0.096710801 -0.10326348 0.042727254
0.12068877 -0.10294506 0.044895079
-0.056271937 -0.090807937 0.04044798
0.025340764 -0.094037488 0.044136476
0.045327853 -0.097896516 0.04793578
0.063634075 -0.098227046 0.04046268
0.073853493 -0.094395183 0.046279494
0.086283296 -0.094416507 0.047447309
0.11736728 -0.092900231 0.047615409
0.16677938 -0.090338685 0.043241769
-0.055658437 -0.088898517 0.040789343
-0.044249892 -0.083934963 0.043722525
-0.018990953 -0.08216323 0.046532299
0.023799397 -0.085977681 0.046865463
0.033019468 -0.08518932 0.04743398
0.042605802 -0.089504637 0.046996467
0.054479834 -0.081665941 0.04748014
0.062166765 -0.083608657 0.044176295
-0.063559406 -0.070142478 0.045879394
-0.052690145 -0.070404418 0.044661976
-0.02585748 -0.076277718 0.048195906
-0.012366286 -0.077363998 0.046922944
-0.0064321421 -0.077469535 0.049035095
0.057217345 -0.07798849 0.047806218
0.0661918 -0.07521686 0.047842272
0.077374183 -0.079598777 0.047668487
0.09213911 -0.072916351 0.047671504
-0.094866559 -0.063727565 0.042451493
-0.070544437 -0.066116825 0.045904621
-0.059599441 -0.06022165 0.046871398
-0.025005504 -0.063413277 0.044348538
-0.015055694 -0.062145695 0.048978001
0.054038778 -0.061511081 0.045510862
0.097006977 -0.068847455 0.047671504
0.16981131 -0.061646082 0.041513972
-0.086515434 -0.054969151 0.044075437
-0.079092726 -0.058975894 0.045175865
-0.012829835 -0.051681764 0.048978001
0.017755436 -0.059638076 0.048144586
0.028169263 -0.059689831 0.0480735
0.035386026 -0.059758943 0.04634843
0.069489598 -0.057135515 0.048020314
0.12502536 -0.058172759 0.047644548
0.1648549 -0.05210077 0.045701526
0.17750978 -0.058752038 0.042379063
0.23059866 -0.050729584 0.040429737
-0.096317351 -0.040516514 0.042622276
-0.072169587 -0.049997196 0.04610626
-0.047357455 -0.045312844 0.047616631
-0.025200415 -0.043863282 0.048965272
0.09560895 -0.040409721 0.048978001
0.11194452 -0.046294555 0.048407905
-0.10262309 -0.039234359 0.041687436
-0.038742982 -0.032004505 0.047472887
0.016137496 -0.034598373 0.048695613
0.042471446 -0.031384591 0.048272476
0.052741129 -0.039746135 0.048978001
0.11498748 -0.036456909 0.048940241
-0.054447241 -0.025798347 0.045649778
-0.030531902 -0.024366841 0.046993513
-0.0066666119 -0.020005688 0.045626387
0.0063964617 -0.023572061 0.047103625
0.019303704 -0.027103085 0.047708899
0.10440685 -0.028601062 0.047906034
0.11344545 -0.021305405 0.046164818
0.15586135 -0.02364826 0.04660397
0.19094542 -0.029173587 0.045150887
-0.016597241 -0.015472284 0.043748621
0.015365737 -0.014102172 0.042992353
0.12424335 -0.01450999 0.043350011
0.13962632 -0.016296372 0.044089943
0.18774644 -0.01588805 0.040514097
0.065469302 -0.0095543126 0.04034321
-0.32164302 0.10325013 0.045571275
-0.01782673 -0.076336615 0.056665897
0.039759144 -0.077004611 0.058716759
0.072855078 -0.071878515 0.052339442
-0.0046314271 -0.060608309 0.057495125
0.0010939687 -0.060196161 0.05562409
0.0073148413 -0.059392709 0.059861526
-0.31278175 0.10390234 0.056562375
-0.053590477 -0.072341554 0.062450986
-0.010438928 -0.075878516 0.066700906
-0.0021049334 -0.076139838 0.068246499
0.0047920765 -0.076480314 0.067965522
0.06439016 -0.071943134 0.064200737
-0.048436165 -0.06765084 0.062181946
0.057936128 -0.064759053 0.065971322
-0.053865772 -0.071659088 0.072742984
-0.03453394 -0.073490731 0.077195168
-0.035401046 -0.063474201 0.07129176
-0.014379804 -0.060259886 0.079196386
0.044530854 -0.061999425 0.076245159
-0.002246649 -0.059251733 0.077607125
0.0092727803 -0.059099734 0.073214941
-0.31811166 0.099377744 0.074658051
-0.051130328 -0.071271032 0.083584405
0.034900207 -0.074333347 0.083157085
0.048482154 -0.070479095 0.08872553
0.0044110906 -0.058895022 0.082349554
0.020148745 -0.059114609 0.087692387
-0.0060668648 -0.07365156 0.097211383
0.026413595 -0.073537104 0.093200728
-0.053183414 -0.065806016 0.094077572
0.036574598 -0.062034477 0.09327437
0.042303585 -0.068769574 0.099859469
-0.30920443 0.098259911 0.091314062
-0.043944754 -0.070753627 0.10414075
-0.058037542 -0.066048905 0.10441657
0.034206286 -0.063427232 0.10602562
0.016837064 -0.059433531 0.10967177
0.018270513 -0.07071884 0.1185869
-0.061233219 -0.06797751 0.11805772
-0.051013865 -0.063704014 0.11031177
0.03125637 -0.064456284 0.11331007
-0.025793249 -0.059313789 0.11409079
-0.017678412 -0.058523413 0.11407302
-0.00047211489 -0.058278769 0.11222257
-0.025121411 -0.058563687 0.12130302
-0.011952341 -0.05751548 0.1239861
-0.0030276927 -0.057769969 0.12150696
0.0014386318 -0.057523116 0.12726091
-0.06623067 -0.065018266 0.13405448
-0.013974607 -0.069753937 0.13352183
-0.021364506 -0.057131276 0.13042659
-0.071617931 -0.064095706 0.14851843
0.020061774 -0.064676642 0.14004119
-0.041358203 -0.057298914 0.14428796
-0.034108046 -0.056528807 0.14519982
-0.020846698 -0.056076825 0.14037815
-0.010338744 -0.055455275 0.1482812
-0.073066004 -0.063322946 0.15533675
-0.023970846 -0.067012064 0.15539658
-0.050673354 -0.056314044 0.1596451
-0.032585636 -0.054847162 0.15811586
-0.022121169 -0.066328123 0.16085312
-0.044299822 -0.054706048 0.16824083
-0.0069955448 -0.054986715 0.16534764
-0.065339811 -0.062191892 0.17731079
-0.034224946 -0.065044641 0.1701501
-0.019458896 -0.064937703 0.17108002
-0.048083205 -0.053793937 0.17876539
0.00064937957 -0.059719067 0.17944406
-0.023568211 -0.063415229 0.18305476
-0.015132136 -0.06336204 0.18130395
-0.037360419 -0.062004611 0.19534627
-0.028501892 -0.061990127 0.19453838
-0.082745686 -0.058412861 0.19807649
-0.016032467 -0.053015955 0.19820148
-0.0046693292 -0.059143394 0.19091511
-0.046145845 -0.061212141 0.20037438
-0.023897395 -0.060455471 0.20439753
-0.018000506 -0.060464129 0.20136586
-0.081138402 -0.057922162 0.20548438
-0.047446795 -0.050563738 0.20532209
-0.023775635 -0.051512774 0.20384854
-0.015659697 -0.053692129 0.20733295
-0.083842434 -0.05513465 0.21550477
-0.076863304 -0.055576716 0.21238519
-0.087214231 -0.054238155 0.23899758
-0.060786963 -0.047886588 0.23791964
-0.059545655 -0.047642983 0.23901138
-0.073982112 -0.047764275 0.24901795
-0.052527845 -0.047374666 0.24079657
-0.039481983 -0.048735127 0.25780901
-0.095748603 -0.050098833 0.26419324
-0.057185337 -0.053366899 0.26373023
-0.080434449 -0.046826884 0.26179197
-0.088445663 -0.050595254 0.27795762
-0.084688731 -0.050036464 0.2868965
-0.09159556 -0.049234241 0.28923616
-0.082593404 -0.044438221 0.28343767
-0.079948902 -0.04991731 0.29001576
-0.075783752 -0.048862316 0.30019605
-0.087047994 -0.041654166 0.31014615
-0.079355054 -0.040633619 0.31845376
-0.06813281 -0.04641391 0.31501549
-0.084291555 -0.045952983 0.32340682
-0.11205024 -0.034615319 0.33883515
-0.098563634 -0.038996853 0.33190113
-0.082912825 -0.038670238 0.33592215
-0.10273638 -0.029406797 0.34105223
