# .PCD v0.7 - Point Cloud Data file format
VERSION 0.7
FIELDS x y z
SIZE 4 4 4
TYPE F F F
COUNT 1 1 1
WIDTH 830
HEIGHT 1
VIEWPOINT 0 0 0 1 0 0 0
POINTS 830
DATA ascii
-0.18532306 -0.052422334 -0.29176456
-0.17449935 -0.052442811 -0.29243493
-0.15993726 -0.050384026 -0.2921727
-0.17500757 -0.052586146 -0.2855134
-0.1684224 -0.05249279 -0.28042823
-0.15527174 -0.053468078 -0.2838901
-0.17563643 -0.054376058 -0.27146298
-0.16977136 -0.053596005 -0.27039912
-0.15052105 -0.054083094 -0.27482063
-0.14310913 -0.050966743 -0.27288398
-0.13374567 -0.051025927 -0.2793408
-0.16378176 -0.054167382 -0.26603147
-0.1534968 -0.052882861 -0.26683053
-0.1342455 -0.054519393 -0.26556724
-0.11726418 -0.056011468 -0.24071482
-0.10846777 -0.05273895 -0.24304017
-0.14629504 -0.056699976 -0.23954725
-0.10574127 -0.050691985 -0.23341575
-0.15849383 -0.058042645 -0.22857222
-0.14461742 -0.055496152 -0.22369067
-0.1265513 -0.052599009 -0.22492535
-0.11521646 -0.054363076 -0.22779055
-0.13590413 -0.057938781 -0.21954215
-0.086520255 -0.051602684 -0.21180838
-0.12369512 -0.058708645 -0.20432959
-0.11724254 -0.053195495 -0.20574406
-0.085349485 -0.057499316 -0.20479901
-0.095195815 -0.051959034 -0.19533034
-0.10112705 -0.053463221 -0.18370719
-0.090448834 -0.059432141 -0.1872426
-0.08009544 -0.059286319 -0.18241516
-0.07179863 -0.057620935 -0.18804458
-0.10449807 -0.06012097 -0.17675483
-0.083678059 -0.052220102 -0.17459975
-0.072207168 -0.050959896 -0.17438379
-0.10640925 -0.061671972 -0.16324481
-0.097998403 -0.06100788 -0.16462031
-0.092095792 -0.053671766 -0.16913325
-0.053180624 -0.051169623 -0.161292
-0.08217378 -0.053397901 -0.15753567
-0.062063228 -0.051545203 -0.15031752
-0.055059195 -0.050653886 -0.15742812
-0.11980336 -0.061114047 -0.14620039
-0.091659352 -0.062026531 -0.14290483
-0.085174538 -0.061663773 -0.14851341
-0.068470217 -0.061491601 -0.14990054
-0.10457049 -0.059201617 -0.14276807
-0.062528171 -0.051642016 -0.14980678
-0.054798815 -0.051010374 -0.14827269
-0.034354109 -0.053257987 -0.1407454
-0.078026146 -0.062405091 -0.13115764
-0.060218789 -0.062280845 -0.13209486
-0.10366957 -0.059784807 -0.13696168
-0.091531053 -0.057625458 -0.13136795
-0.051666461 -0.051853105 -0.1307143
-0.11282709 -0.062355958 -0.12730837
-0.080646023 -0.062553629 -0.12722386
-0.079830825 -0.062718414 -0.12238868
-0.028707959 -0.060727708 -0.12483341
-0.075165525 -0.055575915 -0.12040327
-0.063120157 -0.053396881 -0.12906776
-0.041756399 -0.051328395 -0.12201721
-0.10369673 -0.062998295 -0.11218202
-0.098344341 -0.060862884 -0.11506368
-0.086874112 -0.063069731 -0.11152576
-0.072643735 -0.055349477 -0.11934974
-0.10608444 -0.063041836 -0.10927562
-0.011120036 -0.06097516 -0.10139081
-0.061625388 -0.054336213 -0.10468203
-0.052739464 -0.053199839 -0.1064548
-0.10793546 -0.063165374 -0.098805137
-0.09781681 -0.062728278 -0.095857598
-0.078040361 -0.063391462 -0.09780357
-0.065759465 -0.064629294 -0.094239011
-0.028212104 -0.062997244 -0.099903524
-0.046318997 -0.052659892 -0.095592439
-0.034918759 -0.05128717 -0.092261359
-0.029593332 -0.050453335 -0.098142996
-0.38060269 0.082263574 -0.090923794
-0.35593629 0.082368501 -0.09611541
-0.094928376 -0.062339932 -0.087431625
-0.070075199 -0.063811854 -0.080547899
-0.017167119 -0.063344494 -0.083610885
0.0016196219 -0.060810681 -0.085586809
-0.074149959 -0.05746948 -0.080668218
-0.045837406 -0.052820288 -0.086100094
-0.012625223 -0.048903327 -0.08799012
-0.37134841 0.078649014 -0.089016668
-0.35401821 0.078604653 -0.084812909
-0.38067991 0.080249876 -0.087599501
-0.37706435 0.082793459 -0.087528214
-0.36143011 0.083514705 -0.087944955
-0.34738421 0.081050754 -0.089691088
-0.088868827 -0.064032435 -0.074526824
-0.063776359 -0.063988842 -0.072727725
-0.021425765 -0.063654758 -0.079890959
-0.01987407 -0.063697457 -0.077888168
-0.082591482 -0.05935574 -0.07920339
-0.067586802 -0.056696713 -0.071172439
-0.033295754 -0.051504165 -0.073463313
-0.20029441 -0.045774389 -0.072441489
-0.1659705 -0.042739332 -0.072358295
-0.010606581 -0.048487917 -0.076661736
0.0056094797 -0.047354884 -0.07016246
-0.24218626 -0.033322006 -0.072851926
-0.23244387 -0.033949539 -0.075225726
-0.23823467 -0.025362844 -0.073905453
-0.19954556 -0.024029955 -0.076703764
-0.17972913 -0.02579177 -0.070883766
-0.16527912 -0.025166525 -0.071014926
-0.23684907 -0.017690388 -0.070162475
-0.19047199 -0.019343061 -0.074314348
-0.34160995 0.079397678 -0.075582393
-0.084295414 -0.064911574 -0.060140707
-0.055575565 -0.064259358 -0.06329973
-0.018845998 -0.064239785 -0.061924174
-0.19192152 -0.050249938 -0.067040674
-0.18743412 -0.051467713 -0.064534105
-0.04722191 -0.053495735 -0.06429635
0.024783567 -0.054751497 -0.064484984
-0.23222446 -0.047241233 -0.064842358
-0.18080141 -0.043429203 -0.066639267
-0.17330985 -0.043132555 -0.067028381
-0.011982366 -0.048807986 -0.068988062
-0.182549 -0.033009846 -0.06072139
-0.24054132 -0.020520788 -0.068372428
-0.182549 -0.025167331 -0.060866602
-0.16891727 -0.023141906 -0.069596902
-0.24132362 -0.012731082 -0.060237024
-0.23534881 -0.017266661 -0.065013617
-0.22115879 -0.013121162 -0.06709604
-0.19229329 -0.010702558 -0.06313853
-0.17581987 -0.01892738 -0.065591335
-0.16250618 -0.015058263 -0.065400839
-0.36635166 0.083257347 -0.069946885
-0.35387701 0.083880648 -0.066467419
-0.037947282 -0.083724789 -0.055000301
-0.029688135 -0.08707127 -0.056634732
-0.045207888 -0.064410858 -0.058027957
-0.024459604 -0.064377204 -0.059169497
-0.1778252 -0.052808881 -0.055979498
-0.054386385 -0.054922707 -0.056118533
-0.239023 -0.042454019 -0.050700337
-0.22807945 -0.045425922 -0.052968193
-0.182549 -0.04227221 -0.059415851
0.00028426759 -0.047493409 -0.056046434
0.023107912 -0.046162371 -0.050614595
-0.18808153 -0.017169841 -0.050377585
-0.1740583 -0.014604926 -0.054909006
-0.16391182 -0.012485368 -0.051961433
-0.36305094 0.079116732 -0.052597299
-0.34413508 0.083970375 -0.053671889
-0.33751988 0.083526053 -0.055571407
-0.039291114 -0.078598037 -0.043063741
-0.065759897 -0.064717688 -0.047513105
-0.019697979 -0.065047465 -0.041399539
-0.0055018472 -0.064720646 -0.042218875
0.017589098 -0.063428745 -0.044579554
0.0360789 -0.051751733 -0.049947158
-0.2299384 -0.042678691 -0.049817733
-0.17812373 -0.044688299 -0.048113614
-0.16432077 -0.043858536 -0.042085011
0.0090381773 -0.046607729 -0.048260868
0.014705839 -0.046182688 -0.045022599
-0.23982176 -0.037045442 -0.040589876
-0.21090239 -0.039032221 -0.044043407
-0.16649885 -0.03536512 -0.041214161
-0.20952792 -0.022483598 -0.043545689
-0.182549 -0.029679736 -0.042641927
-0.16920011 -0.027482735 -0.041313864
-0.24963365 -0.016822634 -0.047302142
-0.20164461 -0.013671736 -0.043860052
-0.17456529 -0.019205948 -0.04690557
-0.34897834 0.078198321 -0.044973418
-0.31916744 0.079373859 -0.042736609
-0.35133937 0.083663352 -0.042489801
-0.090027303 -0.063750789 -0.03386585
-0.065693229 -0.065345138 -0.033522185
-0.019197762 -0.065359667 -0.034384925
0.015315352 -0.064398333 -0.035096794
0.012107206 -0.046506334 -0.030434202
0.024797402 -0.045259625 -0.033022381
-0.24025384 -0.030293737 -0.038960967
-0.23429292 -0.026665557 -0.035202935
-0.22846103 -0.028662201 -0.037173994
-0.2051571 -0.026999909 -0.034528896
-0.36120301 0.079768628 -0.031092064
-0.3359513 0.078104272 -0.031968262
-0.31301951 0.079029024 -0.030022085
-0.32635629 0.083744854 -0.033806782
-0.026670445 -0.070160538 -0.023905523
0.021820664 -0.070548981 -0.020492917
-0.10252638 -0.065058284 -0.023321366
-0.092312731 -0.065018333 -0.028125435
-0.082976826 -0.062587023 -0.026588302
-0.078461051 -0.063025802 -0.027530957
-0.054507159 -0.062261254 -0.027545491
-0.032824025 -0.063711934 -0.027407335
-0.023593154 -0.069636829 -0.025030358
0.012872829 -0.066745721 -0.026761556
0.097759917 -0.062170222 -0.021334218
0.10102465 -0.062064469 -0.020734333
-0.24131653 -0.052362017 -0.022907769
-0.22951043 -0.055505104 -0.021874867
-0.20154515 -0.052171055 -0.025792902
-0.1680814 -0.056985319 -0.022594379
-0.050615773 -0.050234623 -0.027957585
-0.008200841 -0.057011537 -0.02747272
0.13616481 -0.054224506 -0.024492752
0.19466643 -0.056386106 -0.023055056
0.21037325 -0.053157397 -0.025202496
0.26129553 -0.057859626 -0.022075003
0.3294149 -0.052706279 -0.022942277
-0.26071611 -0.048104238 -0.020784238
-0.25144213 -0.049384996 -0.02238108
-0.24272722 -0.043455243 -0.027344292
-0.22490019 -0.043276072 -0.028500039
-0.20770499 -0.043605544 -0.028773716
-0.19717929 -0.046140514 -0.027981838
-0.18670423 -0.046442471 -0.027873319
-0.14498535 -0.043872159 -0.028793586
-0.10666578 -0.049246475 -0.027545972
-0.093791261 -0.049614966 -0.027759971
-0.050621469 -0.047011837 -0.028383544
-0.028684372 -0.045459278 -0.028588787
-0.0087464768 -0.044820227 -0.028673183
0.050210021 -0.048190445 -0.028227646
0.071538553 -0.043316193 -0.028861435
0.080273308 -0.045655802 -0.028170913
0.10409059 -0.042662017 -0.028936621
0.11476462 -0.041569196 -0.029062219
0.16761658 -0.047036394 -0.027676579
0.18694852 -0.042990558 -0.028898861
0.23126061 -0.041530892 -0.029066622
0.29846057 -0.048105732 -0.026575137
0.33125958 -0.049862478 -0.023690272
-0.26535606 -0.038440719 -0.023618698
-0.2558482 -0.033335175 -0.025838584
-0.19147778 -0.035458595 -0.02949113
-0.14776894 -0.036750838 -0.029612204
-0.097678885 -0.035585888 -0.029746519
-0.062001802 -0.035648376 -0.029742805
-0.047852181 -0.035961859 -0.029706769
-0.035246912 -0.031963333 -0.029470261
-0.018136898 -0.034082964 -0.029713906
-0.0050966847 -0.034454338 -0.029589213
6.1232597e-05 -0.036379177 -0.029658791
0.06358026 -0.030650061 -0.029319178
0.079165801 -0.032412849 -0.029521856
0.097046927 -0.031192556 -0.029381599
0.1015531 -0.030600831 -0.029313665
0.16398139 -0.037149124 -0.029570276
0.18748276 -0.037670366 -0.029510351
0.28053835 -0.030894518 -0.029281357
0.3388029 -0.036603291 -0.024136815
0.35411447 -0.037786596 -0.020417791
-0.27870217 -0.029485973 -0.02086303
-0.13083856 -0.025899507 -0.028755549
-0.035925165 -0.022364546 -0.027473528
-0.022798441 -0.020240178 -0.02671607
-0.0073852721 -0.020781549 -0.026909182
0.034907002 -0.027488559 -0.028734921
0.047083579 -0.021049075 -0.027004454
0.076092169 -0.021418475 -0.0271363
0.08720997 -0.024863215 -0.028364381
0.12663588 -0.02463923 -0.028284509
0.13494223 -0.027917702 -0.029005177
0.14320827 -0.023051675 -0.027718775
0.15918195 -0.026834134 -0.028880445
0.16482963 -0.022121822 -0.027387237
-0.24064527 -0.016445741 -0.022567915
-0.1476922 -0.011843687 -0.021934196
-0.13815337 -0.013387943 -0.022960417
0.02293342 -0.012492875 -0.022343192
0.064550564 -0.014410369 -0.023618476
0.11120353 -0.016352143 -0.024909893
0.13272908 -0.01193809 -0.0219741
0.14337157 -0.016318846 -0.024887798
0.15168968 -0.016839415 -0.025233995
0.1801872 -0.011707495 -0.021820731
0.20618771 -0.013403273 -0.022948587
0.23186049 -0.015608076 -0.024116334
0.25600022 -0.01393985 -0.023305461
0.27024001 -0.01274945 -0.02251373
0.30414572 -0.016867606 -0.023366859
0.0028676679 -0.0096542826 -0.020032234
0.10433853 -0.0097279735 -0.020115267
-0.3331238 0.078040801 -0.023190239
-0.34266877 0.083863616 -0.023644783
-0.076331563 -0.071697332 -0.011187207
-0.036798332 -0.071393654 -0.015552299
-0.2428814 -0.060874701 -0.011517745
-0.19318658 -0.066279158 -0.01184759
-0.15546957 -0.064707294 -0.015001297
0.12763041 -0.062557235 -0.017472824
0.16785049 -0.063900471 -0.015827941
0.18706357 -0.066046715 -0.012401577
0.2124268 -0.061126895 -0.019090867
0.28586924 -0.064723507 -0.014921774
0.29335803 -0.06639909 -0.011477406
0.3281714 -0.062627874 -0.014813327
0.31247571 -0.059861965 -0.019988934
0.33066043 -0.058266237 -0.019124793
0.35556838 -0.045765042 -0.019490201
-0.31812012 -0.03686963 -0.012536041
0.3649151 -0.033324443 -0.015939727
0.37401298 -0.036171071 -0.011610225
-0.26325458 -0.011229372 -0.010245594
-0.23107708 -0.017001323 -0.011117712
0.31843668 -0.01087644 -0.016991656
0.34601682 -0.013823302 -0.011862453
0.35007411 -0.019177137 -0.015774596
-0.26429456 -0.00623326 -0.010318218
-0.25325119 -0.0061230604 -0.010660216
-0.22493197 -0.0074037388 -0.014395284
-0.21102823 -0.0068375971 -0.015677348
-0.18806455 -0.0054954798 -0.015401374
-0.17827906 -0.0094176661 -0.019810904
-0.10863973 -0.0059218295 -0.015850991
-0.055239744 -0.0038838938 -0.012362584
-0.0051696594 -0.0085290289 -0.018759027
0.022100845 -0.0072672344 -0.017331757
0.1035514 -0.0049488884 -0.014576927
0.12856664 -0.0087871039 -0.019050803
0.13134605 -0.0034259253 -0.011410372
0.14793083 -0.0050474834 -0.014742109
0.15431723 -0.0044366703 -0.013511919
0.21525164 -0.0039301808 -0.012458824
-0.25339988 0.0089171426 -0.011048923
-0.28714454 0.029717129 -0.010452418
-0.28025442 0.033650484 -0.010812344
-0.2792843 0.038775887 -0.011017841
-0.2845068 0.044554576 -0.011018716
-0.27181208 0.045669664 -0.01019362
-0.29907334 0.053456217 -0.010770513
-0.32791704 0.077980645 -0.014870267
-0.31048715 0.0785136 -0.019156372
-0.30649191 0.078140087 -0.014481705
-0.36035424 0.080311365 -0.010849245
-0.32286826 0.081046954 -0.01016598
-0.30309564 0.083164297 -0.018652122
-0.29968414 0.083218187 -0.012603944
-0.12506443 -0.070149153 -0.0029922801
-0.058825865 -0.073309228 -0.0040844036
-0.015791031 -0.072820537 -0.0067637693
0.039977401 -0.072503909 -0.0084439581
0.065438829 -0.07281252 -0.0023340506
0.29300994 -0.072808415 -0.0080229538
-0.23704851 -0.064142734 -0.004422165
-0.13679248 -0.068651535 -0.0066912728
0.10791512 -0.069292299 -0.0033482381
0.12023082 -0.068642005 -0.0055300333
0.13709038 -0.06867893 -0.0050420854
0.14649069 -0.068896316 -0.0038471955
0.25231823 -0.068035215 -0.0082670702
0.2896297 -0.067451715 -0.0093395468
0.30737075 -0.06792254 -0.002089516
-0.29564434 -0.050271697 -0.0040559261
-0.3443175 -0.038741663 -0.0062409556
0.378411 -0.033857878 -0.005731307
-0.32057941 -0.023278553 -0.0086454395
-0.28001207 -0.021393882 -0.0043074968
-0.31814709 -0.019821633 -0.0032706205
-0.30330661 -0.012047523 -0.0012225946
-0.28794834 -0.019985545 -0.0044356119
-0.27492839 -0.011141255 -0.0079253148
-0.20435402 -0.013617877 -0.0085570263
-0.19527894 -0.011222754 -0.00026244848
-0.3106705 -0.0010662351 -0.0035033689
-0.29490983 -0.0042720479 -0.0047761281
-0.27402997 -0.0061880704 -0.0092963353
-0.2309207 -0.0060864929 -0.0096919602
-0.18200338 -0.003848068 -0.00077880139
-0.17835432 -0.0033968845 -0.0047760191
-0.15716007 -0.0093553839 -0.0079981349
-0.13861103 -0.00090222963 -0.0032077227
-0.12787639 -0.0010882542 -0.0044037718
-0.020218126 -0.00059109996 -0.00079025532
-0.0031576455 -0.0010247249 -0.0036597406
0.15698315 -0.0018798092 -0.0081956796
0.16359349 -0.0025035662 -0.0094925985
0.25523117 -0.0012118442 -0.0048979903
0.26805171 -0.00054566358 -0.0004895826
0.27429119 -0.0015450187 -0.0061459998
0.32681307 -0.0062177982 -0.0068240734
-0.30862838 0.008941073 -0.004385327
-0.32488376 0.015144205 -0.0019507617
-0.29849243 0.010226881 -0.0034051642
-0.23581897 0.0152609 -0.0091336025
-0.22168174 0.019102063 -0.0024791798
-0.21819367 0.012899858 -0.0050664102
-0.32566226 0.024738407 -0.0022610081
-0.30718419 0.029741187 -0.0071737459
-0.33311945 0.032758892 -0.0012238466
-0.32562086 0.037304424 -0.0046819905
-0.24533334 0.032970414 -0.0084460061
-0.23793831 0.038777612 -0.0027721589
-0.34431434 0.047196053 -0.0027603414
-0.33763686 0.046331879 -0.00074953015
-0.26566458 0.04718833 -0.0093360692
-0.32947969 0.053594068 -0.0018488105
-0.27025953 0.053898487 -0.0091456259
-0.25218919 0.052072302 -0.002250362
-0.3406364 0.068254352 -0.0014304323
-0.26463899 0.066490345 -0.0016545113
-0.38363439 0.079498962 -0.00019780398
-0.37418547 0.072875008 -0.0043608667
-0.36278403 0.077379055 -0.0068086237
-0.3354457 0.070457801 -0.0097351409
-0.29238045 0.076003939 -0.008766626
-0.28824383 0.074038923 -0.008739817
-0.36832446 0.08111845 -0.0052150064
-0.35215694 0.08848384 -0.0076195132
-0.34611967 0.083496638 -0.0083560459
-0.33640495 0.081359774 -0.0088064205
-0.34742361 0.093791343 -0.006560836
-0.33674517 0.094149202 -0.0038567514
-0.32750595 0.091338851 -0.00769888
-0.11076073 -0.071578883 0.00087562809
-0.086728014 -0.072429076 0.0050333058
-0.065934852 -0.072354928 0.0087378062
-0.056808703 -0.073090792 0.005343928
-0.036836609 -0.07224299 0.0099172862
-0.020843877 -0.07228221 0.0097077917
0.032264985 -0.073372871 0.0038392663
0.046821933 -0.072522029 0.008414072
0.084725454 -0.071455032 0.0026146891
0.30732748 -0.073974714 0.0082650203
-0.21948561 -0.066538237 0.0032211889
-0.16852736 -0.069132924 0.002100107
0.11344086 -0.068677798 0.0055635748
0.13370402 -0.068525799 0.0063613644
0.1487913 -0.067412727 0.0096297972
0.23594941 -0.069436155 0.00031063173
0.25701359 -0.069171965 0.0020665475
0.28744254 -0.068335369 0.0074386075
0.29146057 -0.069199532 0.0016791666
0.36783373 -0.060670093 0.0039928877
-0.29167256 -0.050364979 0.0077795577
-0.26378027 -0.057930999 0.0058542034
-0.33628321 -0.042206906 0.0033173994
-0.36508626 -0.035462275 0.003585858
-0.32276875 -0.02040777 0.0017126992
-0.24850863 -0.020240441 0.0056083831
-0.29654714 -0.015602296 0.00091383077
-0.25386804 -0.012053033 0.0056396243
-0.21485892 -0.014635174 0.0047438345
-0.18891907 -0.0130069 0.0034616191
0.3526755 -0.013659888 0.0036177156
-0.29493701 -0.0023096418 6.6755281e-05
-0.27129513 -0.0062900214 0.0051859943
-0.24072394 -0.0050856937 0.0062094154
-0.21557325 -0.0020528119 0.005423652
-0.19643067 -0.0006105855 0.0013729727
-0.039694913 -0.0014611039 0.0066108727
-0.021762995 -0.0015241175 0.0070297034
0.011437611 -0.00084125623 0.00249095
0.031230759 -0.001501041 0.0068763215
0.0652816 -0.0012102779 0.0049437145
0.07881251 -0.0016039608 0.0075603947
0.12360947 -0.0011005439 0.0042143492
0.13431555 -0.0011851788 0.004776889
0.15255287 -0.00054862845 0.00054594956
0.20263064 -0.00077107258 0.0020244624
0.21102324 -0.00046984258 2.228602e-05
0.22433177 -0.0015113208 0.0069446471
0.24699518 -0.00073369092 0.0017759989
0.25264788 -0.0007827073 0.0021017944
0.2662797 -0.0010876935 0.0041289371
0.27915311 -0.0017166381 0.0072987573
0.2931093 -0.0037936601 0.009939176
-0.27403048 0.0064159599 0.0053952094
-0.22368401 0.0051158587 0.0038418947
-0.20639279 0.0018405176 0.0011128057
-0.30376595 0.018568125 0.00084595889
-0.296826 0.012358012 0.001541546
-0.22379553 0.018815743 0.00015826384
-0.3090148 0.023860265 0.00050011405
-0.26388285 0.037393495 0.0050813975
-0.24691033 0.03458621 0.0035112249
-0.30667198 0.053551354 0.0056052497
-0.28861982 0.050170034 0.0061580045
-0.30316737 0.066087849 0.0061469427
-0.32615352 0.078635968 0.0049408567
-0.31657982 0.077978007 0.0097912103
-0.28133339 0.075343229 0.0019031465
-0.36444873 0.080487594 0.0021073814
-0.357081 0.08448787 0.0027191956
-0.34787536 0.083455935 0.0067145708
-0.31124553 0.08388187 0.0043948684
-0.30716237 0.082111225 0.004408346
-0.34551865 0.091998875 0.0021646477
-0.076283731 -0.07121703 0.014542989
-0.05480535 -0.071722299 0.013378813
-0.015207446 -0.072151132 0.010408012
0.026866104 -0.0711236 0.016183225
0.032823566 -0.070908755 0.017390821
0.055064656 -0.070719011 0.01761429
0.064310379 -0.070477605 0.013608944
-0.18962234 -0.061336253 0.018859342
-0.16833726 -0.06627997 0.011914358
-0.11752355 -0.067811519 0.013074616
-0.10354918 -0.069207944 0.013826866
0.13633069 -0.062566943 0.01753029
0.16155839 -0.065764941 0.013055914
0.17673673 -0.065078259 0.014483683
0.23888896 -0.06380228 0.016132863
0.33673322 -0.06198889 0.013919662
-0.27670041 -0.051967427 0.011974488
-0.24626411 -0.05512964 0.019132951
-0.23756894 -0.059642978 0.016161289
-0.28994238 -0.047984846 0.01226101
-0.26915714 -0.048313487 0.018337043
0.36002791 -0.037557289 0.018797489
-0.3075636 -0.027617846 0.01443252
0.35518155 -0.024785243 0.014772017
0.36088005 -0.026666701 0.014590013
-0.29445976 -0.019643487 0.01186524
-0.28796747 -0.01899728 0.01298387
-0.27083689 -0.019214641 0.017577555
-0.25143331 -0.010726605 0.01295329
0.3382673 -0.011047801 0.012215341
-0.23510268 -0.0067111934 0.010290371
-0.20181002 -0.0084039308 0.018642953
-0.16668023 -0.0058095385 0.015491925
-0.14062659 -0.0030056173 0.010705601
-0.12777731 -0.004212602 0.013235917
-0.099588901 -0.0076326099 0.017833639
-0.072521888 -0.0038475587 0.01235551
-0.017233547 -0.0066296272 0.016678866
0.11852944 -0.0040827109 0.012844444
0.15541546 -0.0092274556 0.019617364
0.18120714 -0.0039028735 0.012470523
0.19187075 -0.0044280165 0.013562413
0.23438251 -0.0083608078 0.018637026
0.24716441 -0.0060329391 0.016003732
0.26134309 -0.0062469561 0.016245833
0.28445154 -0.0085066855 0.018357428
-0.3464126 0.078431398 0.012066434
-0.32535928 0.078041337 0.018536841
-0.31930244 0.078030065 0.016980417
-0.30665585 0.078949675 0.014045446
-0.30176857 0.081841551 0.017161449
-0.068363972 -0.070401564 0.021020584
-0.098062135 -0.064002909 0.024659196
-0.080546409 -0.062021673 0.026058702
-0.079994507 -0.065245286 0.028269645
-0.024475401 -0.066988438 0.027949411
0.069995068 -0.060097903 0.025438318
0.22626695 -0.060198218 0.020209828
-0.23110893 -0.053721029 0.023047438
-0.1988726 -0.057371523 0.022422522
-0.17360431 -0.057634324 0.022247735
-0.15899447 -0.053992346 0.02466999
-0.13681163 -0.054962497 0.024116624
-0.11158374 -0.059944261 0.024336848
-0.096542522 -0.058028683 0.026171111
-0.012060434 -0.052069981 0.027870681
0.04865792 -0.059926663 0.02795447
0.064358935 -0.058192283 0.026592273
0.15676494 -0.059880707 0.020569
0.22508164 -0.055689156 0.023587
0.26865649 -0.050821535 0.026389906
0.27345511 -0.053136587 0.025284737
0.31814158 -0.051647101 0.024344683
-0.23808524 -0.043680489 0.02824207
-0.20906395 -0.04550394 0.028065575
-0.1607345 -0.044596221 0.028605483
-0.15518926 -0.041706711 0.029110972
-0.09454672 -0.045538936 0.028482189
-0.072562903 -0.047430821 0.028411806
-0.00089338236 -0.043456331 0.028913733
0.018564764 -0.043759283 0.028878912
0.026679851 -0.040242858 0.029283056
0.050665442 -0.047251478 0.028530173
0.11765724 -0.048104666 0.027362531
0.14976512 -0.04133489 0.029157549
0.17779127 -0.042470485 0.029027034
0.28651252 -0.045382075 0.028040502
0.33755237 -0.046561513 0.023451287
0.34405109 -0.045165762 0.02209121
-0.26259556 -0.037507504 0.024389692
-0.25945914 -0.032897525 0.025302019
-0.24671212 -0.039253995 0.027496453
-0.18271899 -0.035204604 0.029858328
-0.16049445 -0.030482912 0.029374298
-0.15947559 -0.030061137 0.029326003
-0.12293816 -0.034748785 0.029862683
-0.10750349 -0.037008598 0.029651159
-0.09007518 -0.038972609 0.029428871
-0.053233411 -0.037856311 0.029557373
-0.041435353 -0.03784243 0.029558972
-0.031169506 -0.032061428 0.029549794
0.022086406 -0.036790319 0.029679924
0.049586222 -0.03802203 0.029538324
0.054617971 -0.034928259 0.029322982
0.061161857 -0.033033479 0.02966162
0.10739219 -0.032208048 0.029566646
0.13299775 -0.03791583 0.029550532
0.14328434 -0.031238444 0.029455163
0.19581087 -0.033118762 0.029671445
0.21769038 -0.037609793 0.029585715
0.22367157 -0.035103042 0.0298739
0.25580359 -0.032113362 0.029555894
0.29879397 -0.032993913 0.028676439
-0.2734924 -0.023796823 0.020034408
-0.23095748 -0.026619054 0.029457122
-0.22248611 -0.025433592 0.028350048
-0.20592496 -0.027559958 0.029022744
-0.18913335 -0.024920719 0.02809904
-0.114669 -0.025175713 0.028559849
-0.10977203 -0.022292854 0.027526254
-0.094700806 -0.021454237 0.027222838
0.017016727 -0.024730839 0.028385676
0.03583575 -0.020412849 0.026846027
0.056738466 -0.02917213 0.029217869
0.080781378 -0.029852113 0.029295843
0.20279893 -0.023136113 0.02781699
0.21532166 -0.028142607 0.02909934
0.2294842 -0.024497032 0.028302262
0.2322863 -0.024467191 0.028291564
0.30048028 -0.028653752 0.028141977
-0.2067363 -0.012353724 0.02208259
-0.16140224 -0.012087936 0.022165034
-0.15967083 -0.017904272 0.025964083
-0.14207369 -0.018842768 0.026300093
-0.12025604 -0.016858198 0.025326496
-0.11626999 -0.011974702 0.022076342
-0.06472484 -0.010748744 0.021251474
-0.011968679 -0.013634246 0.023170577
0.016358294 -0.01747299 0.025723798
0.03866823 -0.018367248 0.026116706
0.049167961 -0.011126019 0.02137376
0.058374617 -0.011938525 0.022042789
0.063766778 -0.015327107 0.024296608
0.073767617 -0.010912275 0.021360239
0.081463017 -0.019124817 0.026386786
0.091585658 -0.011552235 0.021785907
0.15912557 -0.012622275 0.022497598
0.17949204 -0.010668354 0.021198006
0.18400814 -0.012823442 0.022631399
0.21687381 -0.017047092 0.025440473
0.225521 -0.017270399 0.025588995
0.23286873 -0.016108857 0.024816457
0.2430408 -0.01711813 0.025487721
0.26484612 -0.013217621 0.022893509
0.27008954 -0.019430172 0.026495786
-0.3599222 0.079549246 0.028373318
-0.32741389 0.078076556 0.023400199
-0.36317664 0.081102297 0.024565311
-0.33811259 0.084114574 0.0216353
0.0046535116 -0.064915255 0.033129737
0.011924121 -0.064829081 0.031585723
-0.060081318 -0.057063296 0.037504047
-0.055914883 -0.056109127 0.039806359
-0.047950238 -0.054872736 0.034072716
-0.03383138 -0.052444763 0.035916161
0.050140455 -0.057689898 0.030295867
-0.21635982 -0.044380598 0.038003959
0.019858202 -0.045723375 0.039117612
-0.2411125 -0.03145792 0.037180737
-0.19840188 -0.031820886 0.032909695
-0.18367985 -0.036861449 0.036638964
-0.21430825 -0.025736621 0.032327458
-0.18982214 -0.024938075 0.033413444
-0.17498063 -0.026595363 0.033492435
-0.18336794 -0.017673207 0.037905172
-0.1728854 -0.019635452 0.03723634
-0.35664332 0.08334136 0.034903795
-0.33401558 0.084084339 0.031219838
-0.041359711 -0.081290014 0.0481233
-0.031698495 -0.087146141 0.040654849
-0.094944634 -0.06435211 0.041852865
-0.08667317 -0.064732291 0.043976914
-0.17129187 -0.051828355 0.049708769
-0.24789366 -0.040200576 0.044083197
-0.18616441 -0.048237547 0.04078275
0.033436075 -0.046926372 0.043618854
-0.182549 -0.034498498 0.040403351
-0.17885682 -0.03800239 0.040070131
-0.23382364 -0.02049055 0.042472348
-0.22185183 -0.024321454 0.040450722
-0.2262843 -0.013863646 0.042996276
-0.20798486 -0.017150622 0.047085643
-0.1935655 -0.011139113 0.046489585
-0.33239001 0.07843902 0.047656871
-0.3296074 0.078584731 0.045094229
-0.33202696 0.083471254 0.044962503
-0.31659719 0.080798425 0.043073069
-0.042872313 -0.083614297 0.054188177
-0.044705659 -0.077662356 0.051330626
-0.037992604 -0.075048044 0.051239915
-0.058947377 -0.064455353 0.056544997
-0.046744417 -0.064397536 0.058493968
-0.0191919 -0.064506933 0.054774769
-0.0014443398 -0.064213187 0.053853851
0.026108418 -0.060958944 0.053757209
-0.20295137 -0.052876677 0.052523233
-0.16674539 -0.051239427 0.058203887
-0.051495254 -0.054428149 0.054774344
-0.038018912 -0.059858806 0.051156603
0.02750076 -0.050653674 0.059997581
-0.25151691 -0.04244988 0.051004179
-0.24734196 -0.044137605 0.051913347
-0.23530282 -0.043906473 0.05411271
-0.182549 -0.024046833 0.053648259
-0.18516253 -0.01607698 0.053035036
-0.17749578 -0.010537473 0.052209772
-0.16633798 -0.014155982 0.056613587
-0.35136631 0.078381896 0.058942594
-0.3484281 0.078321248 0.053195916
-0.32586309 0.07968615 0.05086134
-0.35370606 0.083848454 0.059112698
-0.33699006 0.083182134 0.057810921
-0.32488331 0.082312122 0.050336059
-0.030079674 -0.088302732 0.061259907
-0.031934291 -0.076527469 0.061287269
-0.052305277 -0.064255595 0.063416705
-0.027169522 -0.064294532 0.062024556
-0.18905559 -0.051467828 0.062421363
-0.081295729 -0.05966812 0.067797482
-0.18904807 -0.045450386 0.061661616
-0.011565503 -0.048827812 0.065730408
0.0087654768 -0.04700378 0.06370382
0.021252036 -0.048574984 0.063148908
-0.1890709 -0.037156403 0.068665579
-0.17480391 -0.034483355 0.069708519
-0.19128896 -0.029539861 0.069678433
-0.17066312 -0.028668471 0.069706172
-0.24882463 -0.016866997 0.063738346
-0.20276004 -0.015837334 0.069455199
-0.067881465 -0.063975997 0.073983073
-0.020909511 -0.063761607 0.076586843
-0.0012026574 -0.062287413 0.079214618
-0.065942191 -0.056200512 0.074363202
-0.042449277 -0.052740838 0.071494527
-0.18480307 -0.046045918 0.070124909
-0.0016544657 -0.047980316 0.07758572
-0.22390397 -0.035716698 0.073462769
-0.18749695 -0.037088878 0.075018547
-0.16519031 -0.030733068 0.070310399
-0.24570897 -0.026106607 0.070068568
-0.23673609 -0.024620231 0.07200326
-0.16397609 -0.025381289 0.07179714
-0.35119402 0.078718394 0.077841088
-0.35984194 0.083737761 0.073064551
-0.33948666 0.0812492 0.071548775
-0.05267746 -0.06372501 0.081739172
-0.045397609 -0.06371963 0.081896566
-0.0020299824 -0.062210593 0.081135526
-0.081307903 -0.05875437 0.085006855
-0.041895434 -0.052448608 0.081168331
0.0065337839 -0.056737997 0.085173279
0.011867657 -0.052964866 0.081048831
0.001744289 -0.049319156 0.086821631
-0.37356439 0.078885831 0.08367978
-0.36541489 0.078618623 0.081374913
-0.38297313 0.081034593 0.087616518
-0.3534146 0.082910828 0.083629064
-0.34426242 0.080256432 0.080544822
-0.10440132 -0.063369647 0.09559942
-0.08337409 -0.064594507 0.097088471
-0.072993711 -0.063415885 0.09536323
-0.027559606 -0.063013487 0.098993272
-0.018866062 -0.062970996 0.090001643
-0.09646666 -0.063190162 0.10716034
-0.088966839 -0.063218385 0.10634948
-0.062044952 -0.06315589 0.10361676
-0.082703769 -0.058253184 0.10038638
-0.046352487 -0.05245338 0.10469311
-0.10931426 -0.06268537 0.11109678
-0.045537598 -0.062869735 0.111244
-0.073611304 -0.055700634 0.11215448
-0.05981376 -0.053835578 0.11666282
-0.033117324 -0.050792456 0.11488409
-0.034112494 -0.061870396 0.12068321
-0.066221863 -0.053821404 0.12854186
-0.033957779 -0.050683402 0.12620237
-0.10330144 -0.06235861 0.13656858
-0.083580613 -0.062451418 0.13068847
-0.033061307 -0.058655638 0.13697228
-0.098743528 -0.062169615 0.14111605
-0.074524201 -0.062018491 0.14143939
-0.069959044 -0.061819248 0.14442605
-0.081118263 -0.054329351 0.14424449
-0.053229466 -0.051153339 0.14250891
-0.042918943 -0.059664734 0.14621289
-0.12538294 -0.061581641 0.151306
-0.10241041 -0.061237849 0.1574235
-0.074235253 -0.052612923 0.1553601
-0.091404669 -0.060976233 0.16087618
-0.077052034 -0.060894549 0.16093299
-0.11170206 -0.057153787 0.1670626
-0.084091276 -0.053112391 0.16402569
-0.067627616 -0.050988559 0.16713619
-0.12292681 -0.06028644 0.17723763
-0.10214445 -0.060060509 0.1775706
-0.0997639 -0.054013386 0.17414016
-0.082475871 -0.059839047 0.17952493
-0.076854959 -0.059520166 0.17795458
-0.118588 -0.059473988 0.18994358
-0.090368561 -0.059349135 0.18865725
-0.088073224 -0.05922886 0.18903922
-0.077242255 -0.05701793 0.19658129
-0.14136758 -0.061504222 0.2038441
-0.14596561 -0.059350692 0.2001462
-0.13634109 -0.057663579 0.20492727
-0.1293512 -0.055420741 0.20431699
-0.10018488 -0.051956441 0.20292324
-0.1468545 -0.056346044 0.21977784
-0.11711225 -0.057880744 0.21640089
-0.15143731 -0.058345094 0.22014876
-0.13109739 -0.055250775 0.22451998
-0.10159084 -0.050831072 0.22975808
-0.15149935 -0.054988045 0.23730825
-0.10434294 -0.050938044 0.23368508
-0.16274518 -0.055790756 0.24742091
-0.14244632 -0.056365326 0.24311486
-0.13815299 -0.05244977 0.2413516
-0.15466951 -0.053899217 0.25585374
-0.12427297 -0.055123508 0.25376061
-0.15285528 -0.055080742 0.26079303
-0.12923458 -0.050517038 0.26673928
-0.16996981 -0.054280672 0.27348521
-0.15373223 -0.051713742 0.27228984
-0.14404953 -0.050677605 0.27895233
-0.13509138 -0.050662104 0.2780571
-0.16513608 -0.053478219 0.28408337
-0.15304014 -0.051030256 0.2831555
-0.14706144 -0.050415967 0.28897348
