# .PCD v0.7 - Point Cloud Data file format
VERSION 0.7
FIELDS x y z
SIZE 4 4 4
TYPE F F F
COUNT 1 1 1
WIDTH 870
HEIGHT 1
VIEWPOINT 0 0 0 1 0 0 0
POINTS 870
DATA ascii
-0.041611038 -0.038704295 -0.3045426
-0.037054617 -0.03458783 -0.3039664
-0.014116121 -0.035546474 -0.3014496
-0.041705281 -0.039188251 -0.29924467
-0.035035245 -0.040885512 -0.28312993
-0.015815595 -0.040466636 -0.28692478
-0.031290408 -0.039527223 -0.2859208
2.6523136e-05 -0.037387092 -0.2835921
-0.017655946 -0.041734174 -0.26393336
0.011381848 -0.039070427 -0.26353729
-0.014384688 -0.040503867 -0.2561861
-0.035237398 -0.047638353 -0.24822149
-0.005673781 -0.045157772 -0.24465188
0.0018488555 -0.040040296 -0.24378903
-0.020610496 -0.044741765 -0.23769784
-0.0022517424 -0.046181925 -0.23515645
0.0054016104 -0.045677826 -0.23810408
0.028994139 -0.04264782 -0.23313282
0.017847851 -0.039859608 -0.23957056
0.0048254994 -0.044470698 -0.22527364
0.020897981 -0.046132967 -0.22629511
-0.010816459 -0.047412671 -0.20933563
0.0077236602 -0.046711881 -0.2078733
0.011625729 -0.049050599 -0.20759363
0.038803637 -0.042644821 -0.20073074
0.013205132 -0.050413273 -0.19558549
0.020586394 -0.049717356 -0.1999808
0.031374756 -0.04304399 -0.19248301
0.042912595 -0.050803199 -0.18024369
0.019191263 -0.052124996 -0.17927933
0.050841108 -0.044453382 -0.17198716
0.011211565 -0.053684726 -0.1607134
0.040808111 -0.053013347 -0.16604403
0.059291862 -0.051013634 -0.16501397
-0.0080565969 -0.056891397 -0.15296035
0.0055296673 -0.052780967 -0.1560787
0.020771861 -0.049255088 -0.15762441
0.04769101 -0.04576746 -0.15500087
0.012400795 -0.052349214 -0.1497805
0.061047196 -0.054676455 -0.14228396
0.036607496 -0.049182311 -0.13956654
0.09373188 -0.079387188 -0.12000655
0.027142882 -0.057462107 -0.12611082
0.039688252 -0.058178369 -0.12209317
0.046525355 -0.050228596 -0.12079232
0.081821807 -0.054522317 -0.12541944
0.076405726 -0.047860827 -0.12239356
0.085028276 -0.048877746 -0.12127852
0.096410856 -0.096088499 -0.11130776
0.10419366 -0.09290871 -0.11334711
0.12483776 -0.095337212 -0.11397357
0.081570514 -0.082612246 -0.11474321
0.091147713 -0.087831318 -0.11336671
0.1018412 -0.086278632 -0.11662226
0.12579463 -0.085840285 -0.11330789
0.072423115 -0.070770867 -0.11008009
0.096945114 -0.072380409 -0.11849173
0.1043217 -0.075073972 -0.1149468
0.1200976 -0.070069835 -0.11831167
0.060163055 -0.065708205 -0.11041786
0.080236316 -0.066034488 -0.11127425
0.027123988 -0.054883201 -0.11362766
0.047063433 -0.051279038 -0.11095557
0.057150152 -0.049735278 -0.11173818
0.064816564 -0.048617527 -0.11482469
0.073732421 -0.048343331 -0.11496013
-0.34121525 -0.011147839 -0.11271636
-0.37479448 -0.008449778 -0.11388202
-0.33270246 -0.0048289034 -0.11273202
-0.32801491 -0.0040799119 -0.11466467
-0.37303704 0.021331578 -0.11384998
-0.34047186 0.022043269 -0.11357421
-0.35182816 0.038942907 -0.11326838
0.086488083 -0.095976189 -0.1037306
0.098385036 -0.09508881 -0.10640898
0.10725635 -0.095422968 -0.10519062
0.12109678 -0.094794996 -0.10525259
0.067355596 -0.078638099 -0.10405517
0.070130795 -0.077118576 -0.10744997
0.086413205 -0.073694147 -0.10766321
0.096850485 -0.071789742 -0.10622738
0.051426385 -0.069171153 -0.10953076
0.060527958 -0.068515509 -0.105008
0.094565392 -0.063146703 -0.10069281
0.1064385 -0.062114768 -0.10089384
0.11456487 -0.067692846 -0.10412744
0.018319396 -0.058317941 -0.10789031
0.020209413 -0.05809525 -0.10007837
0.044733223 -0.05855149 -0.10525467
0.083849117 -0.058135416 -0.10350887
0.093590558 -0.05000614 -0.10174324
-0.330962 -0.0021894954 -0.10973683
-0.32488012 -0.0072264327 -0.1023236
0.089768626 -0.091302246 -0.095977202
0.1153236 -0.091153219 -0.095930398
0.12023897 -0.09088102 -0.096631497
0.093721852 -0.085110903 -0.09328904
0.11311247 -0.085551307 -0.093108296
0.12143619 -0.07360217 -0.095680483
0.11345725 -0.067388199 -0.096232489
0.13738549 -0.067697108 -0.099389873
0.068982549 -0.050174359 -0.095476024
0.084485888 -0.049804479 -0.092933223
-0.33183375 -0.0061326982 -0.092781715
0.12071943 -0.084182948 -0.088794552
0.13555554 -0.080102183 -0.089477435
0.080913842 -0.061780341 -0.080857143
0.045968451 -0.054373693 -0.086205482
0.067677744 -0.051528417 -0.083341911
-0.3356455 -0.010015912 -0.088644445
-0.32064342 -0.010913349 -0.085821375
-0.33694619 -0.0070179687 -0.08977513
-0.32416907 -0.0070247445 -0.082828008
-0.31142819 -0.0081280861 -0.087467015
0.05222166 -0.11186606 -0.070757546
0.052466817 -0.10917748 -0.0745425
0.013878443 -0.063040793 -0.07363262
0.071629852 -0.063019231 -0.076609947
0.1005346 -0.059286095 -0.079341352
-0.33225542 -0.010713309 -0.075708568
-0.33297837 -0.0089045931 -0.073817588
0.039765283 -0.11111307 -0.067075059
0.043142047 -0.11122254 -0.066003859
0.024304114 -0.063736103 -0.064488754
0.045433894 -0.064970098 -0.068664528
0.059746891 -0.065894082 -0.063209839
0.10226277 -0.062293388 -0.062004767
0.082879126 -0.052502114 -0.064862132
0.092471994 -0.051475991 -0.064216852
0.11645342 -0.056825228 -0.069639519
-0.32521027 -0.013280365 -0.061481308
-0.31294793 -0.014302067 -0.060719788
-0.30155385 -0.013245897 -0.065774597
-0.3387745 -0.009992687 -0.069415674
-0.32799625 -0.0092390608 -0.068451047
-0.30476743 -0.0085425153 -0.06688229
0.032315262 -0.116638 -0.058004476
0.054779816 -0.11426213 -0.055630695
0.043138385 -0.088635184 -0.059368122
0.066503085 -0.067217954 -0.052580088
0.072784163 -0.066587687 -0.055217985
0.085236043 -0.064703338 -0.059530623
0.096420914 -0.064619571 -0.05579333
0.042634763 -0.059423544 -0.050396688
0.084627137 -0.052853376 -0.057320554
0.096355423 -0.05211249 -0.05775588
0.12065636 -0.055917758 -0.057470024
-0.31096458 -0.014814425 -0.056924552
0.016979165 -0.067334846 -0.04497366
0.038063064 -0.061438587 -0.041776679
0.045051102 -0.068069711 -0.040700659
0.055881102 -0.068909049 -0.041575093
0.075475134 -0.068407439 -0.042289086
0.11515769 -0.064014472 -0.044047546
-0.051304348 -0.033289306 -0.040609471
0.026292589 -0.03026706 -0.041125886
0.040919572 -0.031911276 -0.04084488
0.14794087 -0.03431249 -0.040434681
-0.12522125 -0.024619753 -0.042244878
-0.088504568 -0.020631522 -0.04277939
-0.075189814 -0.026885286 -0.041703992
-0.047837574 -0.021835741 -0.042567201
-0.036410619 -0.027026812 -0.0416798
0.00081277406 -0.021894643 -0.042557131
0.02551131 -0.023061723 -0.042357624
0.063956097 -0.021307603 -0.042657487
0.18233904 -0.027220776 -0.041646637
0.24626711 -0.028480075 -0.041599303
-0.28732044 -0.013247631 -0.044595007
-0.19357949 -0.012490042 -0.040324699
-0.15080479 -0.019400651 -0.04304916
-0.13806467 -0.016869593 -0.043599747
-0.12364208 -0.01948889 -0.043126136
-0.10771511 -0.018617656 -0.043193936
-0.040349327 -0.015390088 -0.043686975
-0.030086521 -0.017911574 -0.043238029
-0.02246381 -0.010539151 -0.044651505
0.0025759861 -0.013082191 -0.044145864
0.011017792 -0.01096407 -0.044567019
0.073105782 -0.016798023 -0.043428391
0.1763043 -0.010037116 -0.044751327
0.23138167 -0.016102642 -0.043728184
0.24393624 -0.011517843 -0.04470646
-0.19106995 -0.0009299058 -0.041706331
-0.18314533 -0.0082653556 -0.042634279
-0.099105567 -0.0094115799 -0.044932183
-0.080392368 -0.00412424 -0.045927007
-0.057157192 -0.0075221593 -0.045251384
0.024305951 -0.0070001176 -0.045355186
0.065086633 -3.4138211e-05 -0.04674026
0.07858789 -0.0023618827 -0.046277426
0.10192934 -0.0068989969 -0.045375295
0.13073681 -0.0077602025 -0.045204055
0.15012497 -0.00202756 -0.0463439
0.18029651 -0.0091964509 -0.044918481
0.20354275 -0.00035732263 -0.046704046
0.23634829 -0.0073428527 -0.045492291
0.25572449 -0.003220448 -0.04549586
0.26295599 -0.0075342655 -0.044049181
-0.12142319 0.0084744841 -0.045564897
-0.043854393 0.006547153 -0.046239085
-0.010409912 0.0084397653 -0.045863315
0.046592657 0.00065696822 -0.046877675
0.19194306 0.003669234 -0.046810471
0.22288975 0.0062890127 -0.046243209
0.26467338 0.0016627677 -0.044643279
0.0048214346 0.01995427 -0.043577194
0.049761884 0.010170626 -0.045519665
0.15562481 0.017812308 -0.044002466
0.16633856 0.010792381 -0.04539622
0.24546452 0.017444769 -0.043977179
-0.12013145 0.022493128 -0.040800139
0.0082908496 0.022100907 -0.04218474
0.015280604 0.021588452 -0.042527262
0.045880415 0.024717994 -0.040435489
0.1468194 0.020102495 -0.043520473
0.15800118 0.020243118 -0.043426476
0.26703703 -0.071829289 -0.03311995
-0.13962826 -0.061237145 -0.033435553
-0.03147373 -0.069158107 -0.030238193
-0.016040027 -0.064682506 -0.03330119
-0.0089643076 -0.064385429 -0.033425458
0.000619567 -0.069272943 -0.033123862
0.083278134 -0.067291543 -0.031612325
0.094000801 -0.064114943 -0.037274681
0.12473722 -0.066334605 -0.032540642
0.14878114 -0.066993289 -0.031922929
0.22440243 -0.066644661 -0.033309147
0.30826008 -0.060099885 -0.033592612
-0.16625908 -0.053413652 -0.033375137
-0.11573943 -0.058262166 -0.035986949
-0.083919711 -0.057893846 -0.036141023
0.018485211 -0.055961624 -0.036784545
0.035046779 -0.052330293 -0.03737938
0.049293436 -0.058876514 -0.037260354
0.074289642 -0.054132201 -0.036459699
0.13786364 -0.054593988 -0.036721304
0.17162122 -0.053621851 -0.037188537
0.18723662 -0.052702885 -0.037349578
0.22573419 -0.050593711 -0.038038116
0.28472471 -0.053209733 -0.037678879
-0.15432033 -0.040425919 -0.037371039
-0.14690164 -0.043850496 -0.036988925
-0.10805058 -0.045575507 -0.038510609
-0.081098884 -0.049100704 -0.035361599
-0.052994087 -0.049100701 -0.034860916
-0.045847613 -0.040950578 -0.039300691
-0.030443791 -0.049100701 -0.035789978
-0.023805987 -0.049100697 -0.031058503
-0.01934785 -0.047412667 -0.038196769
0.051421501 -0.042639479 -0.039012175
0.068149358 -0.047966737 -0.038102116
0.084495187 -0.044744406 -0.038652588
0.11561952 -0.049100701 -0.037247308
0.1541314 -0.041915823 -0.039135799
0.17517152 -0.043479122 -0.038879946
0.18345368 -0.048550695 -0.035790876
0.24385086 -0.049758025 -0.034206249
0.27625048 -0.047553372 -0.037785314
0.31505635 -0.046997897 -0.030691057
-0.18267091 -0.033601627 -0.036288053
0.0061213793 -0.037318159 -0.039921217
-0.22576955 -0.021773517 -0.031132516
-0.17683482 -0.025471114 -0.039392866
-0.120552 -0.027715817 -0.035080198
-0.29171252 -0.017227318 -0.039051298
-0.120552 -0.017624043 -0.034067057
-0.20029137 -0.00033279392 -0.039882928
-0.120552 -0.0079569481 -0.03558315
0.29892176 -0.0057446533 -0.034478456
-0.19371954 0.0063363141 -0.039409988
-0.16051164 0.023130758 -0.035365514
-0.13942759 0.029899919 -0.033417344
-0.12692976 0.025898783 -0.037753187
-0.067515552 0.028530993 -0.037886899
0.21151859 0.027973574 -0.038129047
-0.14180869 0.031270228 -0.030684527
-0.08588887 0.034510899 -0.033889949
-0.057569619 0.03373808 -0.034406498
-0.0074156574 0.030737337 -0.036412187
0.033454649 0.033695351 -0.034435056
0.084354296 0.030530727 -0.036550283
0.16022496 0.034555223 -0.03386033
0.23993187 -0.080200195 -0.023084156
0.28593868 -0.084863767 -0.024556115
-0.10871668 -0.075720847 -0.024083957
-0.071845725 -0.075904623 -0.023846308
-0.052650034 -0.073752396 -0.026629493
0.026781753 -0.072058603 -0.02801447
0.071556523 -0.075959556 -0.023775268
0.10912662 -0.076579243 -0.022973903
0.21152321 -0.078790404 -0.020992674
0.24188107 -0.078217164 -0.025930185
-0.18782079 -0.065383874 -0.021626109
-0.17700879 -0.062505491 -0.026789878
-0.15891056 -0.066936299 -0.027133603
0.33968484 -0.06449759 -0.020688785
-0.23197728 -0.040073186 -0.025808293
-0.21835677 -0.041328069 -0.028034192
0.0094030853 -0.049100697 -0.02943996
0.12272829 -0.049100701 -0.029266151
0.134911 -0.049100701 -0.022123173
0.24487518 -0.049753696 -0.025086865
0.28117687 -0.049834654 -0.025271382
0.32247677 -0.049830489 -0.025264936
-0.23671316 -0.036224283 -0.025493871
-0.21781194 -0.03679648 -0.028979551
-0.24782804 -0.020219566 -0.025531532
-0.23523074 -0.027899625 -0.028708838
-0.30219913 -0.018142674 -0.028177863
-0.29658484 -0.018662715 -0.028312061
-0.28583363 -0.018922221 -0.026496477
-0.27152041 -0.017637856 -0.028313091
-0.120552 -0.013305618 -0.023365485
0.31528729 -0.019325139 -0.028820626
-0.24804384 -0.0012134884 -0.026579451
-0.24569497 0.0061040581 -0.022325149
0.29422456 0.017659189 -0.023710417
-0.18448609 0.026277589 -0.020567268
-0.120552 0.027974971 -0.021348957
-0.12574905 0.038747463 -0.023608234
-0.044057705 0.039135344 -0.027674872
-0.037215114 0.038929872 -0.027981753
-0.02149497 0.038817763 -0.02814918
0.14396226 0.038241394 -0.029010005
-0.088829465 0.042152323 -0.022952957
-0.076494277 0.043175917 -0.021640204
-0.02974418 0.043234996 -0.02155197
0.014855297 0.042567417 -0.022549007
0.025943205 0.041247137 -0.02452087
0.037880201 0.044269443 -0.020006999
0.061466213 0.044062093 -0.020316677
0.10093205 0.041008633 -0.024877081
0.15944022 0.040980615 -0.024918925
0.19173059 0.042512484 -0.022631049
0.22971034 0.043331515 -0.020642627
0.31876922 -0.09466444 -0.016541103
0.33216098 -0.096039988 -0.014732526
0.35194564 -0.091545679 -0.014516203
-0.13098095 -0.08134751 -0.013498647
-0.054624923 -0.083339237 -0.010045522
0.020006612 -0.080253743 -0.017544165
0.13212626 -0.081709296 -0.014006743
0.19661179 -0.083098173 -0.011088219
0.25367829 -0.085256107 -0.017892994
0.2689839 -0.088993043 -0.012757218
0.27143559 -0.088114783 -0.015685022
0.28070477 -0.088645354 -0.018228548
-0.17492397 -0.072586745 -0.015186079
0.091777451 -0.079546191 -0.019137153
0.13070619 -0.079014838 -0.019824276
0.35853332 -0.077759385 -0.015816528
0.36859006 -0.076918393 -0.010401661
-0.120552 -0.046243299 -0.011042922
-0.057378169 -0.049100701 -0.015597334
-0.047064632 -0.049100697 -0.012444143
-0.032934539 -0.049100701 -0.014617469
0.063885137 -0.049100704 -0.010628394
0.081757143 -0.049100697 -0.019690998
0.18839821 -0.049296204 -0.015457204
0.22577184 -0.049535111 -0.010047475
0.24890107 -0.049644843 -0.012777587
0.28656811 -0.049752485 -0.011924924
-0.28864408 -0.035048708 -0.01663411
-0.31574017 -0.028766416 -0.01023593
-0.3007898 -0.026494157 -0.014928771
-0.2890473 -0.02066065 -0.014770398
0.32949159 -0.022806298 -0.018941566
-0.30161136 -0.017766692 -0.013513714
-0.30208224 -0.0057567637 -0.012917429
0.31674689 -0.0014148378 -0.012270894
-0.26571313 0.0061319703 -0.01364688
-0.2594566 0.0087545542 -0.012256684
-0.23436376 0.014097653 -0.016212357
-0.120552 0.012179337 -0.017127587
-0.120552 0.034293395 -0.010470929
0.00021873415 0.046315271 -0.014341691
0.032123405 0.044326559 -0.019921698
0.060950961 0.046756003 -0.012121857
0.071015611 0.045631859 -0.017783837
0.098741785 0.045951478 -0.016174041
0.1710667 0.046567 -0.0130738
0.26797783 0.040662386 -0.011729802
0.30896825 -0.097851187 -0.0085043795
-0.11187148 -0.083811298 -0.0069226511
-0.091601029 -0.084407553 -0.0024564979
-0.081737556 -0.084734485 -9.4776078e-07
-0.072496288 -0.084009469 -0.0056142719
0.033450004 -0.084379934 -0.0033428678
0.047127884 -0.084104389 -0.0052772388
0.07344047 -0.084412046 -0.0031709871
0.09458258 -0.083536014 -0.0090923365
0.16886252 -0.0845678 -0.0023019318
0.22564693 -0.084982686 -0.0098293424
0.26255417 -0.089520693 -0.008441777
-0.16962342 -0.077158183 -0.0020364486
-0.24630055 -0.056341585 -0.006995854
-0.23978765 -0.057793003 -0.0084484536
0.34732652 -0.051767297 -0.0068094879
-0.075665057 -0.049100701 -0.0013339577
0.058094844 -0.049100697 -0.0040187822
0.06630668 -0.049100701 -0.0044140141
0.073968396 -0.049100701 -0.0072773211
0.09419027 -0.049100701 -0.0039515165
0.13649563 -0.049100701 -0.0050220126
0.15720549 -0.049168058 -0.0092976475
0.16293973 -0.049191609 -0.00030481961
0.24884456 -0.049562737 -0.0045952769
0.26890302 -0.049636748 -0.0048412946
-0.32410738 -0.031513959 -0.0024779891
-0.32351708 -0.02661781 -0.0092157461
-0.29354146 -0.020809365 -0.0059110285
-0.28292432 -0.021888521 -0.0045239157
-0.120552 -0.028902095 -0.0082704863
-0.29439652 -0.015174574 -0.0042708404
-0.25573066 -0.016973866 -0.00090333499
0.31694672 -0.0010539873 -0.0097816801
-0.32130024 0.00088607636 -0.00026274158
-0.27355897 0.0079853702 -0.0016819392
-0.26095358 0.010284035 -0.0070417086
-0.120552 0.017052196 -0.0076470915
-0.21308888 0.022817375 -0.004132661
-0.19777039 0.025918331 -0.0044971928
-0.31965137 0.030992901 -0.00023366779
-0.18410233 0.030760059 -0.0023227164
-0.16992244 0.033568986 -0.0087456992
0.27438727 0.039575934 -0.0041341954
0.28562582 0.032828245 -9.7635966e-06
-0.30306849 0.047483802 -0.0032244232
-0.28822005 0.046438143 -0.0043088263
-0.27362177 0.049752735 -0.0046352139
0.0019573197 0.047612254 -0.0078091729
0.01505646 0.04852603 -0.0032067264
0.06832093 0.047365636 -0.0090513211
0.2584728 0.044324737 -0.0080077806
-0.32160246 0.059016339 -0.0015763716
-0.28930843 0.05221469 -0.0043762294
-0.34482482 0.089692488 -4.6549045e-05
-0.33553815 0.087394632 -0.0013462414
-0.31214085 0.096328706 -0.0035912821
-0.33835778 0.10832898 -0.0021438254
-0.30824611 0.10100581 -0.0027266245
0.29641354 -0.11567795 0.0010410401
0.29546443 -0.10917357 8.20852e-05
0.29117352 -0.09496019 0.0059780432
0.30115122 -0.096425474 0.0082957195
0.33258539 -0.099741921 0.00081322092
-0.10087812 -0.084240444 0.0036888181
-0.023820005 -0.084339187 0.0033467032
-0.0091069192 -0.083846457 0.0070085702
0.032074843 -0.083880439 0.0067796283
0.14574599 -0.084313698 0.0038974467
0.15565026 -0.084085681 0.0054744883
0.16893865 -0.083743706 0.0080930097
0.181353 -0.083975188 0.006626091
0.19730976 -0.084573574 0.0024320453
0.21853928 -0.08464624 0.0066086873
0.23877324 -0.086670861 0.0075908219
0.25607562 -0.089158848 0.004601432
-0.19770271 -0.071352124 0.0010892678
0.37257999 -0.071123369 0.00078379328
0.35636967 -0.063316956 0.0069907866
-0.25002083 -0.054846402 0.0077520269
-0.24972415 -0.05621748 0.0014693734
0.34857219 -0.057094373 0.0096822064
-0.11858875 -0.049100697 0.0078489501
-0.093091086 -0.049100704 0.0074277143
-0.084495284 -0.049100701 0.0042619989
-0.011745401 -0.049100701 0.0020790198
0.05957792 -0.049100701 0.0013178488
0.15145977 -0.049144454 0.0014825846
0.24219564 -0.049584627 0.0091503588
0.27099568 -0.049603432 0.00076748064
-0.120552 -0.035999939 0.0058786054
-0.33796546 -0.026137484 0.0045705643
-0.29567453 -0.020810541 0.00090381003
-0.25538412 -0.02015321 0.00090381003
-0.28602421 -0.014861543 0.0028119457
0.32806242 -0.016015772 0.0099419765
-0.30617362 0.0099636894 0.00081437535
-0.26591969 0.0093649663 0.0048753372
-0.120552 0.0069945054 0.0068918583
-0.29583317 0.014683185 0.0023761585
-0.23038188 0.015960472 0.0056948215
-0.25100127 0.021528443 0.0048965379
-0.23326305 0.02745562 0.0029601406
-0.2106353 0.023065573 0.0065575484
-0.23764622 0.032706246 0.0024001065
-0.22947361 0.035940655 0.0015387165
-0.21453518 0.03435174 0.0018100218
-0.31394792 0.0404054 0.0015139678
-0.2440875 0.042976126 0.0012034592
-0.094831616 0.046762012 0.0093291998
-0.051802475 0.047300119 0.0093812859
-0.047810365 0.048482493 0.0034260005
0.1135316 0.048011355 0.0057989871
0.137794 0.047992222 0.0058953571
0.14906406 0.047510311 0.0083226087
0.21239261 0.048103109 0.0041910545
0.24495578 0.047405683 0.005034592
-0.2817339 0.054704838 0.0048460648
-0.27901152 0.052404091 0.0049154228
-0.26999864 0.054470032 0.0026277287
-0.26492965 0.061577871 0.00052487513
-0.33961311 0.078462206 0.00014397588
-0.29039404 0.08987157 0.00018585543
-0.30287102 0.096874692 0.0014189614
-0.3103638 0.10756215 0.0014964466
-0.32021031 0.11697312 0.0021825845
0.29674172 -0.10111552 0.010394106
0.30200499 -0.10249324 0.010289006
0.34767446 -0.090387434 0.018778965
0.35670578 -0.090949126 0.012029162
-0.11837678 -0.082227804 0.012746766
-0.1002447 -0.081426978 0.014693124
-0.075048216 -0.083248153 0.010266904
-0.065555722 -0.082423285 0.012271689
0.06983649 -0.080994137 0.015745118
0.077281527 -0.081757478 0.01388986
0.12770098 -0.082711793 0.011570472
0.17271087 -0.080842324 0.0164326
0.24283919 -0.084209412 0.017421722
0.28826487 -0.089329876 0.019410472
-0.19011956 -0.070904292 0.011307513
-0.16947779 -0.072375782 0.018004728
0.049155496 -0.079001084 0.019842556
0.15002461 -0.079199567 0.019634848
-0.19256777 -0.069433354 0.01358982
-0.27510881 -0.044136692 0.012826314
-0.120552 -0.043617066 0.0151928
-0.11691634 -0.049100697 0.014334523
-0.10687497 -0.049100701 0.018401038
-0.087262727 -0.049100701 0.018010074
-0.036862522 -0.049100701 0.01108887
0.025162539 -0.049100697 0.010716336
0.12270711 -0.049100697 0.017431553
0.13879001 -0.049100701 0.019772625
0.17925909 -0.049258657 0.018437823
0.18902531 -0.049298778 0.019154126
0.30671799 -0.049782697 0.016486946
-0.3006157 -0.034945548 0.011397105
-0.27799752 -0.039140325 0.017258419
-0.3205089 -0.020072121 0.011013594
-0.31021434 -0.027903643 0.012467156
-0.29173493 -0.021897739 0.014961291
-0.27254811 -0.023731194 0.019051027
-0.120552 -0.02772584 0.016163016
-0.28842714 -0.012800366 0.018657045
-0.26476821 -0.019615058 0.015321446
-0.26084584 0.0075835292 0.013666114
-0.120552 0.0050193882 0.014779237
-0.23827362 0.011444776 0.019106191
0.30504036 0.011920713 0.013974563
-0.19345269 0.026830241 0.011136465
-0.09578985 0.045939095 0.013164438
-0.053096898 0.04640729 0.013878245
0.050188623 0.045866035 0.016604383
0.20565772 0.045203142 0.017503232
0.24236044 0.046167597 0.011448691
-0.10578185 -0.074249096 0.02598767
-0.094277561 -0.075310692 0.024609523
-0.06444107 -0.070619546 0.029118249
-0.027378533 -0.070723966 0.029038198
-0.010405973 -0.070203617 0.029437132
0.0042158812 -0.07359422 0.026055306
0.03219641 -0.078403994 0.020614693
0.10649218 -0.075083971 0.024908051
0.13255638 -0.070353687 0.029322077
0.16344649 -0.072297275 0.027902989
0.2133318 -0.074726939 0.026347438
0.23753077 -0.076877452 0.026958773
0.24812436 -0.079684824 0.024928734
0.33639914 -0.078275114 0.024156809
-0.17439035 -0.065612689 0.024921522
-0.16614093 -0.067255966 0.025370214
0.082164012 -0.069892153 0.029675916
-0.2104955 -0.054899465 0.024795154
-0.19532478 -0.055074826 0.028145958
-0.077599518 -0.049100701 0.028082855
0.012654352 -0.049100701 0.023911223
0.039008182 -0.049100701 0.02596836
0.087379329 -0.049100701 0.029471181
0.24507451 -0.049754221 0.025068451
0.25403747 -0.049780842 0.024808537
0.32231468 -0.032605279 0.027042039
-0.24606906 -0.024736598 0.026073627
-0.32794037 -0.015613395 0.024678245
-0.31316236 -0.017071484 0.029272787
0.31754044 -0.014568599 0.026355458
-0.25770369 -0.0079697538 0.025283569
-0.120552 -0.0084953215 0.020133881
-0.24664156 0.0080101136 0.020661784
-0.22459048 0.014506768 0.021009248
-0.12660368 0.039425466 0.022287626
-0.11760491 0.039344333 0.024522573
-0.09984415 0.038478561 0.0275067
-0.088106334 0.03831698 0.028742693
-0.038994208 0.039632402 0.026932798
0.27536058 0.030239087 0.026077077
-0.051492907 0.041673481 0.023884311
-0.03158683 0.041754857 0.023762774
-0.014334001 0.043932833 0.020509811
0.17052588 0.04205104 0.023320395
0.22450037 0.040848423 0.024478147
0.043769196 -0.070136763 0.031831242
0.25498909 -0.072842009 0.03153776
0.26306906 -0.070392087 0.0335363
0.29226181 -0.075761519 0.032024831
0.30580181 -0.070383988 0.032681525
-0.14637108 -0.064024091 0.031379249
-0.10250111 -0.061812371 0.034502327
-0.07301563 -0.066567108 0.032225128
-0.063720897 -0.068370871 0.030842239
-0.019798558 -0.06572558 0.032865349
-0.0057664793 -0.063496292 0.033297192
0.023432281 -0.068346307 0.038637795
0.044712462 -0.062107302 0.03437895
0.11985973 -0.063797146 0.033672053
0.17877686 -0.067876585 0.031340469
0.19751853 -0.066972256 0.031885784
0.20636833 -0.062415514 0.03446658
0.29935384 -0.066517174 0.034602925
0.32057151 -0.068498433 0.030780083
-0.14810809 -0.055762205 0.034797505
-0.040973268 -0.058593135 0.035848998
-0.021135058 -0.056408122 0.03671189
-0.013627175 -0.058244675 0.035994764
0.0044301301 -0.05893863 0.035704471
0.023572009 -0.051616888 0.037496403
0.036641955 -0.056697454 0.035943579
0.068729036 -0.057209678 0.036427721
0.141381 -0.059974559 0.035272103
0.16003762 -0.05104012 0.037603777
0.17699857 -0.052589007 0.03736157
0.26211914 -0.05986172 0.03736775
-0.15503654 -0.047068294 0.035737097
-0.12144566 -0.044451013 0.036499955
-0.11636752 -0.04655689 0.0364981
-0.063738689 -0.049100701 0.03716331
-0.042731833 -0.047339495 0.037307203
-0.032335237 -0.049100701 0.036431022
-0.017514557 -0.040692337 0.03934481
-0.004437428 -0.049100704 0.033107184
0.031397097 -0.049100704 0.033072196
0.067606784 -0.049100697 0.036385976
0.075337932 -0.041716032 0.03916993
0.10134176 -0.04776971 0.038135774
0.15836421 -0.048131049 0.035099007
0.17861265 -0.049283937 0.03790383
0.19825941 -0.049302798 0.037914455
0.20670582 -0.043596398 0.038919736
0.22604702 -0.040375277 0.039577436
0.23229912 -0.046074245 0.038761206
0.26746607 -0.043905422 0.039395176
-0.20039736 -0.039626725 0.031408243
-0.1845482 -0.035772845 0.035263576
-0.17861086 -0.03211996 0.037341375
0.023383064 -0.039432038 0.039560102
0.11817393 -0.03719591 0.039942101
0.12777472 -0.038366795 0.039742082
0.14402112 -0.039563876 0.039537583
0.2131739 -0.039717861 0.039606739
0.26029944 -0.03998464 0.039928772
0.30800813 -0.034553453 0.032135073
-0.20516397 -0.029973507 0.034265772
0.3072041 -0.029228833 0.032553416
-0.30197597 -0.01768687 0.033982366
-0.28977704 -0.011022169 0.038414255
-0.120552 0.016203633 0.036969557
-0.16007635 0.023810998 0.034939494
-0.15260836 0.024373278 0.035894785
-0.094000086 0.02853868 0.037637889
-0.085942611 0.027223881 0.0387608
0.0527988 0.028826535 0.037689645
0.24414048 0.029247513 0.036951408
0.28121471 0.021918528 0.030594757
-0.13746928 0.032104738 0.030603297
-0.022436351 0.035355657 0.033320405
-0.016287826 0.030560952 0.03653042
0.045764215 0.031092957 0.036174849
0.075014949 0.034095183 0.034168273
0.080874644 0.034240123 0.034071401
0.11508486 0.033344701 0.034669869
0.13011685 0.035571825 0.032997545
0.14941578 0.033307537 0.034694701
0.16893668 0.031724941 0.035752453
0.023490625 -0.064064786 0.048177212
0.037211549 -0.061065346 0.046304867
0.045527369 -0.06425678 0.041686483
0.055412211 -0.068967886 0.041035049
0.13114661 -0.060311474 0.042763218
0.13135785 -0.056681078 0.047863089
-0.12032013 -0.031313028 0.0410452
0.13949327 -0.030600421 0.041068904
0.14540067 -0.031037608 0.040994164
0.17898726 -0.032348834 0.040770136
0.23944049 -0.03706437 0.040225793
-0.12158983 -0.029399499 0.041384071
-0.095206469 -0.028516682 0.041450649
-0.050975136 -0.025065782 0.042015031
0.01114728 -0.023493661 0.042283781
0.036426552 -0.026108669 0.041836753
0.091825351 -0.023122301 0.042347267
0.16846058 -0.0286087 0.041409381
0.17440607 -0.021364134 0.04264782
0.23220471 -0.026366048 0.041965291
0.26232406 -0.0209498 0.041602165
-0.29196942 -0.010856827 0.040251337
-0.14451189 -0.017871581 0.0433762
-0.13353081 -0.018940261 0.043200895
-0.080074355 -0.011274006 0.044505395
0.045378234 -0.019072708 0.043039534
0.13798189 -0.01526612 0.043711625
0.2591747 -0.015928915 0.04271156
-0.19059306 -0.0013711129 0.041895568
-0.13390389 -0.00082398637 0.047005661
-0.0057992153 -0.0064137969 0.045471765
0.015949879 -0.004619055 0.045828626
0.047351718 -0.0063338913 0.045487657
0.12492868 -0.0091544017 0.044926845
0.25219077 -0.0096319215 0.044519722
-0.15213811 0.0025522918 0.046344932
-0.13852647 0.0036414233 0.046293706
-0.091347672 0.0015076834 0.047079954
-0.043987181 0.0024016669 0.046965133
-0.023629796 0.0076880772 0.046012558
-0.016774133 0.009681317 0.045616817
0.070745185 0.0050224499 0.046541803
-0.15163609 0.01346952 0.043798216
-0.13249907 0.016810803 0.04355868
-0.071356729 0.014782675 0.044603977
-0.062353879 0.012714058 0.045014687
-0.0084581887 0.015659738 0.044429846
0.048251018 0.015330451 0.044495221
0.051610768 0.017210431 0.044121966
0.087020352 0.010879583 0.045378909
0.22778349 0.016246507 0.044258472
0.092465878 0.020110123 0.043515377
0.14353752 0.023256188 0.041412659
0.15647782 0.022946905 0.041619368
0.17413107 0.023875671 0.040998619
0.034456983 -0.11673484 0.055556312
0.034165427 -0.10808596 0.0555759
0.020044163 -0.064226389 0.053407416
0.12404813 -0.060253039 0.050521441
0.087563865 -0.052856565 0.052746296
0.12508675 -0.059501857 0.052365556
-0.30493528 -0.0097281644 0.052791696
-0.29442996 -0.0099097947 0.057424009
0.042384408 -0.097604543 0.066595636
0.034941249 -0.065395817 0.063858777
0.075144708 -0.052950412 0.062723339
-0.33413988 -0.011318155 0.064385459
-0.31786323 -0.013822131 0.062334474
-0.30699894 -0.013359871 0.067699827
-0.29647306 -0.012633394 0.06537021
-0.30015188 -0.009153761 0.062544823
0.032329641 -0.11101103 0.072008461
0.050060943 -0.11047612 0.073187701
0.098015532 -0.061399706 0.071364686
0.059006281 -0.053318761 0.076567821
0.071370311 -0.052052829 0.07430587
-0.33279166 -0.011068676 0.07943555
-0.32476926 -0.011921749 0.077338904
-0.3102524 -0.012865095 0.071364835
-0.30714995 -0.0081916703 0.074348673
0.015972262 -0.06120139 0.083287522
0.041233547 -0.062196109 0.088964596
0.060638949 -0.063185647 0.080531128
0.078355968 -0.061308321 0.085137285
-0.34924304 -0.0092046615 0.083047718
-0.31031135 -0.0077240672 0.083644778
0.1199509 -0.090468533 0.095262095
0.12280206 -0.091512352 0.091805071
0.13721535 -0.094959632 0.098251969
0.085359827 -0.080644026 0.097429425
0.11531422 -0.080983818 0.09218733
0.13172489 -0.088888541 0.090664968
0.12060398 -0.07595849 0.093537398
0.012922475 -0.060652114 0.093017817
0.032596663 -0.061329387 0.094298258
0.053544439 -0.060978994 0.098445445
0.13824639 -0.067794196 0.099892959
0.067982435 -0.050468232 0.093594417
0.074482277 -0.059822775 0.098669827
-0.34143209 -0.0072630122 0.090670429
0.11521355 -0.09792877 0.10162041
0.12805992 -0.083369859 0.10569641
0.042364847 -0.074091122 0.10818775
0.076296538 -0.076029658 0.10799839
0.13064007 -0.07011234 0.10008918
0.027824635 -0.060126882 0.10301014
0.03927514 -0.062737748 0.10577518
0.063769102 -0.062731683 0.10331434
0.096849784 -0.064468831 0.10450432
0.10647979 -0.064095132 0.10673285
0.11155281 -0.062897459 0.10248539
0.12109327 -0.065097772 0.10831756
0.026643779 -0.058622774 0.1065978
0.042170499 -0.058684181 0.10410642
0.065577582 -0.058438376 0.10233374
0.084747225 -0.058635756 0.10449083
0.095620066 -0.050311044 0.10261208
0.086500183 -0.049145333 0.10823873
-0.34536278 -0.0061215982 0.10123459
0.11439551 -0.093562163 0.11708997
0.12414421 -0.09325844 0.11745138
0.084648274 -0.087895393 0.11234468
0.10236098 -0.085676551 0.11915771
0.12387215 -0.082109861 0.11847162
0.095129564 -0.073769562 0.11775982
0.11660734 -0.07311435 0.1158876
0.12101728 -0.071027867 0.11354942
0.036985602 -0.061029561 0.11076386
0.05239439 -0.060182579 0.11179014
0.11024163 -0.067118749 0.11540534
0.12146968 -0.069418043 0.11028187
0.035939872 -0.056201458 0.11405022
0.041969799 -0.051463958 0.1170915
0.053467546 -0.059302364 0.11201331
0.079940408 -0.048287649 0.11636443
-0.35994047 -0.0027260731 0.11087581
-0.35901606 0.0066737202 0.11286249
-0.36123785 0.012546222 0.11553216
-0.35806674 0.038111325 0.11424926
0.12210754 -0.085568234 0.1218659
0.13458095 -0.084309846 0.12131079
0.017343616 -0.054585394 0.12986182
0.069986314 -0.056633767 0.12336553
0.068645611 -0.04787571 0.12215611
0.08291097 -0.048615798 0.12167379
0.025217924 -0.052729003 0.13087109
0.060225092 -0.055636838 0.13616732
0.046593208 -0.048092525 0.13634144
0.057273239 -0.047683083 0.13032228
0.013704985 -0.05480931 0.14865458
0.038628805 -0.047353528 0.14940467
-0.012294383 -0.058651336 0.15290873
-0.004501617 -0.059734374 0.15478227
0.01227565 -0.054478951 0.15165278
0.058492441 -0.045636389 0.15476647
0.065792084 -0.046298146 0.1521778
0.0045755482 -0.052568436 0.16943417
0.040488526 -0.045769598 0.16137372
0.0024680924 -0.049703334 0.17864296
0.055760056 -0.04808107 0.17870414
0.022594593 -0.050859429 0.18971528
0.01588681 -0.050665423 0.19287719
0.02027211 -0.05025905 0.19535291
-0.023628442 -0.052415505 0.20075139
-0.013501167 -0.047951724 0.20911385
0.01190481 -0.043956202 0.20319505
-0.013461643 -0.048179947 0.21000312
0.019979015 -0.04195597 0.21177569
0.039216045 -0.043912448 0.21398962
-0.00060348213 -0.042500526 0.22747539
0.012500481 -0.040800996 0.22816448
-0.0061186859 -0.041782267 0.23849177
0.014918704 -0.045309477 0.23541245
-0.014923314 -0.042682536 0.25556999
-0.0036623189 -0.043611702 0.25781018
-0.0011683404 -0.038495138 0.25976446
0.0019172388 -0.03926374 0.25053623
-0.024655478 -0.043161713 0.26191431
-0.0014933664 -0.04247953 0.26477814
-0.030446101 -0.040332519 0.27704263
-0.034012102 -0.040394239 0.28740925
-0.036032744 -0.040033914 0.29139674
-0.023543835 -0.035863437 0.29878277
-0.04670893 -0.037840787 0.30215535
