# .PCD v0.7 - Point Cloud Data file format
VERSION 0.7
FIELDS x y z
SIZE 4 4 4
TYPE F F F
COUNT 1 1 1
WIDTH 864
HEIGHT 1
VIEWPOINT 0 0 0 1 0 0 0
POINTS 864
DATA ascii
0.11542748 0.056925785 -0.42016467
0.13940348 0.058098666 -0.42045647
0.11061134 0.063760281 -0.42027831
0.14989346 0.06150341 -0.42034903
0.11948377 0.056720007 -0.41361666
0.12860407 0.056710485 -0.41331363
0.10873172 0.067799538 -0.41215491
0.11635848 0.06880343 -0.4194417
0.1583834 0.065467782 -0.41062158
0.14386415 0.056425147 -0.40423375
0.16057113 0.056649022 -0.40956682
0.067200169 0.056151256 -0.39551878
0.074131325 0.056092277 -0.39364216
0.15431683 0.056069735 -0.39292392
0.090455025 0.064310171 -0.39173019
0.16029814 0.055718288 -0.38109243
0.13540301 0.06809891 -0.38434932
0.1401214 0.055606995 -0.3781988
0.10434891 0.066034622 -0.37351653
0.12644896 0.067888081 -0.37088892
0.066446066 0.057682335 -0.36826104
0.10817102 0.05532055 -0.36908367
0.076189622 0.06030146 -0.36590451
0.1239174 0.067700028 -0.36695653
0.1507263 0.065699354 -0.36650059
0.082784481 0.054934561 -0.35680288
0.11168449 0.054939762 -0.35696658
0.14786033 0.05473879 -0.35057122
0.072149612 0.054606482 -0.34636316
0.087440841 0.054594256 -0.34597418
0.095102862 0.054425549 -0.34060591
0.15616804 0.05448962 -0.34264433
0.16418618 0.058015503 -0.3440327
0.11710441 0.066639692 -0.3486034
0.15760981 0.063687332 -0.34818661
0.073826164 0.056581177 -0.33639857
0.10723677 0.054406375 -0.33999324
0.11396723 0.054291565 -0.33633983
0.14759207 0.05424957 -0.33500341
0.16010663 0.062791154 -0.33945435
0.11733653 0.053834211 -0.32178599
0.11088082 0.06518057 -0.32120985
0.13121963 0.066369906 -0.3232947
0.14426982 0.06544669 -0.32762468
0.16185194 0.061677501 -0.32144177
0.068920173 0.053518452 -0.31174144
0.071469486 0.053729869 -0.31846893
0.145335 0.053537697 -0.31235045
0.092951067 0.062388137 -0.31627956
0.10401163 0.064087763 -0.313081
0.066456042 0.053335052 -0.30590558
0.077487335 0.053400818 -0.3079983
0.10265459 0.053421989 -0.30867136
0.12653314 0.053246111 -0.30307186
0.13822383 0.053360809 -0.30672169
0.16413862 0.05829348 -0.30010292
0.12959567 0.06580817 -0.30470493
0.076903239 0.055229887 -0.29414093
0.10770857 0.052556977 -0.2811456
0.15127693 0.052563403 -0.28135043
0.098383784 0.062226832 -0.28063694
0.066211879 0.054671478 -0.27468491
0.073031142 0.056579243 -0.27365068
0.12765506 0.052317925 -0.27353558
0.15118854 0.052278571 -0.27228704
0.16335967 0.058969941 -0.2732144
0.13127223 0.064916082 -0.27709702
0.077158622 0.054477528 -0.26572675
0.088495143 0.059936851 -0.26465327
0.10590814 0.052019447 -0.26404104
0.13307586 0.052040812 -0.26471746
0.14192311 0.052046746 -0.26490957
0.10606962 0.062839016 -0.26495212
0.12017133 0.064114399 -0.26035234
0.13601163 0.064251244 -0.26310754
0.063735053 0.053422749 -0.2585358
0.12401588 0.051713664 -0.25430706
0.11969957 0.064003475 -0.25780499
0.13771948 0.063960359 -0.25762412
0.086194471 0.051378798 -0.2436564
0.094242647 0.051304698 -0.24129787
0.1315323 0.051467177 -0.2464634
0.15504581 0.051517956 -0.24808422
0.10226989 0.061780136 -0.24778207
0.067758478 0.051252063 -0.23962362
0.10445648 0.051137455 -0.23597543
0.12107287 0.050997011 -0.23150203
0.1378627 0.051089182 -0.23443505
0.16402502 0.056437343 -0.23105091
0.15371898 0.060991216 -0.23507322
0.13175946 0.04810597 -0.22199829
0.098636925 0.050837737 -0.2264386
0.10661232 0.050873466 -0.22757497
0.12362447 0.050806321 -0.22543404
0.13234308 0.050799597 -0.22521994
0.16354549 0.052743509 -0.22491914
0.10196546 0.060875125 -0.22040549
0.12402882 0.063128546 -0.22126625
0.13267183 0.063173622 -0.2233462
0.131818 0.046235695 -0.21835589
0.073657021 0.050619464 -0.21949407
0.094009481 0.055200249 -0.21664888
0.1104134 0.050368622 -0.21151038
0.16414383 0.05363797 -0.21502322
0.064278394 0.05007939 -0.20230842
0.07262367 0.054168932 -0.20043257
0.087564677 0.057745107 -0.20115657
0.13944164 0.050214071 -0.20659271
0.14698747 0.050241992 -0.20748158
0.16127416 0.050279867 -0.20339516
0.13467935 0.06260822 -0.20821671
0.14540477 0.061505787 -0.20599794
0.13322294 0.038065083 -0.19356744
0.088795714 0.049732413 -0.19126695
0.10218939 0.04970482 -0.19038796
0.11521667 0.049772304 -0.19253527
0.15148205 0.049971152 -0.19886373
0.12097796 0.062022433 -0.1921715
0.13911542 0.061879836 -0.19521166
0.14258683 0.061470836 -0.19344223
0.11201803 0.049519528 -0.1844919
0.1508977 0.049507324 -0.18410444
0.063890062 0.051281292 -0.18891786
0.086726107 0.056923952 -0.18065582
0.16412205 0.054617368 -0.18058607
0.11958031 0.061641652 -0.18296823
0.14352715 0.061115555 -0.18562967
-0.15240358 0.018948402 -0.17371139
-0.19544324 0.023764696 -0.176107
-0.17660888 0.025000099 -0.17396943
-0.16020466 0.025000099 -0.17131716
0.12901551 0.031411782 -0.17839292
0.071696252 0.049171053 -0.17340469
0.084083572 0.04933244 -0.17853983
0.1218095 0.049231604 -0.17533004
0.13817267 0.049173024 -0.17346592
0.14916816 0.049294021 -0.17731677
0.15687862 0.058339085 -0.17263871
0.10714316 0.060174633 -0.17587882
0.12649003 0.061637405 -0.17198877
-0.19215311 0.0189484 -0.1698335
-0.1676724 0.025000099 -0.16007902
-0.15264219 0.025000099 -0.16314265
0.13196331 0.025278414 -0.16185832
0.092144005 0.048938975 -0.16601914
0.12800333 0.061340429 -0.1625388
0.14036149 0.060680546 -0.1605604
-0.15413068 0.0189484 -0.15501754
-0.20363501 0.02419637 -0.15376423
0.12380986 0.026312612 -0.15936662
0.095599756 0.048486482 -0.15162027
0.10243589 0.048570681 -0.1542993
0.084703684 0.055672128 -0.15439714
0.10634362 0.05942063 -0.15508251
0.11021873 0.059738666 -0.15025014
-0.18395691 0.0189484 -0.14213678
-0.17590153 0.0189484 -0.1472851
-0.14332806 0.019755246 -0.14640839
0.12357064 0.020679675 -0.14483757
0.073042288 0.048330471 -0.14665699
0.093203939 0.048173457 -0.14165968
0.11792286 0.048215546 -0.14299867
0.071181402 0.052110061 -0.14762278
0.086763844 0.055683434 -0.14092842
0.1055191 0.059097983 -0.14811209
0.11355349 0.059829064 -0.14202642
0.13385387 0.060738508 -0.14729209
0.14035778 0.06029655 -0.14832871
-0.1920291 0.0189484 -0.13616382
-0.16834597 0.0189484 -0.13235927
-0.19808179 0.025000099 -0.13804877
0.08566542 0.0479092 -0.13325119
0.092799358 0.056627288 -0.13312493
0.15572378 0.057460401 -0.13620403
0.12350068 0.060277727 -0.13160795
-0.18443826 0.0189484 -0.12348286
-0.17280835 0.0189484 -0.12243931
-0.16552222 0.0189484 -0.12696159
-0.16370943 0.025000099 -0.12974194
0.11719343 0.047544599 -0.12164897
0.14126368 0.04756739 -0.12237429
0.1551435 0.047520705 -0.12088924
0.067079149 0.050192885 -0.12391465
0.14758539 0.058717955 -0.12753104
0.15769663 0.056574121 -0.1225991
-0.17011359 0.0189484 -0.1151419
-0.20363501 0.020077685 -0.11791421
-0.19554774 0.025000099 -0.11115699
-0.18568863 0.025000099 -0.11040007
0.068339244 0.047475953 -0.11946557
0.15076196 0.047413126 -0.11746575
0.10832854 0.058494419 -0.11767492
0.11797743 0.059339255 -0.11397414
0.16289552 0.054554395 -0.11629348
0.12611887 0.0053777224 -0.10556948
-0.18941124 0.0189484 -0.10932724
-0.17479359 0.0189484 -0.10543154
-0.15200865 0.0189484 -0.10192728
-0.20363501 0.021478351 -0.10226343
-0.1617597 0.025000099 -0.10009398
-0.15194747 0.025000099 -0.10011728
-0.14447816 0.024854042 -0.10371528
0.1442268 0.046887517 -0.10074043
0.16197875 0.047484472 -0.10514874
0.08186847 0.053380854 -0.10185555
0.094254792 0.056007754 -0.10481532
-0.19976452 0.0189484 -0.095220223
-0.15096843 0.0189484 -0.095656373
0.066305831 0.048994519 -0.093146734
0.081896104 0.046679091 -0.094108365
0.14066477 -0.085330397 -0.088491917
0.15188421 -0.089516491 -0.087352
0.14948638 -0.070363589 -0.080325864
0.11319189 -0.064556092 -0.085909851
0.11161779 -0.053995185 -0.08351846
0.14303431 -0.035179473 -0.087660864
-0.15067235 0.0189484 -0.08629103
-0.18629865 0.025000099 -0.080922477
-0.17784187 0.025000099 -0.089483693
0.12874685 0.046274692 -0.081240073
0.073382311 0.050844349 -0.087959766
0.092611134 0.055152435 -0.087329052
0.13083304 0.058833402 -0.083175614
0.15477836 0.05599853 -0.083142258
0.12708955 -0.093807332 -0.076095007
0.11917253 -0.088105515 -0.073746733
0.17015862 -0.085778967 -0.072626472
-0.19158846 0.0189484 -0.079284623
-0.15467513 0.0189484 -0.075678244
0.1054107 0.04592257 -0.070035465
0.12639005 0.0462339 -0.07994207
0.16413897 0.049272619 -0.077296242
0.08131057 0.052265815 -0.070504226
0.093238026 0.054901168 -0.075554773
0.10397162 0.056742929 -0.079552762
0.11650543 0.057915669 -0.072595596
0.1595127 0.054666914 -0.076110952
0.13998345 -0.096019171 -0.067444637
0.11781891 -0.085120335 -0.069062233
0.16588239 -0.074471541 -0.060904186
0.13774526 -0.069917589 -0.066329703
0.13659048 -0.053103071 -0.065379292
0.1577457 -0.054043029 -0.061770413
0.14511222 -0.047307201 -0.062498178
0.17006394 -0.042991586 -0.065908074
0.13124333 -0.031934403 -0.066330478
0.14393468 -0.034092046 -0.061480619
0.15148383 -0.037967116 -0.060453162
0.24691552 0.0065372717 -0.064855747
-0.17385395 0.0189484 -0.064135432
-0.16740732 0.0189484 -0.064866737
-0.14508514 0.018985119 -0.066161215
0.14461222 0.045863986 -0.068171322
0.1315324 -0.081789583 -0.059986271
0.1336197 -0.051504817 -0.05783553
0.14959204 -0.043303926 -0.051746652
-0.20008616 0.0189484 -0.053513076
-0.18746716 0.0189484 -0.054723389
-0.16678548 0.018948399 -0.059822358
-0.20363501 0.020508628 -0.057709172
-0.14442675 0.02271088 -0.053860083
0.069990724 0.048989102 -0.058800604
0.12707111 0.045431174 -0.054399092
0.14689097 0.045571778 -0.058873121
0.11541668 0.057215586 -0.053218313
0.13827166 -0.034836356 -0.043179888
0.13119484 -0.018878177 -0.042819019
0.24636853 0.0044375192 -0.046716806
-0.1959825 0.025000099 -0.04306034
-0.14838661 0.025000099 -0.043539662
0.066109292 0.047315955 -0.04527216
0.12662435 0.045141879 -0.045193762
0.12939447 0.057568155 -0.042502876
0.07504528 -0.020168521 -0.03323105
0.11747875 -0.022199228 -0.031673077
0.13684431 -0.024181638 -0.033756386
0.14307541 -0.022500278 -0.035725873
0.15119702 -0.027316056 -0.03942126
0.019561708 -0.013923066 -0.030944485
0.033360928 -0.018213546 -0.032259222
0.053712644 -0.014811367 -0.033244804
0.072033189 -0.015129794 -0.0351323
0.093304619 -0.018600162 -0.0351323
0.1293676 -0.014007739 -0.0351323
0.16346788 -0.017619286 -0.0351323
0.17341322 -0.015589253 -0.034821846
0.18380435 -0.016400989 -0.031108802
0.038721345 -0.0088823196 -0.032989789
0.057795469 -0.007597046 -0.035025965
0.11123905 -0.00083564734 -0.0351323
0.1369867 -0.0025771279 -0.0351323
0.2146031 -0.00066951383 -0.033195585
0.097538382 0.0051478688 -0.0351323
0.17453843 0.0083679287 -0.0351323
0.18862775 0.0026307702 -0.033655208
0.22681986 0.0058440124 -0.034036472
0.2460708 0.0056137973 -0.035508927
-0.16242412 0.0189484 -0.037468176
0.023082588 0.015436746 -0.031320341
0.036181975 0.015350105 -0.032718711
0.06819772 0.013297017 -0.0351323
0.11870419 0.017127769 -0.0351323
0.13357216 0.015300645 -0.0351323
0.14440036 0.017219765 -0.0351323
0.17205426 0.013195725 -0.0351323
0.087455139 0.02369478 -0.0351323
0.15492265 0.027013626 -0.0351323
0.079110511 0.030663142 -0.0351323
0.040817168 0.040043466 -0.033213519
0.067982443 0.04497407 -0.039854132
0.076124027 0.044960644 -0.039426699
0.10450227 0.045799531 -0.033406485
0.14920881 0.044706184 -0.031329695
0.089465454 0.053064805 -0.039861403
0.09715271 0.054389946 -0.037843671
0.10250289 0.055201713 -0.037366852
0.091836214 -0.020739028 -0.021978529
0.116546 -0.022017639 -0.026823666
0.15761203 -0.022664107 -0.026128706
-0.055540457 -0.01270212 -0.022927282
-0.023919985 -0.015958961 -0.026127465
0.0066306069 -0.01643626 -0.029564083
-0.082945645 -0.0089167953 -0.020001762
-0.024160391 -0.0062544439 -0.026277125
-0.012545507 -0.0094671305 -0.027517021
0.22110526 -0.0073759439 -0.029657248
0.20336655 0.002796886 -0.028209122
-0.1701653 0.0189484 -0.024935324
-0.15239953 0.0189484 -0.025482636
-0.065194197 0.01553732 -0.02189674
-0.038053021 0.01339437 -0.024794079
-0.023556884 0.013948916 -0.02634155
-0.0041659102 0.014078235 -0.028411547
0.21553847 0.017981969 -0.029572189
0.23865113 0.018163808 -0.027838632
0.24728087 0.013857356 -0.021627488
-0.18410718 0.025000099 -0.029064802
-0.043199759 0.026540875 -0.024244661
-0.041970883 0.034742229 -0.024375843
-0.017591935 0.031716686 -0.02697831
-0.0081633553 0.039248757 -0.023387272
0.025525769 0.042747468 -0.024757408
0.049299996 0.045216497 -0.020429704
0.056946829 0.04601064 -0.024098864
0.064745963 0.046530541 -0.029596651
0.13716003 0.046782203 -0.024403237
0.10282023 -0.021037411 -0.013679028
0.11247297 -0.021327199 -0.016870733
0.014951747 -0.017489012 -0.014311086
0.045597412 -0.018695239 -0.01509885
0.055632927 -0.019090248 -0.013242056
0.18532389 -0.016279913 -0.015683828
-0.17601119 -0.0096872337 -0.01006696
-0.15539277 -0.0083727865 -0.012267988
-0.1328868 -0.0057691424 -0.014670517
-0.096383058 -0.0040815398 -0.018567311
0.20550701 -0.0095768049 -0.015001453
0.21632509 -0.00052082801 -0.0108245
0.23542899 0.006158811 -0.015012541
-0.17249097 0.0189484 -0.012310335
-0.11252652 0.014811337 -0.016843988
-0.089930847 0.010582214 -0.019256089
0.21724784 0.015158847 -0.0175659
-0.15492253 0.022928124 -0.012318188
-0.1136329 0.028295463 -0.014992029
0.21087343 0.0261878 -0.012639343
-0.078643262 0.03192924 -0.014188988
-0.063687496 0.033482432 -0.015088476
-0.057473116 0.034127813 -0.016927958
0.18622221 0.03181453 -0.018771481
0.0070175268 0.040825352 -0.016038219
0.013245355 0.04147213 -0.015302791
0.047057904 0.044983651 -0.019813364
0.065215066 0.044278536 -0.017721983
0.073708966 0.046782237 -0.013310526
0.081840649 0.045558818 -0.019393794
0.092720829 0.044313483 -0.018833796
0.13419637 0.044200055 -0.015224598
0.16420451 0.048859075 -0.015898122
0.13622355 0.056376167 -0.013691243
0.1440171 0.055710457 -0.015712053
0.16088668 0.052381262 -0.014544249
0.11552421 -0.021447288 -0.0027164589
0.12391753 -0.021739539 -0.00022465645
-0.15236369 -0.010903407 -0.0094722407
-0.14777115 -0.011084172 -0.0091477875
-0.10869108 -0.012622401 -0.0031547637
-0.039339714 -0.015352095 -0.0076844972
-0.013987195 -0.016349986 -0.0062787868
-0.0043516867 -0.016729241 -0.0077786674
0.014894996 -0.017486822 -0.00076543761
0.040095679 -0.018478734 -0.0012830477
0.074146383 -0.019818867 -0.0090951333
0.21881784 -0.015693 -0.005216423
0.23614642 -0.0144058 -6.3263894e-10
0.24000023 -0.01235265 -0.0046334886
-0.18926254 -0.0059582372 -0.0086523695
0.21635219 -0.00052082801 -0.0045549423
0.22422692 -0.004118911 -6.3263894e-10
0.23418874 -0.0080167037 -6.32639e-10
0.24014488 -0.0099281725 -0.0010233782
-0.20363501 0.006632959 -0.0061497637
-0.1857837 0.0021091844 -0.009023739
-0.17871514 0.0027953899 -0.0097783115
0.24183486 0.0062082699 -0.0017724161
-0.14770751 0.0189484 -0.0055325939
0.25160107 0.010141097 -0.0053881202
-0.17660999 0.025321867 -0.0041067819
-0.14245133 0.022779735 -0.006152926
0.18895337 0.029504046 -0.0073970738
0.19825086 0.022553302 -0.0086578447
0.23463565 0.02336714 -6.3263905e-10
0.24020106 0.020849377 -0.0063034655
-0.19427617 0.034374025 -0.0035592699
-0.15457815 0.034244653 -0.0035592699
-0.13561672 0.035660826 -0.0035592699
-0.074723572 0.035150185 -0.0035592699
-0.026975736 0.037295066 -0.0085050818
-0.15954201 0.047741592 -0.0035592699
-0.13462403 0.043011956 -0.0035592699
-0.09900485 0.041122094 -0.00018972816
0.036522925 0.043889597 -0.0016708088
0.073406801 0.048323084 -0.007516094
0.091221645 0.049258225 -0.00017397413
0.1045395 0.046782359 -0.00016463206
0.11700542 0.045176301 -4.5507441e-05
0.13459608 0.043852549 -0.0041668508
0.15406963 0.045697287 -0.0031131741
-0.18783984 0.056297757 -0.0035592699
0.09399309 0.052682366 -0.00039983387
-0.18748543 0.061358012 -0.0035592699
-0.17074314 0.061940622 -0.0035592699
-0.15579084 0.077306226 -0.0035592699
-0.19336012 0.085243247 -0.0035592699
-0.16765961 0.08675018 -0.0035592699
-0.15818968 0.089420788 -0.0035592699
0.094410069 -0.020616328 0.0097060045
0.10261459 -0.020939229 0.0050638192
-0.16146375 -0.010545235 0.0053936215
-0.13661224 -0.011523405 0.004511131
-0.10416671 -0.012800474 0.0066370144
-0.081673659 -0.013685821 0.0040869624
-0.079667047 -0.013764788 0.0084425285
-0.014221909 -0.016340764 0.00080456107
0.00015590247 -0.016906662 0.0075311298
0.014306081 -0.017463643 0.00098173646
0.037021969 -0.018357744 0.0029929429
0.074724659 -0.019841626 0.0089070238
0.1749053 -0.019660529 0.0062396782
0.18311314 -0.016997255 0.0063998769
-0.17937446 -0.0048590768 0.0097083282
0.2249957 -0.00052082801 0.0030967891
-0.19594207 0.013835539 0.0079397513
-0.18239385 0.015238957 0.0056991223
0.23724598 0.016910478 0.0028950081
0.24621499 0.011766434 0.0092871748
-0.14372918 0.028758908 0.0035592699
-0.13743049 0.02582402 0.0035684807
0.19963127 0.022553302 0.0041560619
-0.19293477 0.0384987 0.0035592699
-0.18590873 0.030023159 0.0035592699
-0.049790371 0.033201531 0.0013089229
-0.038638886 0.036083553 0.00015908477
-0.013291806 0.038716141 0.004085795
0.18491039 0.032924138 0.0047390182
-0.16834605 0.04278826 0.0035592699
-0.13836217 0.047613624 0.0026656436
0.022453608 0.042428453 0.0058573494
0.030839607 0.043299295 0.00068848603
0.047245886 0.045003202 0.0074344995
0.063199073 0.046659876 0.00068703032
0.081208237 0.046782266 0.0077360147
0.099887967 0.043751225 0.00094253547
0.1095352 0.046782382 0.0098544406
0.11770079 0.046782412 0.0033799999
0.1243706 0.046827991 0.0013221232
-0.19239816 0.055362768 0.0035592699
-0.15968615 0.057335809 0.0035592699
0.085696504 0.051130757 0.0039511505
0.10474832 0.052203275 0.0035494054
0.11061226 0.051575407 0.00024704429
0.14513993 0.052815951 0.0017961783
-0.1879351 0.075201243 0.0035592699
-0.17501502 0.079060137 0.0035592699
-0.16655581 0.077764466 0.0035592699
0.12130401 -0.021674756 0.010022619
0.131733 -0.022341417 0.013694085
0.16123261 -0.021729499 0.016120931
-0.14745912 -0.010912209 0.013115257
-0.090047196 -0.013096955 0.019243916
-0.084379815 -0.013579274 0.013283517
-0.0046660807 -0.016716838 0.016495854
0.029209742 -0.018050205 0.017243573
0.047402963 -0.018766316 0.011912976
0.064782888 -0.019450337 0.01906424
0.19590829 -0.012845495 0.011674252
0.2027635 -0.010621084 0.018546956
0.22162074 -0.015276227 0.016339168
-0.13733195 -0.0084319599 0.014196321
-0.12875329 -0.0029598668 0.015112083
0.21642083 -0.0061895484 0.017878227
-0.17261398 0.0024134624 0.010430001
-0.12958589 0.00042623887 0.015023205
0.20740446 0.0078215338 0.0175664
0.22613762 0.0064458172 0.0175664
-0.17249575 0.010470658 0.010442621
-0.16085351 0.014787543 0.011685419
0.22115259 0.012964274 0.0175664
-0.15556054 0.023458187 0.012250436
-0.14135984 0.025415942 0.011979285
-0.13922282 0.02563788 0.012175292
-0.044216525 0.03550455 0.015325347
0.1785982 0.038264226 0.01637915
0.049385361 0.045225382 0.010172405
0.051454045 0.045440204 0.018614359
0.063530639 0.046694294 0.016678106
0.072448194 0.047475837 0.015539008
0.083758503 0.044349249 0.019972004
0.11169899 0.046782393 0.01122262
0.15401569 0.053960219 0.013288024
0.1044394 -0.021886837 0.02963616
0.15574673 -0.021729499 0.027939972
-0.052997034 -0.013019926 0.023198983
-0.014542919 -0.012938981 0.027303919
0.024111038 -0.017849473 0.02976452
0.054404646 -0.019041872 0.021460941
-0.048985101 -0.0032537705 0.023627251
0.20094235 -0.0033365274 0.028153859
0.22347116 -0.0010214889 0.021000387
0.2329787 -0.0098183621 0.027644424
-0.074920386 0.003297369 0.020858688
-0.01094201 0.0002206238 0.02768831
0.010688085 0.0052274521 0.0299973
-0.027633211 0.0109131 0.025906544
-0.0052939467 0.012270119 0.028291237
0.20706189 0.013425469 0.029759998
0.23964536 0.018681386 0.025693076
-0.18469967 0.025000099 0.023327557
-0.17018411 0.025000099 0.020214962
-0.15318775 0.025000099 0.029110286
-0.14431244 0.024524027 0.023824111
-0.07756713 0.021868523 0.020576153
-0.035522133 0.021776704 0.025064409
-0.012349401 0.022015149 0.027538074
-0.0025713723 0.029074805 0.028581867
0.0093055107 0.024922047 0.029849712
0.20977718 0.021730302 0.025798053
0.21678068 0.022990009 0.021797813
0.23015548 0.023450723 0.02348005
-0.014223081 0.032155592 0.02733806
0.18179128 0.035563245 0.026172157
0.012103867 0.041353561 0.028008373
0.027217461 0.042923152 0.026965316
0.071157575 0.04812178 0.020923356
0.10193966 0.046782348 0.021581123
0.1188501 0.044557385 0.026594933
0.14297867 0.046782345 0.022397507
0.16133036 0.046782359 0.020941194
0.1183075 0.056547761 0.024268113
0.12483989 0.057100426 0.027826179
0.14660163 0.055596713 0.023296531
0.12869209 -0.031873602 0.03987528
0.14201282 -0.02609005 0.034828227
0.039190751 -0.010410026 0.033039931
0.08374235 -0.010962024 0.0351323
0.14028051 -0.01917159 0.0351323
0.18254966 -0.015412565 0.031753127
0.046872374 -0.0039381757 0.033859935
0.046217248 0.0045913355 0.03379
0.10704471 5.5472367e-05 0.0351323
0.11879015 0.0029872092 0.0351323
0.14029756 0.0030115433 0.0351323
0.15237409 0.0051693255 0.0351323
0.17075197 0.0052306708 0.0351323
0.19504139 0.0080478676 0.032665506
0.24755359 0.0072803656 0.036823452
-0.20155022 0.0189484 0.031340592
-0.18917406 0.0189484 0.03438608
0.038964394 0.017885666 0.033015769
0.07625255 0.015470246 0.0351323
0.11929478 0.0182667 0.0351323
0.16555397 0.011936995 0.0351323
0.18107508 0.012191233 0.0351323
0.19275312 0.012540248 0.034432128
0.20707548 0.014956362 0.030092163
0.22029008 0.011147598 0.033202689
-0.17988655 0.025000099 0.035939161
-0.15067701 0.025000099 0.039524496
0.077760562 0.027227031 0.0351323
0.089334741 0.023919469 0.0351323
0.12651886 0.023423046 0.0351323
0.15786794 0.022334088 0.0351323
0.17662215 0.02604828 0.0351323
0.18397759 0.029278625 0.0351323
0.20771536 0.020792697 0.030088149
0.011265513 0.034474827 0.030058941
0.032512989 0.030704822 0.032327089
0.053651784 0.039672308 0.034583632
0.10672548 0.032893818 0.0351323
0.15955773 0.03015458 0.0351323
0.077509247 0.046782222 0.033032104
0.092911825 0.044769466 0.033343378
0.1101149 0.044872489 0.036621649
0.12465889 0.045752227 0.0351323
0.13733123 0.044907328 0.037730142
0.14903672 0.042122722 0.0351323
0.086893305 0.052253813 0.030927135
0.12000037 0.056988109 0.03393193
0.16101618 0.052945741 0.033558808
0.12603492 -0.028714247 0.040511217
0.24712835 0.0056823967 0.046908807
0.072644912 0.047382519 0.045042295
0.094607487 0.045099434 0.043843001
0.12367106 0.057490565 0.044024378
0.13446969 0.057547018 0.046757068
0.14730969 0.056283593 0.048691474
0.13970467 -0.084864572 0.059981979
0.14115208 -0.052401304 0.058752496
0.13573413 -0.047525838 0.054997921
0.12827554 -0.015615627 0.051614348
-0.18484408 0.0189484 0.052384906
-0.17816779 0.0189484 0.059390236
-0.15150633 0.0189484 0.051071987
0.063778624 0.045621581 0.051052146
0.090112537 0.045448326 0.054944828
0.12518953 0.045328908 0.051144976
0.16019963 0.045513388 0.056778714
0.078959361 0.051346868 0.058666877
0.12222939 0.057762347 0.054110292
0.14028028 0.05735014 0.054304078
0.1390416 -0.086301953 0.060119577
0.16544987 -0.084862545 0.063443705
0.11019593 -0.069939911 0.06886863
0.14324397 -0.060870931 0.06912595
0.15623057 -0.063667782 0.064346179
0.12934692 -0.059848685 0.063048348
0.1715413 -0.054210261 0.061832752
0.16283835 -0.037486557 0.064340979
-0.16903479 0.0189484 0.068182409
-0.19967346 0.025000099 0.063109942
0.065128669 0.045836098 0.067284465
0.15128301 0.045630757 0.060749881
0.15420367 0.055568893 0.065707579
0.1772826 -0.051831193 0.072841823
0.11585679 -0.041817725 0.070785843
0.12616259 -0.031805046 0.076596282
0.15859596 -0.03060933 0.074422888
0.15710457 -0.029986605 0.074972279
0.24612394 0.0089786192 0.071451567
-0.19582841 0.0189484 0.077048026
-0.17581542 0.0189484 0.075187258
-0.20347741 0.025000099 0.079154223
-0.14489515 0.024938125 0.070865236
0.076630518 0.046226315 0.079701066
0.089555681 0.045930542 0.070289172
0.098102264 0.046197083 0.078770623
0.10684989 0.046084046 0.075173736
0.15509495 0.046126794 0.076534249
0.088548258 0.053940721 0.073692821
0.13298644 0.058415193 0.072312959
0.15321311 0.055911522 0.070122726
0.16058882 0.054339785 0.074445702
0.11511105 -0.08124198 0.081428781
0.13335945 -0.086407691 0.088056274
0.12204525 -0.077568747 0.087971903
0.12148869 -0.04167312 0.086021125
-0.19688752 0.0189484 0.085104443
-0.20180807 0.025000099 0.081204437
0.066706061 0.048820749 0.08380577
0.1284571 0.046294082 0.081857197
0.14619491 0.046454169 0.086951151
0.093298137 0.055072352 0.08063972
0.10377766 0.056812759 0.082680203
0.11873822 0.058495898 0.085111573
0.15193488 0.056752913 0.088796601
-0.19518358 0.0189484 0.095479488
-0.18153042 0.0189484 0.096900187
-0.16489834 0.0189484 0.098274589
-0.16608372 0.025000099 0.090972528
0.11574055 0.046649676 0.093172222
0.14332485 0.0466718 0.093876228
0.12382727 0.059055157 0.092052072
0.14637765 0.058027815 0.09953624
-0.19292569 0.0189484 0.10623734
-0.20351422 0.025000099 0.1032309
-0.18511371 0.025000099 0.10874894
-0.17614177 0.025000099 0.10955542
-0.14618725 0.022565495 0.10178925
0.16062236 0.047189251 0.10833709
0.096518427 0.05634746 0.10352386
0.15447995 0.05688832 0.10950176
-0.19524755 0.0189484 0.11509395
-0.20318595 0.025000099 0.11092594
0.064192139 0.047351915 0.11551873
0.077217877 0.047468878 0.11924042
0.16223641 0.047855042 0.1132106
0.10680449 0.058238987 0.11593587
-0.19243851 0.018948402 0.12286624
-0.20125997 0.025000099 0.12781584
0.10620935 0.047764659 0.12865138
0.11510757 0.059442341 0.12489858
0.1600472 0.055996098 0.12274945
0.12345771 0.01515485 0.13070969
-0.16061039 0.025000099 0.13996343
-0.14532933 0.024995513 0.13263533
0.16169035 0.048453972 0.13980296
0.070110798 0.051521823 0.13833541
0.090194225 0.056337148 0.13959637
0.1397718 0.059959937 0.13590313
-0.18159357 0.0189484 0.14884201
0.10773424 0.048353486 0.14738806
0.1129387 0.048365049 0.14775608
0.12554091 0.048140138 0.14059934
0.064008638 0.05004755 0.14853111
0.095686264 0.057566747 0.14677097
0.12154972 0.060460206 0.14131704
-0.18763429 0.025000099 0.15591277
0.12817509 0.023293866 0.15650828
0.153433 0.048554998 0.15380092
0.080222167 0.054697637 0.15594211
0.15279412 0.058538459 0.15130693
0.12563114 0.060919225 0.15275329
-0.18500012 0.025000099 0.16372931
-0.1706211 0.025000099 0.16308835
0.12446567 0.024756623 0.16045165
0.067673817 0.048872147 0.16389331
0.08780627 0.048924655 0.16556355
0.12898567 0.048975542 0.16718212
0.065822318 0.051079862 0.16410774
0.080394328 0.055102475 0.16754983
0.16256785 0.056213632 0.16108376
-0.19733213 0.019663684 0.176108
0.13556896 0.049080722 0.17052905
0.077428848 0.0544958 0.17112184
0.091090038 0.057750821 0.1791804
0.11523339 0.060998924 0.17409477
0.12715676 0.061666206 0.17290553
0.12813611 0.036485612 0.18679211
0.13064964 0.033642378 0.18440625
0.10795151 0.049668834 0.18924284
0.15055773 0.04968334 0.1897051
0.16337296 0.051201232 0.18661091
0.12926243 0.039920088 0.19605091
0.14109054 0.049902774 0.19668701
0.085565835 0.057034735 0.19196884
0.16342464 0.056398116 0.19407308
0.073111624 0.050148245 0.20449957
0.080197453 0.056106903 0.20096844
0.10276231 0.050090384 0.20265704
0.14785774 0.050053339 0.20147866
0.12825055 0.048350293 0.21989849
0.070939764 0.050538428 0.21691543
0.14109004 0.050331298 0.21032299
0.15902172 0.059253819 0.21807858
0.09826152 0.060005803 0.21061623
0.12544164 0.062956959 0.21397808
0.15326551 0.060304098 0.21023956
0.071224131 0.050919108 0.22902882
0.085884362 0.054657128 0.22476652
0.16224527 0.058571488 0.22822732
0.096559368 0.060247846 0.22741753
0.067760453 0.051124945 0.23557867
0.071428113 0.055069346 0.23961554
0.15958807 0.051242236 0.23931098
0.074276872 0.055986486 0.24410301
0.094789736 0.051480878 0.24690415
0.10315884 0.051276043 0.24038553
0.12589601 0.051505506 0.24768317
0.14217936 0.051556684 0.24931544
0.1620093 0.051753595 0.24059042
0.066310309 0.051617689 0.25125805
0.074965611 0.056440182 0.25295746
0.11823446 0.051838707 0.25828615
0.095924556 0.061021574 0.25583285
0.16073409 0.060029339 0.25667092
0.083652869 0.055588663 0.26528168
0.14110999 0.052000336 0.2634294
0.15022905 0.052095138 0.26644996
0.16198997 0.052620552 0.26843241
0.12546568 0.064617224 0.26680857
0.15714994 0.061284643 0.26835811
0.078168824 0.057794921 0.27010366
0.1211851 0.052431189 0.27713978
0.14415683 0.052297242 0.27288046
0.15552346 0.052511148 0.27968824
0.11935535 0.064476997 0.27378964
0.14306477 0.063931376 0.27339917
0.065949947 0.052760459 0.28762177
0.099363551 0.052695382 0.28555045
0.11540647 0.052648108 0.28404242
0.14698936 0.052621342 0.28319389
0.096705914 0.06204056 0.28367919
0.14004594 0.064728439 0.28838298
0.15796833 0.061698984 0.28754786
0.067062944 0.055662192 0.29810542
0.13765852 0.052897744 0.29198623
0.15480947 0.052924979 0.29285643
0.12095138 0.065148637 0.29170191
0.16242456 0.060608365 0.2974236
0.066430621 0.055595338 0.30199957
0.075167999 0.0533395 0.30604708
0.082930043 0.059916861 0.30197555
0.092770249 0.053387906 0.30758747
0.14529309 0.053294308 0.30460557
0.066378437 0.053551488 0.31279275
0.084217645 0.053473178 0.31030089
0.15126833 0.053776689 0.31995809
0.10229026 0.064034551 0.31942382
0.12537301 0.066098839 0.31395453
0.06480068 0.055347249 0.32468906
0.16012783 0.053967062 0.32601649
0.081375532 0.060308717 0.32595125
0.11628429 0.0658352 0.32518864
0.13295612 0.054211944 0.3338061
0.097411774 0.063772485 0.33501646
0.077517055 0.054574043 0.34533095
0.16397241 0.057394683 0.34985405
0.11254312 0.066162109 0.34691018
0.16188666 0.062343866 0.34310386
0.11721935 0.054778893 0.35184735
0.15667379 0.054837905 0.35372701
0.086649448 0.062512681 0.35900581
0.073327817 0.059482004 0.36329463
0.085507795 0.055058558 0.36074844
0.094464019 0.055084612 0.36157763
0.12058578 0.055283092 0.3678917
0.15182206 0.055048198 0.36041704
0.11316686 0.066894338 0.3681342
0.063727297 0.056684427 0.37604043
0.077320203 0.05551219 0.37518322
0.080797836 0.055509552 0.37509933
0.16333419 0.057858713 0.37244034
0.089528538 0.063549273 0.37310258
0.09492372 0.064502083 0.37153369
0.10576215 0.066322178 0.37701651
0.11039086 0.066949435 0.37912643
0.12143307 0.067877918 0.37758595
0.14620046 0.066817924 0.3784022
0.086295173 0.05571961 0.38178366
0.11903293 0.055681568 0.38057178
0.15377009 0.055813357 0.38476557
0.080111042 0.061748825 0.38113564
0.094896533 0.064911008 0.3846913
0.077711128 0.05619593 0.39694035
0.12019415 0.056112751 0.39429274
0.1407015 0.056186281 0.39663255
0.082480654 0.062629253 0.39161122
0.065024354 0.056478903 0.40594473
0.078844085 0.05642239 0.4041464
0.1267653 0.056568749 0.40880328
0.13563165 0.056583099 0.40926003
0.15462007 0.056423943 0.40419534
0.16385552 0.058972687 0.40903708
0.082143165 0.063032985 0.40695614
0.096701957 0.065838881 0.40456516
0.11129203 0.067908913 0.40665805
0.073912054 0.056899756 0.4193365
0.085430637 0.056649283 0.41136634
0.076255813 0.061758466 0.41173059
0.090630427 0.065230697 0.41996443
0.067656979 0.057860289 0.42046386
0.079487272 0.056927975 0.4202345
0.10807271 0.061690148 0.42034352
0.15554634 0.061547861 0.42034787
