# .PCD v0.7 - Point Cloud Data file format
VERSION 0.7
FIELDS x y z
SIZE 4 4 4
TYPE F F F
COUNT 1 1 1
WIDTH 838
HEIGHT 1
VIEWPOINT 0 0 0 1 0 0 0
POINTS 838
DATA ascii
-0.19121161 -0.040123999 -0.34628966
-0.21525994 -0.040123999 -0.33722126
-0.18437363 -0.040123999 -0.33758697
-0.1597051 -0.040123999 -0.3316541
-0.2408589 -0.040213168 -0.3254275
-0.23833032 -0.04021344 -0.3230612
-0.21204467 -0.040123999 -0.32505646
-0.1886583 -0.040123999 -0.32780448
-0.19025952 -0.040123999 -0.31118119
-0.17522629 -0.040123999 -0.31909746
-0.16331823 -0.040123999 -0.31281552
-0.14900546 -0.040123999 -0.31145245
-0.20325476 -0.040143773 -0.30572876
-0.18433952 -0.040123999 -0.30507016
-0.17107472 -0.040123999 -0.30139646
-0.21409845 -0.040229276 -0.29792112
-0.22185484 -0.040337548 -0.28488672
-0.21521494 -0.040300425 -0.28570977
-0.15288772 -0.040123999 -0.28795993
-0.1245873 -0.040123999 -0.28212398
-0.16095188 -0.040123999 -0.27706975
-0.21489429 -0.040399861 -0.26692107
-0.14507797 -0.040123999 -0.26944405
-0.20724769 -0.040448241 -0.250918
-0.18868887 -0.040331524 -0.25563002
-0.17925881 -0.040301032 -0.25266379
-0.14812149 -0.040139407 -0.25420719
-0.19586754 -0.040419891 -0.24576856
-0.18436269 -0.040372536 -0.24403915
-0.15446822 -0.040222552 -0.24455565
-0.12744142 -0.040123999 -0.24075089
-0.17209211 -0.040359527 -0.23521963
-0.13513218 -0.040169589 -0.23669729
-0.15904443 -0.040347919 -0.22542882
-0.12707186 -0.04024278 -0.21570064
-0.11716007 -0.040209685 -0.21277826
-0.08933416 -0.040123999 -0.21928352
-0.087757073 -0.040123999 -0.20948255
-0.059158146 -0.040123999 -0.20165527
-0.27434149 -0.040162835 -0.19242673
-0.1712604 -0.040553566 -0.19836649
-0.12690246 -0.040360861 -0.19358249
-0.28501976 -0.040244076 -0.18347171
-0.1581594 -0.040566824 -0.18390073
-0.11741538 -0.04037232 -0.18276124
-0.10424254 -0.040322021 -0.18005149
-0.091142327 -0.040233001 -0.1846108
-0.072120577 -0.040123999 -0.18832418
-0.28315946 -0.040344462 -0.17240648
-0.11864986 -0.040441372 -0.17104776
-0.084945984 -0.040232994 -0.17893681
-0.11554787 -0.040462118 -0.16434747
-0.09684737 -0.040344384 -0.16911863
-0.05956427 -0.040188812 -0.16390702
-0.026079539 -0.040123999 -0.16035575
-0.15088402 -0.040689237 -0.15446787
-0.12287025 -0.04052566 -0.15923619
-0.10044017 -0.040437337 -0.1551201
-0.071095347 -0.040306848 -0.15251428
-0.26475775 -0.040628776 -0.1410657
-0.24691263 -0.040565699 -0.14801861
-0.13311729 -0.040668812 -0.14199491
-0.073507905 -0.040347576 -0.14714862
-0.044278864 -0.04021785 -0.14450637
-0.29273209 -0.040830843 -0.13340077
-0.27376825 -0.040749069 -0.13335566
-0.25951394 -0.040700722 -0.13313533
-0.24684161 -0.040692449 -0.13404721
-0.23387475 -0.040688761 -0.1344537
-0.11499445 -0.040634435 -0.13178921
-0.082821339 -0.040450297 -0.13657226
-0.047870532 -0.040297922 -0.13290183
-0.27537498 -0.040924706 -0.12076115
-0.23566462 -0.040745724 -0.12817512
-0.10161197 -0.040593371 -0.12717073
-0.091397896 -0.04058136 -0.12004913
-0.056021884 -0.04036545 -0.12780717
-0.0038596466 -0.04014099 -0.12178113
-0.050713114 -0.040419873 -0.11282256
-0.26692572 -0.041091923 -0.10553388
-0.12223893 -0.04080667 -0.10638884
-0.092041492 -0.040680971 -0.10211124
-0.039500531 -0.040415373 -0.10338941
-0.0086811706 -0.040241972 -0.10741485
-0.25203261 -0.041165814 -0.095184937
-0.22200142 -0.041013263 -0.098683879
-0.08148662 -0.040681023 -0.092434451
-0.074688628 -0.040620882 -0.097394139
-0.066735789 -0.040570974 -0.099391989
-0.056251422 -0.040516194 -0.099979147
-0.024118446 -0.040398214 -0.092492543
-0.01025109 -0.0403121 -0.095808119
0.019937903 -0.040188562 -0.091136299
-0.049589843 -0.040576234 -0.08270967
-0.021309609 -0.040418152 -0.086211458
-0.0090161078 -0.040360481 -0.08567816
-0.20916651 -0.041228805 -0.076576784
-0.10312142 -0.040874414 -0.076278076
-0.067707635 -0.04068834 -0.078452185
-0.043586902 -0.040582035 -0.07613261
0.013164354 -0.04042469 -0.070544437
0.023705209 -0.040240981 -0.077935882
0.059639912 -0.041071862 -0.071858697
0.026192054 -0.050367042 -0.061557971
-0.22972684 -0.041428186 -0.068357512
-0.11693589 -0.041097865 -0.06243268
-0.094904117 -0.041526079 -0.063852906
-0.045368411 -0.040635005 -0.067912318
-0.025190704 -0.046553247 -0.062414002
0.014153097 -0.044212949 -0.066412807
-0.077493131 -0.037383176 -0.062067788
-0.028016303 -0.039971564 -0.068375386
0.054549668 -0.035117287 -0.065658718
0.067575842 -0.032925874 -0.061205961
0.005399134 -0.028368816 -0.060258385
0.045655355 -0.029410908 -0.064563505
0.051757067 -0.02541757 -0.061151598
-0.056157283 -0.055535555 -0.050353542
0.013977617 -0.059477381 -0.050594062
0.037942335 -0.057773393 -0.054077532
0.046518955 -0.053549152 -0.05935375
0.076478489 -0.057110008 -0.054108262
0.091980278 -0.059858274 -0.05008183
0.13116857 -0.05684467 -0.051008303
-0.24565251 -0.041518372 -0.053679481
-0.23064402 -0.0418077 -0.050340999
-0.21013042 -0.040717766 -0.050739501
-0.16608593 -0.043034386 -0.053918395
-0.11446298 -0.041243233 -0.059443787
-0.094967104 -0.04812073 -0.056055099
-0.083257981 -0.041470125 -0.052646339
-0.057014406 -0.041806631 -0.051803317
-0.041783966 -0.04493833 -0.057258666
-0.032484494 -0.042337954 -0.051432204
0.006701665 -0.040403854 -0.050437294
0.045450274 -0.0418077 -0.050945166
0.098562419 -0.043169331 -0.057310238
0.10241906 -0.043242052 -0.055747576
-0.138814 -0.037614759 -0.057561681
-0.11343957 -0.031249173 -0.053390358
-0.10332245 -0.033778001 -0.056605093
-0.050274983 -0.031530887 -0.058532968
-0.084952831 -0.02804341 -0.052501164
-0.041014258 -0.026271177 -0.054491378
-0.026914008 -0.025265073 -0.054770075
0.02202747 -0.021300495 -0.054868907
0.049483631 -0.020096803 -0.05458476
0.0510795 -0.025146371 -0.050606869
0.074230582 -0.026624205 -0.051359955
-0.047411099 -0.060152974 -0.045783814
-0.014808852 -0.062491015 -0.045331873
0.018830638 -0.067553639 -0.04191095
0.022582171 -0.063015312 -0.047218449
0.051721718 -0.065084666 -0.043425877
0.073953383 -0.064364605 -0.046177249
0.088467017 -0.061992384 -0.047920756
0.12293442 -0.06035585 -0.047605127
0.161797 -0.062494531 -0.042807795
-0.20275097 -0.051259723 -0.041372806
-0.18651623 -0.053685248 -0.040628698
-0.16489756 -0.054882564 -0.042370141
-0.12806305 -0.057313502 -0.04136109
-0.11345148 -0.054732569 -0.043096781
-0.077291854 -0.058641516 -0.040467996
-0.064505115 -0.057409618 -0.047712538
-0.050101586 -0.050884876 -0.04568436
-0.022151489 -0.058975078 -0.048766352
-0.014279747 -0.054142129 -0.043493845
0.040365089 -0.050140359 -0.046185058
0.14625043 -0.05397407 -0.046868175
0.15429176 -0.05904692 -0.047117375
-0.21564776 -0.045589164 -0.048125681
-0.20408832 -0.047262955 -0.048120115
-0.18201616 -0.041807696 -0.045826986
-0.14911914 -0.0418077 -0.044953521
-0.11865367 -0.043280959 -0.047594402
-0.10428514 -0.0418077 -0.046336673
-0.037042446 -0.045151602 -0.049540013
-0.0081083812 -0.041807696 -0.049227934
-0.24638012 -0.03190811 -0.042258278
-0.23594016 -0.032684993 -0.0430062
-0.17828095 -0.030154593 -0.04733609
-0.13978973 -0.030031318 -0.040451452
-0.11319101 -0.031917747 -0.042267557
-0.066660956 -0.032076064 -0.042419974
-0.051152155 -0.034957025 -0.045193527
-0.013817025 -0.037331402 -0.047479384
-0.0083018579 -0.03494614 -0.045183048
0.013513878 -0.038924187 -0.049012784
0.027079763 -0.033395723 -0.043690432
0.032814842 -0.035951667 -0.046151087
0.042375512 -0.033556856 -0.043845557
0.099432945 -0.032498125 -0.045867689
0.10382491 -0.03423433 -0.046002597
-0.16220547 -0.028453847 -0.046938375
0.064616442 -0.02025409 -0.047126751
-0.078352712 -0.017560629 -0.043555651
-0.061416697 -0.014625154 -0.040205102
-0.0078286305 -0.014695199 -0.043208871
0.017962886 -0.018960919 -0.047979895
0.028747283 -0.016579106 -0.041571457
0.041137744 -0.016283257 -0.040775456
0.055508859 -0.012884732 -0.041070823
0.061269611 -0.019137975 -0.047341071
-0.041596513 -0.074487366 -0.030187339
-0.033975206 -0.073084444 -0.030755071
-0.00048871338 -0.076638594 -0.030505784
0.02908434 -0.073954493 -0.030169958
0.051079504 -0.071174912 -0.03205258
0.068576761 -0.076617509 -0.032850914
0.11665872 -0.072938159 -0.033967379
0.15938288 -0.071024425 -0.033448119
0.17683733 -0.071367189 -0.031982224
-0.093872033 -0.065405719 -0.035774678
-0.080434769 -0.064253531 -0.039029803
-0.064514697 -0.067551494 -0.034476001
-0.026471671 -0.065181591 -0.036069769
0.14520323 -0.066895232 -0.038931984
0.18490936 -0.063396603 -0.038998041
-0.14811677 -0.059422269 -0.039501626
-0.12571612 -0.059978899 -0.039568599
-0.031566519 -0.059580185 -0.039836738
0.16374333 -0.0521654 -0.037863053
-0.24551195 -0.0418077 -0.033669099
-0.23268916 -0.0418077 -0.03285753
-0.22953048 -0.0418077 -0.033010472
-0.13024946 -0.0418077 -0.036860138
-0.067988217 -0.0418077 -0.038146049
-0.057727817 -0.0418077 -0.034115527
-0.022720242 -0.0418077 -0.036058195
0.035811216 -0.0418077 -0.033110097
0.15092026 -0.048065227 -0.039599679
0.14006919 -0.038087301 -0.031062752
-0.25512904 -0.026753936 -0.037885744
-0.23166457 -0.022645082 -0.035989854
-0.22225973 -0.023036789 -0.035347208
-0.1938737 -0.025060557 -0.035666008
-0.13310841 -0.026169345 -0.03673346
-0.12265764 -0.02365192 -0.034309886
-0.10175113 -0.029004391 -0.039462812
0.0065054549 -0.027521506 -0.03803521
0.014058569 -0.022873934 -0.033560909
0.044936273 -0.020605527 -0.03137707
0.10660255 -0.028327646 -0.035352901
-0.25665963 -0.019580301 -0.030390065
-0.24465728 -0.01821599 -0.030723857
-0.17179745 -0.019660264 -0.037733112
-0.14732474 -0.015120176 -0.035592351
-0.12881023 -0.012423681 -0.033188652
-0.092030913 -0.015073578 -0.039237641
-0.084630318 -0.014706318 -0.036532585
-0.075300835 -0.013471064 -0.036050115
-0.061439596 -0.012352029 -0.036720209
-0.057715744 -0.011161114 -0.035096355
-0.046741962 -0.012901268 -0.036636338
-0.021721821 -0.016377555 -0.031618692
0.00033046119 -0.01938737 -0.030204326
0.013453304 -0.015252103 -0.03800106
0.02035201 -0.010542812 -0.03837546
0.048635788 -0.014030218 -0.034713492
-0.016047094 -0.0091371657 -0.034378737
-0.0015308335 -0.006485939 -0.031405423
0.045540608 -0.083046779 -0.026403613
0.067465 -0.085806154 -0.022675971
0.090534136 -0.085444734 -0.021646507
0.13880052 -0.08114326 -0.023445103
-0.065185279 -0.071812525 -0.022335604
-0.031461839 -0.075951532 -0.028826941
0.01487867 -0.078067988 -0.029927835
0.040875439 -0.074937776 -0.029508695
0.17516239 -0.075422108 -0.02756558
0.18420875 -0.076296471 -0.026029104
0.23262155 -0.074672125 -0.024834005
-0.11371274 -0.064562351 -0.024034016
0.23134577 -0.066154733 -0.021582564
-0.20503156 -0.050918996 -0.024095016
0.18920502 -0.053608187 -0.021164238
-0.24514768 -0.044925503 -0.029168284
-0.23912534 -0.045825258 -0.023360882
-0.21945237 -0.048764467 -0.027620688
-0.1541796 -0.0418077 -0.023280554
-0.061968535 -0.0418077 -0.020245016
0.036973037 -0.0418077 -0.024780359
0.042771086 -0.041807704 -0.023027882
0.17674388 -0.047265667 -0.024036754
0.18229116 -0.04865054 -0.022968777
-0.23790957 -0.030596517 -0.021796759
-0.15542388 -0.034769975 -0.023350572
0.13929319 -0.03547718 -0.026962217
0.15230364 -0.038988512 -0.024664316
-0.24439247 -0.017181933 -0.028081112
-0.19824 -0.011069501 -0.026747469
-0.18157151 -0.01066718 -0.021809235
-0.10125093 -0.010716882 -0.025798719
-0.090869963 -0.016571756 -0.027493682
-0.04648833 -0.011711961 -0.028476048
-0.032790624 -0.012647479 -0.023715707
-0.0056399619 -0.01337349 -0.025926083
0.038999207 -0.014378398 -0.028514855
0.083324902 -0.017141802 -0.028832497
0.10005558 -0.019503107 -0.02110735
-0.22108169 -0.0087886928 -0.022630638
-0.20806444 -0.0091248536 -0.023849398
-0.19486076 -0.0063176183 -0.020554595
-0.10384637 -0.0046948064 -0.02324252
-0.067919053 -0.0025997777 -0.022235334
-0.059680648 -0.0025320034 -0.022591148
0.04547539 -0.088345625 -0.014244014
0.063252859 -0.089182898 -0.012471111
0.0708519 -0.082583547 -0.012101756
0.086977184 -0.089182898 -0.012207787
0.094702147 -0.089182898 -0.015055066
0.10409968 -0.088375859 -0.015829677
0.11829787 -0.089047976 -0.015905557
0.12429702 -0.088008866 -0.013838155
0.14337136 -0.086435013 -0.017261777
0.15108937 -0.087877102 -0.013964174
0.16610587 -0.088333003 -0.011936783
0.17219707 -0.086460494 -0.015443543
0.19557685 -0.082899228 -0.01796215
0.26457641 -0.082180202 -0.01447949
0.0510795 -0.076283492 -0.016653117
-0.11962125 -0.063679598 -0.013132931
0.051079504 -0.065177783 -0.015612956
0.23243384 -0.064918175 -0.017395699
0.24680729 -0.067458749 -0.01468885
-0.20851834 -0.050398059 -0.01600237
-0.17091279 -0.05601646 -0.018373745
0.21556747 -0.056472011 -0.0145067
-0.25478536 -0.042430341 -0.016131956
-0.19385219 -0.0418077 -0.012300805
-0.12943116 -0.041807696 -0.019254703
-0.014707937 -0.0418077 -0.015496646
0.0080490718 -0.0418077 -0.015554253
0.031279553 -0.0418077 -0.013394786
0.0510795 -0.047785066 -0.010682479
-0.0894676 -0.035541188 -0.010081411
0.13960887 -0.032304656 -0.018823721
-0.23569496 -0.026483983 -0.018967625
-0.13853873 -0.022028018 -0.014165228
-0.11843672 -0.027346678 -0.019561097
0.11006931 -0.021959197 -0.018152935
0.12148148 -0.026353505 -0.019398309
0.13155182 -0.02768358 -0.01417651
-0.12947033 -0.019824155 -0.01001136
-0.25236028 -0.007758833 -0.010093519
-0.24201871 -0.0084356498 -0.013866062
-0.23285902 -0.0067923176 -0.017069409
-0.22344111 -0.0084967501 -0.019825295
-0.20687236 -0.006131798 -0.019217726
-0.19789496 -0.0058142426 -0.019358333
-0.17684962 -0.0073311985 -0.017166726
-0.15680598 -0.0084356498 -0.015805479
-0.14686307 -0.0034669011 -0.016650835
-0.12508821 -0.0030232864 -0.019104563
-0.10585077 -0.0084356498 -0.013226958
-0.08636301 -0.0084356498 -0.016436668
-0.074909136 -0.00059570884 -0.015669325
-0.026785709 -0.0084356498 -0.014066568
-0.016363528 -0.0084356498 -0.014367309
0.079476885 -0.0064771217 -0.01590234
-0.018293828 0.0013188417 -0.017125983
0.029619196 0.0034145378 -0.01528341
0.052006602 0.0026177568 -0.012561731
-0.0058036665 -0.080684356 -0.004138445
0.067787237 -0.089182898 -0.0058377543
0.12730464 -0.089182898 -0.0064192843
0.18185407 -0.083497629 -0.0061235782
0.19505717 -0.089182898 -0.0058301901
0.21865039 -0.083637476 -0.0018406952
0.24539718 -0.085176125 -0.0019627907
0.26857528 -0.088029198 -0.0052705305
0.29444575 -0.089182898 -0.0036333581
-0.044272743 -0.074936934 -0.001065149
0.063330628 -0.075593844 -0.0055790646
0.072082207 -0.073904835 -0.0024727439
0.090586886 -0.077504128 -2.2435794e-05
0.25538409 -0.070922673 -0.0013954365
0.27428547 -0.073436439 -0.0069080796
0.29286566 -0.078504771 -0.0037599679
-0.14234896 -0.060283996 -0.0010365075
-0.11978298 -0.063655436 -0.005902146
0.21795166 -0.061129186 -0.007438831
-0.26425892 -0.0418077 -0.0067388392
-0.24897581 -0.044353567 -0.0083627179
-0.19331315 -0.0418077 -0.009509638
-0.15634874 -0.041807696 -0.0061014956
-0.11331981 -0.0418077 -0.0062162718
-0.091612458 -0.0418077 -0.0013018167
-0.063265748 -0.0418077 -0.0090047084
-0.032911941 -0.0418077 -0.0065854387
0.19947226 -0.048973504 -0.0095224474
-0.0894676 -0.036165141 -0.00023182735
-0.0894676 -0.025649006 -0.0033185687
0.12841831 -0.020597629 -0.0018775562
0.14994927 -0.027931781 -0.00056905008
-0.1312578 -0.018693229 -0.0072723581
-0.091362178 -0.018739739 -0.0069374992
0.10201645 -0.012039075 -0.0059080189
0.11630287 -0.017691264 -0.0013667617
-0.25599214 -0.0079388395 -0.0075314711
-0.24321325 -0.0080161421 -0.0051549454
-0.21534732 -0.0084356498 -0.0023390935
-0.17764449 -0.0040560393 -0.00193187
-0.16496533 -0.0084356498 -0.0059814523
-0.14893153 -0.0084356498 -0.0017318432
-0.1328938 -0.0084356498 -0.0089792982
-0.11464644 -0.0065245065 -0.0049806931
-0.10373692 -0.00039316597 -0.0015718576
0.029241895 -0.0084356498 -0.0014001457
0.077776223 -0.0059570093 -0.0023899525
0.086950652 -0.0070769833 -0.0077015059
0.019952381 0.0043178294 -0.0070771612
0.025046021 0.0045145866 -0.0070496961
0.038695466 0.005860365 -0.0016814317
0.024416076 -0.085199289 0.0033874142
0.034448955 -0.086698234 0.0061214832
0.044088211 -0.088138379 0.0051558032
0.10476437 -0.089182898 0.0031085471
0.12057116 -0.084917307 0.0055289897
0.13683251 -0.089182898 0.00041209487
0.17556113 -0.086223774 0.003421064
0.19805101 -0.088689432 0.0057890955
0.20360607 -0.087296128 0.0027520724
0.21439071 -0.086119615 0.0050996668
0.22210382 -0.08888334 0.0031907416
0.065508485 -0.078319654 0.0023502419
0.077107728 -0.077723607 0.0010339799
0.26197022 -0.071205929 0.0059786616
0.27609146 -0.078354321 0.0081223864
-0.11025969 -0.065078244 0.0073120818
-0.10284293 -0.066186339 0.0090634394
-0.097186953 -0.067031369 0.0057339454
0.22724485 -0.060421422 0.0093323821
0.24672434 -0.066102937 0.0068311668
-0.1496262 -0.059196748 0.0058644367
0.18846509 -0.053414598 0.00064367813
0.19336665 -0.054696996 0.0099833542
-0.25232798 -0.042705107 0.006579957
-0.23951462 -0.0418077 0.0019222754
-0.081755631 -0.0418077 0.0060765925
-0.0026708101 -0.0418077 0.0023454921
0.051079497 -0.046002898 0.0071977116
0.15556654 -0.032690641 0.007043913
0.1555291 -0.029884791 0.0028924255
-0.21106011 -0.019581702 0.008661787
-0.19647489 -0.019734416 0.0090923663
-0.12282546 -0.017913021 0.0015964193
-0.10251989 -0.017848011 0.00077389489
-0.2452573 -0.0074068727 0.0073615802
-0.23660742 -0.0077339127 0.0030361074
-0.20475772 -0.0053997599 0.0085246768
-0.19769582 -0.0084356498 0.0090358835
-0.18289834 -0.0084356498 0.0041797338
-0.15440097 -0.0029041357 0.0014689529
-0.14318196 -0.0023481222 0.0071677575
-0.12566447 -0.0014799892 0.0044382745
-0.1165081 -0.0084356498 0.0075588305
-0.10586797 -0.0084356498 0.0044710673
-0.084472477 -0.0084356498 0.0048444979
-0.053384218 -0.0084356498 0.0086027887
0.0012407117 -0.0084356498 0.0079620797
0.065927699 -0.0032096747 0.0085528102
-0.23068039 0.0058561838 0.0011942121
-0.19631729 0.0028495537 0.0015287497
-0.09391427 9.3698502e-05 0.0089980289
-0.078036807 0.00088059815 0.0085228728
-0.0078286305 0.0042135096 0.0079411566
0.0048253685 0.0044136611 0.0086466223
0.016597455 0.0050685448 0.0073709688
-0.2601679 0.011241963 0.00096472353
-0.25852028 0.017722117 0.0011167177
-0.24697852 0.015459675 0.0012033735
-0.23749778 0.011741287 0.0012363828
-0.22750711 0.011215439 0.001340794
-0.16289276 0.019257372 0.0022509163
-0.12494412 0.011093756 0.00248293
-0.22314358 0.029699266 0.0017704623
-0.21119951 0.022509931 0.0017606404
-0.19137698 0.021251891 0.0019633963
-0.18261227 0.022764582 0.0020955089
-0.21671802 0.032445151 0.0019009109
-0.18961681 0.03035854 0.002170593
-0.25834271 0.071084887 0.0022139531
0.039515667 -0.087455221 0.013122565
0.085315049 -0.086190015 0.016868023
0.17826554 -0.084683858 0.013554639
0.18779044 -0.080997482 0.018979354
-0.035732884 -0.076212816 0.019857274
0.051079497 -0.075514004 0.013501928
0.0510795 -0.061614566 0.016011737
0.22365856 -0.064141609 0.016955139
0.23792508 -0.068811283 0.015447021
-0.2095851 -0.05023868 0.011403131
-0.18060151 -0.054568931 0.010296499
-0.23693174 -0.0418077 0.010285974
-0.22481559 -0.0418077 0.018154828
-0.08971779 -0.0418077 0.010575591
0.042192511 -0.0418077 0.019856848
0.17936441 -0.047817487 0.017772542
0.18306622 -0.04919013 0.017790519
-0.0894676 -0.037605185 0.014878124
-0.26596346 -0.024658188 0.016533609
-0.22304738 -0.023510512 0.015303699
-0.17049718 -0.028191008 0.019496778
-0.14661027 -0.023837326 0.015778715
-0.10585436 -0.022248309 0.013469121
0.10328692 -0.014788411 0.012159311
-0.25818759 -0.0080476822 0.017612698
-0.2170871 -0.0060107899 0.014865016
-0.2007484 -0.0084356498 0.018760374
-0.1359532 -0.0084356498 0.013426976
-0.11408472 -0.0084356498 0.01036345
-0.093962744 -0.0022624123 0.019318277
-0.068056703 -0.0084356498 0.012518456
-0.058115102 -0.0084356498 0.013125939
-0.011472519 -0.0084356498 0.017454941
0.074033275 -0.0045465026 0.015712857
0.082100667 -0.0086066527 0.019358838
-0.085929215 0.00048948359 0.010468854
-0.075464435 0.00036189123 0.012972049
0.041325469 0.0035283226 0.015309392
0.0510795 0.00082538917 0.015438629
0.0056899004 -0.081767589 0.020421572
0.018900922 -0.08059562 0.02401956
0.050196439 -0.081300355 0.026860984
-0.021549717 -0.077828199 0.02294609
-0.0080314875 -0.079397067 0.021725126
0.00084856502 -0.075385474 0.024847116
0.015193982 -0.079921439 0.021317039
0.17990692 -0.078580886 0.02341271
0.20246436 -0.076924041 0.024716042
0.23198427 -0.072834201 0.021395512
-0.11878838 -0.06380403 0.023100927
-0.10213871 -0.066291556 0.022826537
0.19546492 -0.061034963 0.026763968
0.21392155 -0.06318675 0.020474428
-0.25433597 -0.0418077 0.025845878
-0.24546166 -0.0418077 0.028625131
-0.23360884 -0.046649445 0.029744774
-0.20611554 -0.0418077 0.022662956
-0.16425343 -0.0418077 0.021276429
-0.15923642 -0.041807696 0.024405435
-0.1400988 -0.0418077 0.026313607
-0.052440263 -0.0418077 0.026295612
-0.035332605 -0.0418077 0.029427636
-0.017815502 -0.0418077 0.027320478
0.027377695 -0.041807696 0.029451199
0.041473292 -0.0418077 0.027932432
0.15620685 -0.042903185 0.02384449
0.16510811 -0.047973808 0.02648736
-0.25808868 -0.031098481 0.02105312
-0.18897867 -0.037848227 0.023247324
-0.11778791 -0.035584304 0.022828903
0.13357247 -0.036804348 0.027597617
-0.2465644 -0.013448131 0.026157234
-0.23346899 -0.014833031 0.026462197
-0.21424836 -0.014483765 0.026144758
-0.19881159 -0.012311515 0.024170462
-0.11529416 -0.018117735 0.029447569
-0.017346606 -0.014151669 0.025842927
-0.0049292184 -0.015895046 0.027427431
0.01500329 -0.017147832 0.028566055
0.029069636 -0.014624198 0.026272396
0.032259237 -0.014286786 0.02596573
0.050555196 -0.015969487 0.027495088
-0.24473625 -0.0090993522 0.021251019
-0.20044917 -0.0063074492 0.020850901
-0.19925208 -0.0075321812 0.021252431
-0.15430532 -0.008616006 0.020811722
-0.14429033 -0.0064533814 0.024203779
-0.08522743 -0.0040067621 0.023701817
-0.077175319 -0.009598596 0.021704769
-0.067533553 -0.0026248449 0.023261115
-0.054862011 -0.0054201586 0.028233515
-0.047942482 -0.0056094551 0.028781826
0.0044761524 -0.0011520294 0.026219478
0.027281631 -0.0059022647 0.025435716
0.054546297 -0.0040522036 0.029291611
0.06653221 -0.0038571025 0.022086039
0.024495305 0.0010744408 0.021292891
0.029612349 -0.075423487 0.033826593
0.03039016 -0.075284638 0.034152389
0.096629851 -0.0735851 0.036736544
0.15143475 -0.071037591 0.037491135
-0.13299493 -0.060645871 0.036318075
-0.11117435 -0.063117109 0.035952646
-0.10533836 -0.061493516 0.036524132
-0.093420774 -0.06433025 0.036237445
-0.084900588 -0.064400055 0.035119757
-0.068989262 -0.06502261 0.033671711
-0.018432269 -0.061918467 0.035327684
0.16966498 -0.062640436 0.038130596
-0.0088094976 -0.058033582 0.038351059
0.0063696876 -0.059912477 0.036888827
0.02388037 -0.058809958 0.037746854
0.036250379 -0.056296796 0.039702702
0.051079497 -0.051511947 0.038533244
0.18401182 -0.059437945 0.030374922
-0.25280344 -0.043781705 0.032734614
-0.22636937 -0.047731046 0.036830809
-0.21499774 -0.049430013 0.030120065
-0.19149117 -0.041807704 0.039975137
-0.10406446 -0.0418077 0.031092808
-0.084389471 -0.0418077 0.031102913
0.0051178895 -0.0418077 0.039622787
0.02965796 -0.0418077 0.03604354
0.11251678 -0.037126984 0.039149284
0.12794173 -0.039624617 0.034672905
-0.25576302 -0.026671387 0.037221741
-0.24546561 -0.026399989 0.037982751
-0.22491908 -0.025901213 0.036521751
-0.17593627 -0.024476249 0.035226643
-0.11968261 -0.022159887 0.033121366
-0.081562668 -0.025024038 0.035724513
-0.066894799 -0.025532113 0.036186285
-0.047480218 -0.022578167 0.033501528
-0.037327215 -0.02802692 0.038453743
0.039615162 -0.024062496 0.03485059
0.097415693 -0.026196307 0.032135371
-0.19921556 -0.017972708 0.032591105
-0.15105997 -0.016591657 0.035336908
-0.12026475 -0.013795393 0.033715695
-0.11144052 -0.012974525 0.033229269
-0.10769922 -0.019383093 0.03059762
-0.049154539 -0.013525489 0.03695529
-0.030043012 -0.019111704 0.030350961
-0.0082083698 -0.011165623 0.036579639
0.0079422854 -0.010955748 0.037181459
-0.0551899 -0.0072482219 0.030118592
0.082047254 -0.071640298 0.040815875
-0.049271107 -0.061495837 0.046495266
-0.012027442 -0.066947483 0.042348441
0.0024020746 -0.066506386 0.044908687
0.13996285 -0.063743748 0.049996827
0.16611215 -0.068257399 0.041117046
-0.18899752 -0.050921332 0.043886106
-0.16488537 -0.050523847 0.044195443
-0.14990295 -0.05357556 0.046584692
-0.12456298 -0.054366976 0.048525535
-0.048892424 -0.054249074 0.041296326
-0.26028183 -0.0418077 0.048299529
-0.23069447 -0.041807696 0.043341666
-0.18116374 -0.048445553 0.045812856
-0.14434424 -0.043130204 0.048070028
-0.13227575 -0.045460891 0.048135638
-0.12556961 -0.0418077 0.040086616
-0.11125943 -0.049393579 0.045075063
-0.10023826 -0.0418077 0.043271624
-0.085434265 -0.040444165 0.049739424
-0.061566696 -0.049712308 0.044827018
-0.055052016 -0.0418077 0.040157232
-0.034502394 -0.0418077 0.043263461
-0.029586509 -0.04846064 0.045801114
-0.0014991648 -0.044138934 0.04916444
-0.25113469 -0.037199907 0.0471754
-0.24742976 -0.030503189 0.040704355
-0.23196633 -0.035345312 0.045105219
-0.21570916 -0.03375084 0.044946987
-0.1637498 -0.030105537 0.045357175
-0.15915704 -0.030275675 0.040497575
-0.13340245 -0.035646442 0.047577422
-0.12696858 -0.036493331 0.046148621
-0.11811205 -0.032650255 0.049907736
-0.09696804 -0.031180469 0.049677983
-0.087255448 -0.03292799 0.042908188
-0.07978911 -0.031453621 0.041568175
-0.060574938 -0.039525796 0.048904743
-0.016457867 -0.033144895 0.043105327
0.024596756 -0.03283716 0.042825636
0.094435811 -0.031609967 0.041508194
-0.2198177 -0.028346352 0.041009359
-0.14147118 -0.022843868 0.040502936
-0.11695208 -0.029040914 0.046684217
-0.061889686 -0.026875516 0.049813304
0.0510795 -0.02831126 0.046977609
0.075242989 -0.028282262 0.046832658
-0.019520678 -0.019021211 0.044445049
0.031753983 -0.012975986 0.040492304
0.075402714 -0.060447156 0.05949552
0.086268574 -0.062391151 0.055648271
0.11258005 -0.060062144 0.057815477
-0.13781297 -0.0511088 0.052152857
-0.10424691 -0.052072145 0.054862458
-0.087277934 -0.05309926 0.05535078
-0.062436517 -0.05552645 0.05455808
-0.055297352 -0.053277828 0.05913835
-0.045072619 -0.058589548 0.051773787
0.0510795 -0.059033234 0.052825283
-0.23585388 -0.041989107 0.051480263
-0.18398395 -0.048163734 0.051069621
-0.17627865 -0.045396786 0.05656838
-0.16372001 -0.048704006 0.05277282
-0.15499219 -0.047118139 0.056474421
-0.13139117 -0.044103 0.059665669
-0.12826559 -0.041443087 0.050647315
-0.1057445 -0.040143039 0.05732407
-0.089398384 -0.040990181 0.050235685
-0.031243727 -0.0418077 0.050962642
0.0034712367 -0.041467097 0.050498512
0.08920943 -0.042209335 0.054991774
-0.12922442 -0.037993036 0.054218717
-0.10008537 -0.034634318 0.052594878
-0.027045056 -0.031901736 0.05601763
-0.068474911 -0.028578222 0.050371587
-0.034139805 -0.027326949 0.052437056
-0.01180502 -0.02518934 0.051700585
0.010806911 -0.026043298 0.053752981
0.036165453 -0.027746208 0.056885935
-0.057406291 -0.050784364 0.062938668
-0.041313067 -0.050964143 0.064697862
-0.015857955 -0.051664263 0.066801906
0.0031367876 -0.05464064 0.06436716
0.024122423 -0.056695551 0.063690148
0.04487662 -0.05601088 0.067454576
0.079542115 -0.058852442 0.061841048
-0.23310205 -0.042832643 0.06177295
-0.11902755 -0.045768514 0.061785586
-0.10392226 -0.046741847 0.066257939
-0.040324457 -0.047069024 0.068900108
-0.0012335517 -0.042221747 0.064917967
0.049629483 -0.043371171 0.069937184
0.051079504 -0.045667809 0.060201496
0.028728317 -0.036083557 0.063427642
0.04484481 -0.030930573 0.060860105
0.056635685 -0.03651756 0.063501813
0.029401317 -0.050618391 0.073471338
-0.26756629 -0.041786015 0.078755818
-0.25550535 -0.042153265 0.073850438
-0.23685735 -0.042733148 0.079098642
-0.085047141 -0.046884969 0.075606689
-0.078573331 -0.046911422 0.074600913
-0.05252488 -0.047034509 0.073649973
-0.026072204 -0.047189839 0.078331269
0.03889323 -0.049877323 0.07328131
-0.27377784 -0.041596644 0.081028715
-0.26097751 -0.041998945 0.089166038
-0.2500087 -0.0423375 0.089557737
-0.23352709 -0.042844437 0.088262632
-0.12030628 -0.046786901 0.08964926
-0.095265761 -0.046911929 0.089984097
-0.070716381 -0.047023263 0.088219047
-0.06602256 -0.047044065 0.087791368
0.014530214 -0.047404233 0.081043482
-0.26073897 -0.042008426 0.091428868
-0.25347918 -0.042233713 0.092971876
-0.22822011 -0.043012701 0.093195319
-0.093372211 -0.046945475 0.094492704
-0.065954879 -0.047065809 0.091777131
0.021174947 -0.047533117 0.098944597
-0.24584496 -0.042478979 0.10348992
-0.22534321 -0.042853914 0.10571614
-0.097123981 -0.046960216 0.10067286
-0.070068218 -0.047119476 0.10553204
0.0018190965 -0.047443718 0.10003465
-0.28338295 -0.041327816 0.11008598
-0.27398786 -0.041626222 0.11938095
-0.24436194 -0.042494722 0.1181584
-0.13459027 -0.046876773 0.11945914
-0.110376 -0.046948146 0.11056369
-0.085042447 -0.04710535 0.11661838
-0.037394743 -0.047321454 0.11319597
-0.013868208 -0.047465324 0.11842427
-0.0020907738 -0.047508076 0.11559301
0.0093715489 -0.04754876 0.11318554
-0.27343601 -0.041647434 0.12384518
-0.1092024 -0.04702175 0.12318759
-0.099961862 -0.047081187 0.12578553
-0.032368854 -0.047390901 0.12151765
-0.013369232 -0.047478355 0.12039258
0.004336915 -0.047549602 0.12751549
-0.27532643 -0.041595276 0.13036159
-0.26585349 -0.041895039 0.13855085
-0.24591482 -0.041906502 0.13853434
-0.23681954 -0.041912086 0.13834088
-0.1083646 -0.047109805 0.13880777
-0.26284474 -0.041711405 0.14529242
-0.052102752 -0.047427475 0.14639945
-0.013413377 -0.047549602 0.14096369
-0.29398447 -0.04104048 0.15212642
-0.13133512 -0.047066201 0.15173233
-0.11229269 -0.047192924 0.15787591
-0.092607558 -0.04727383 0.15490305
-0.29078224 -0.041094922 0.16664734
-0.28260422 -0.04107105 0.16747427
-0.14525029 -0.047062207 0.1637335
-0.11386152 -0.047225893 0.16544861
-0.088324361 -0.047344077 0.16405435
-0.063948467 -0.047481637 0.16732994
-0.27655113 -0.040764753 0.17808434
-0.26862907 -0.040912591 0.17296328
-0.092031226 -0.047375616 0.17331864
-0.30959305 -0.040462498 0.18855436
-0.28549564 -0.040629968 0.18275329
-0.12723739 -0.047255665 0.18324012
-0.048316643 -0.047549602 0.18915962
-0.32503581 -0.040128108 0.19999032
-0.2928921 -0.040416248 0.19015653
-0.17677572 -0.047072276 0.19448242
-0.15970956 -0.047176994 0.19834116
-0.14092411 -0.047229677 0.19094013
-0.10139509 -0.047469106 0.19929522
-0.081997342 -0.047549602 0.19856755
-0.13880011 -0.047297645 0.20164427
-0.18204565 -0.047231853 0.22900826
-0.17661072 -0.047255859 0.22849846
-0.076906577 -0.047549602 0.22562009
-0.19224995 -0.047191095 0.23076934
-0.1887918 -0.047256351 0.23974667
-0.16372031 -0.047340848 0.2325092
-0.085976362 -0.047549602 0.2322928
-0.17670096 -0.04737037 0.24989298
-0.10528993 -0.047549602 0.2405436
-0.15189531 -0.047512654 0.25365371
-0.12668511 -0.047549602 0.25873232
-0.20830567 -0.047314417 0.26842678
-0.19607644 -0.047337741 0.26156616
-0.18636209 -0.047420584 0.26808697
-0.11260644 -0.047549598 0.26445287
-0.1907731 -0.047456875 0.27888134
-0.20748904 -0.047422986 0.28788456
-0.19033207 -0.047511376 0.28862089
-0.18542013 -0.047535479 0.28860772
-0.21132086 -0.047463667 0.2989659
-0.16788869 -0.047549602 0.29212186
-0.16802105 -0.047549602 0.30171353
-0.20520569 -0.047549602 0.31693989
-0.17097433 -0.047549605 0.3118211
-0.18368468 -0.047549605 0.32988626
-0.16066353 -0.047549602 0.32444537
-0.21695098 -0.047549602 0.3302491
-0.1713104 -0.047549602 0.34233749
-0.24253802 -0.047549602 0.35175607
-0.23495385 -0.047549602 0.35425457
-0.21608414 -0.047549602 0.35871747
-0.19655284 -0.047549598 0.35801813
-0.22342011 -0.047549602 0.36685824
-0.19107956 -0.047549602 0.36544859
