# .PCD v0.7 - Point Cloud Data file format
VERSION 0.7
FIELDS x y z
SIZE 4 4 4
TYPE F F F
COUNT 1 1 1
WIDTH 847
HEIGHT 1
VIEWPOINT 0 0 0 1 0 0 0
POINTS 847
DATA ascii
-0.090064153 -0.031490803 -0.34301299
-0.078640178 -0.035224825 -0.34021667
-0.065172449 -0.032856286 -0.34266609
-0.091543324 -0.029485766 -0.34201401
-0.048449308 -0.034899276 -0.32647273
-0.062477019 -0.034312166 -0.31570247
-0.054730676 -0.033980686 -0.31729043
-0.057070728 -0.03610871 -0.30040818
-0.037079096 -0.036983512 -0.30764326
-0.071120769 -0.040354766 -0.29235035
-0.065786891 -0.040427037 -0.29421911
-0.043064103 -0.041486498 -0.29659611
-0.054080512 -0.037244145 -0.29099059
-0.066040426 -0.040718697 -0.28371677
-0.056172129 -0.041368045 -0.28944471
-0.04579097 -0.042242158 -0.28788161
-0.039244119 -0.042359132 -0.28955469
-0.072349139 -0.041301232 -0.27772272
-0.054338351 -0.03982636 -0.27394381
-0.044567071 -0.038938951 -0.27399102
-0.06603013 -0.043097142 -0.26276231
-0.050381351 -0.041301146 -0.26159936
-0.047440525 -0.043791879 -0.2693477
-0.021844864 -0.044707142 -0.26634169
-0.010512764 -0.043799922 -0.26423329
-0.0084264148 -0.042963084 -0.26074585
-0.064319529 -0.043598749 -0.25497901
-0.05628363 -0.044623356 -0.25669524
-0.048162483 -0.041515402 -0.25870052
-0.023835436 -0.04671564 -0.25656167
-0.011546781 -0.04146897 -0.25816667
-0.0074507054 -0.04547758 -0.25328624
-0.016435046 -0.048646335 -0.24160275
-0.008830118 -0.047162078 -0.2450476
-0.043382905 -0.044271767 -0.23748873
-0.028897837 -0.048214648 -0.23735708
-0.0048561865 -0.046660185 -0.23447031
0.0057429597 -0.047417436 -0.23466147
-0.024372298 -0.050035443 -0.22136194
-0.014600401 -0.0509138 -0.22083932
-0.035100296 -0.047563799 -0.22204539
0.0073989057 -0.04755744 -0.22543541
0.011281596 -0.045841921 -0.22731909
-0.024252187 -0.046241723 -0.21278922
0.0014328007 -0.045343801 -0.21038128
0.012020404 -0.046038225 -0.21264684
-0.029330617 -0.051516186 -0.2005762
0.011929914 -0.046294942 -0.20360333
-0.035483763 -0.05000484 -0.19511458
-0.011837961 -0.053217608 -0.19779186
-0.0049312138 -0.047106445 -0.19583303
0.0085714851 -0.047006957 -0.1947336
-0.025757164 -0.053505823 -0.18233112
0.0091822781 -0.048247203 -0.18306485
0.025584124 -0.055586495 -0.17830858
0.043366954 -0.051648498 -0.17141891
0.026244394 -0.049494982 -0.17132518
-0.039518163 -0.060283367 -0.16484401
-0.038839772 -0.058149226 -0.16472477
-0.02695217 -0.055971615 -0.1631663
-0.0035561672 -0.057246253 -0.16076025
0.0028253989 -0.058137894 -0.16459015
0.034545302 -0.054062206 -0.16355599
0.024816092 -0.055709809 -0.15404558
0.038236298 -0.059329171 -0.15028867
-0.020874854 -0.055805378 -0.14788064
-0.016008144 -0.055264257 -0.14749481
-0.0066364035 -0.054053813 -0.14971712
0.022440093 -0.052751292 -0.14158036
0.051883057 -0.053695358 -0.14168186
0.083157077 -0.10200635 -0.13053295
0.11655553 -0.1012243 -0.13643786
0.097989425 -0.097445473 -0.13652521
0.085976258 -0.083016068 -0.13118738
0.095271058 -0.088526502 -0.13241217
0.12334631 -0.079598382 -0.13384439
0.032793358 -0.062929235 -0.13412182
0.046147369 -0.061376046 -0.13364261
0.0019636236 -0.055235662 -0.13479859
0.045995381 -0.052957356 -0.13688339
0.1114289 -0.11116133 -0.12787966
0.13046351 -0.11120739 -0.12812082
0.063220136 -0.10044557 -0.12249877
0.086184226 -0.10506502 -0.1268574
0.14018439 -0.10527352 -0.1277536
0.073106267 -0.099215344 -0.12618782
0.060272492 -0.087482668 -0.12402961
0.12997399 -0.082859546 -0.12459657
0.094475798 -0.079888314 -0.12618673
-0.00031627994 -0.061801884 -0.12157322
0.031957448 -0.064636216 -0.12086953
0.069956571 -0.056187537 -0.12870798
-0.31544077 -0.012246557 -0.12144987
0.10298499 -0.11059448 -0.11206464
0.060494788 -0.10086219 -0.11204364
0.050756454 -0.098713972 -0.11224409
0.060759962 -0.099638402 -0.11027785
0.036351763 -0.082655653 -0.1173999
0.044404879 -0.082147591 -0.1176417
0.062623262 -0.084951244 -0.11606208
0.12997399 -0.082789958 -0.11249033
0.0096719991 -0.071506552 -0.11938257
0.0489453 -0.078540482 -0.11474574
0.067405596 -0.075429685 -0.1137766
0.071133107 -0.074206218 -0.11959499
0.084698781 -0.076982155 -0.11427369
0.099506348 -0.075420618 -0.11770238
0.10336031 -0.073165059 -0.11979577
0.12997399 -0.078437805 -0.11020908
0.13237932 -0.075731263 -0.11513612
-0.017669786 -0.065792181 -0.1132279
0.028250746 -0.064941093 -0.11859151
0.045470197 -0.065602049 -0.11633192
0.083816029 -0.066649415 -0.11359517
0.095862255 -0.063040994 -0.11624285
0.10303897 -0.067041412 -0.11414987
0.03948345 -0.054236017 -0.1136687
0.042740002 -0.054111805 -0.11592388
0.074508473 -0.056293335 -0.11032487
-0.32534003 -0.013201354 -0.11874435
0.12100575 -0.11330055 -0.109632
0.086291373 -0.10427691 -0.10815857
0.13016021 -0.10295944 -0.10323898
0.054193847 -0.097173549 -0.10983345
0.12997399 -0.099892601 -0.1045076
0.13684571 -0.099340163 -0.10105848
0.10457 -0.089228556 -0.10383538
0.13274211 -0.085331969 -0.10125426
0.098834008 -0.079745017 -0.10056435
0.10045192 -0.076793216 -0.10909779
0.13038021 -0.073762007 -0.10581173
-0.017461348 -0.064192563 -0.10209659
-0.0061427392 -0.062867954 -0.10350544
0.056415334 -0.064682931 -0.10832297
0.036054879 -0.055214353 -0.10571358
0.045942478 -0.054721862 -0.10484796
0.061964799 -0.054651618 -0.1061232
-0.31966925 -0.015919924 -0.10460319
-0.30524492 -0.013361077 -0.10667538
-0.28898281 -0.015048044 -0.10526148
0.11838837 -0.10493695 -0.098651677
0.12662418 -0.097787231 -0.095309176
0.14013803 -0.091123968 -0.099679284
0.085220031 -0.089664444 -0.099463657
-0.033000417 -0.073795758 -0.094782516
-0.024572404 -0.074736066 -0.093508847
-0.006290738 -0.074474029 -0.098056279
0.0039737974 -0.071090013 -0.097494014
-0.012677406 -0.064081661 -0.091348723
0.0062604258 -0.0672215 -0.093194202
0.015100163 -0.069417037 -0.093678512
0.041196652 -0.069151297 -0.091645241
0.066232458 -0.066888541 -0.090737842
0.020133115 -0.058374494 -0.094397567
0.030075284 -0.056946989 -0.093577333
0.059843834 -0.055078458 -0.098373823
0.063352115 -0.05536424 -0.093185261
-0.28957015 -0.015078042 -0.090136766
0.0092422981 -0.1246998 -0.081230372
0.0024835262 -0.1072192 -0.089217111
0.0039556706 -0.095648117 -0.087346859
0.0073694102 -0.087031558 -0.08591979
0.013320057 -0.085531302 -0.085421734
0.0067402632 -0.075970389 -0.084164813
0.060174987 -0.07024575 -0.080529474
-0.015859216 -0.066725381 -0.088542819
0.011230107 -0.067564234 -0.089120455
0.022042919 -0.06026442 -0.081082247
0.034383018 -0.057416029 -0.086406901
0.075101197 -0.05589677 -0.083516926
0.08123485 -0.056624997 -0.08300861
-0.32111442 -0.016911071 -0.087701693
-0.31421876 -0.015636709 -0.088338919
-0.29429641 -0.015087337 -0.086316712
-0.28442997 -0.015493749 -0.087534994
-0.27626961 -0.017930498 -0.084225975
0.0014967219 -0.11550792 -0.078145601
0.018904213 -0.10788839 -0.078251332
0.0099338889 -0.081292883 -0.070050053
0.0064752642 -0.075210258 -0.072643921
0.013046442 -0.072869122 -0.072702527
0.045258351 -0.071383752 -0.07640481
0.0078761382 -0.06964162 -0.071112849
0.034824789 -0.059814576 -0.071428284
0.061453421 -0.056115173 -0.079551734
0.0084125102 -0.12444454 -0.061976686
0.014514225 -0.12327427 -0.067606702
0.0013692093 -0.1119356 -0.069067799
0.020587545 -0.11414977 -0.062273994
0.0050461586 -0.10267705 -0.064050898
0.0078709731 -0.094328105 -0.064703614
0.015295288 -0.070912391 -0.069965616
0.084497429 -0.069135964 -0.066305108
0.097759545 -0.066724017 -0.066613674
0.085903041 -0.056979518 -0.063867927
-0.29964745 -0.020194447 -0.068728946
-0.27227873 -0.020854475 -0.066762835
-0.29007733 -0.017412758 -0.061630372
0.014057515 -0.065731026 -0.055655595
0.026884371 -0.063249096 -0.058285594
0.10453288 -0.059924342 -0.053634565
-0.30488488 -0.021236012 -0.051401775
-0.27954954 -0.021858707 -0.059083901
-0.31584835 -0.019958362 -0.05221035
-0.29220566 -0.01849884 -0.050084963
-0.0026150555 -0.075233229 -0.042631563
0.0075155003 -0.072871678 -0.044357061
0.0112969 -0.073309146 -0.047066446
0.02613429 -0.075562246 -0.043950088
0.044327211 -0.076219022 -0.042156678
0.082014456 -0.074713305 -0.043368943
0.097291902 -0.070698656 -0.049241979
0.027696583 -0.064720124 -0.04857479
0.11260305 -0.061227418 -0.045722239
0.056886762 -0.059947293 -0.049249843
-0.29266894 -0.022369981 -0.047577851
-0.29273641 -0.019269746 -0.041988038
-0.2704052 -0.01907333 -0.040896174
0.032931782 -0.084242016 -0.037092961
0.045201335 -0.085709907 -0.035573054
0.076939479 -0.080815211 -0.039306615
0.1063296 -0.084974699 -0.036306228
0.0085923243 -0.07116583 -0.039780341
0.032915659 -0.071091443 -0.039963201
0.087771602 -0.075763874 -0.039798301
0.10627046 -0.074426353 -0.039798301
0.18445522 -0.070621036 -0.030003842
0.20052814 -0.070612967 -0.030009247
-0.097655989 -0.064039171 -0.032896243
-0.078225181 -0.066276044 -0.032850709
-0.046600115 -0.06729617 -0.032165449
-0.011830568 -0.064488068 -0.034012318
0.055684671 -0.069671661 -0.039798301
0.07133048 -0.067493111 -0.039963201
0.082637936 -0.062134076 -0.039963201
0.092935994 -0.06393823 -0.034454003
0.1775845 -0.064401753 -0.034168877
0.18198255 -0.061996296 -0.035779797
-0.16312997 -0.053746812 -0.031857964
-0.090787545 -0.050459046 -0.038104534
-0.077502944 -0.052191556 -0.038306445
0.0076474212 -0.058658157 -0.037013177
0.016483793 -0.058355406 -0.038577944
0.032036278 -0.053361904 -0.038113698
0.042219374 -0.057276294 -0.037298374
0.056301925 -0.055383749 -0.039138716
0.11111521 -0.050201051 -0.038773697
0.15845673 -0.056736059 -0.037465472
0.17582197 -0.054962568 -0.037819251
0.24867272 -0.051105849 -0.037535027
0.26608983 -0.052083649 -0.035579797
-0.13309067 -0.049703237 -0.035691764
-0.05867707 -0.044386588 -0.039418224
0.076005735 -0.048404422 -0.03912751
0.086038612 -0.049683943 -0.038872257
0.1517095 -0.049139731 -0.039027922
0.16003488 -0.045238782 -0.039681915
0.19426578 -0.046192847 -0.039568663
0.26540184 -0.040619619 -0.035111129
0.28936478 -0.047778834 -0.03030921
-0.059433244 -0.037895877 -0.038120124
-0.021160651 -0.037284531 -0.037997846
-0.0014889985 -0.031365778 -0.036814105
0.057475746 -0.031537753 -0.036905572
0.101533 -0.03557897 -0.03774989
0.14904094 -0.035023294 -0.03763875
0.18994115 -0.03544464 -0.03772302
0.23962528 -0.032713942 -0.036504872
-0.29216295 -0.021863041 -0.033660721
-0.28483501 -0.023661029 -0.036607422
-0.24931034 -0.023458011 -0.038026072
-0.1251249 -0.023825025 -0.030867288
-0.013736163 -0.023656476 -0.032134138
-0.0050716535 -0.023650676 -0.032130253
0.061269112 -0.026503671 -0.034150556
0.081827246 -0.020914109 -0.030465201
0.091594197 -0.020991597 -0.030516881
0.15162061 -0.028412875 -0.035456795
0.18113075 -0.021096025 -0.0305863
0.20628014 -0.027148757 -0.034615457
0.24190545 -0.029635208 -0.034948807
0.26339161 -0.027615799 -0.030102031
-0.28390115 -0.019767137 -0.035044871
-0.014482972 -0.089416713 -0.027671605
0.036443867 -0.089429006 -0.026932567
0.08194676 -0.089637153 -0.022301929
0.096724346 -0.089577138 -0.023904262
0.11338535 -0.089115962 -0.023056496
0.12924701 -0.085602149 -0.028578963
0.14806566 -0.08008717 -0.024768349
-0.12302486 -0.070613019 -0.025763221
-0.1104709 -0.072999053 -0.024146004
-0.062226199 -0.073023573 -0.028318115
-0.058331765 -0.078937858 -0.029472087
0.044620249 -0.07336317 -0.028043173
0.11925486 -0.071754351 -0.028992083
0.17010085 -0.077519372 -0.022040572
0.20005602 -0.076709971 -0.023252834
-0.17753032 -0.060184106 -0.024741169
-0.14677468 -0.063587248 -0.028092213
-0.13886082 -0.065891646 -0.027909515
-0.19280422 -0.058900572 -0.02210803
-0.18264049 -0.055741534 -0.026543118
0.31318936 -0.051658638 -0.021303911
-0.24373978 -0.042556178 -0.020244509
-0.25321999 -0.030582227 -0.021591157
0.27547756 -0.032854982 -0.029697422
0.29237467 -0.037386131 -0.024405494
-0.29833087 -0.023461914 -0.029474547
-0.28765723 -0.020613769 -0.026328877
-0.26384929 -0.023806704 -0.025639569
-0.24568272 -0.027579878 -0.02231602
-0.20529833 -0.025694121 -0.027398665
-0.19341761 -0.022941763 -0.026970081
-0.11444458 -0.021534797 -0.029600168
0.25926724 -0.021636294 -0.027088296
0.28747955 -0.027688865 -0.021465784
-0.22127099 -0.016860306 -0.020734182
-0.16966949 -0.013537136 -0.020360157
-0.12815091 -0.01552903 -0.023934172
-0.11023532 -0.015083272 -0.02348114
-0.10763502 -0.018364808 -0.027680304
-0.08204937 -0.019728785 -0.029503694
0.029046355 -0.017169017 -0.027517483
0.031936996 -0.013067901 -0.021393839
0.075501263 -0.017807055 -0.028396841
0.093189582 -0.013921124 -0.02296244
0.22139475 -0.015698422 -0.025624415
0.238314 -0.014723711 -0.022297032
0.016672658 -0.090001762 -0.015254794
-0.06655021 -0.08337041 -0.013645918
-0.059794009 -0.081027552 -0.016827634
-0.045410343 -0.08486931 -0.012058969
-0.024478719 -0.082580291 -0.012892602
0.06809026 -0.08201351 -0.015015475
0.11084068 -0.089669026 -0.015653068
0.12159552 -0.08893881 -0.012046227
0.13410211 -0.087422043 -0.016852438
0.1485544 -0.082082935 -0.015175591
0.15991555 -0.08210966 -0.015033448
0.17549932 -0.081675217 -0.015816256
-0.14551897 -0.07320822 -0.017340334
-0.13205847 -0.076222852 -0.015975667
-0.040454313 -0.07997755 -0.018383689
0.14833038 -0.079058081 -0.019733898
0.17753312 -0.079792902 -0.018635459
0.28009278 -0.07750342 -0.018153615
0.30894655 -0.075655036 -0.012077787
-0.18334618 -0.064481311 -0.017733365
0.33245128 -0.054252066 -0.01060804
-0.25411409 -0.044021089 -0.016226407
0.31437743 -0.042451352 -0.013922897
0.3219012 -0.046865333 -0.013508718
-0.31074232 -0.022759657 -0.019998107
-0.29316589 -0.023114149 -0.013603857
-0.28673124 -0.021412136 -0.017370369
-0.27858433 -0.027470902 -0.016835928
-0.26022899 -0.025700502 -0.014913336
0.29230219 -0.024659967 -0.014311864
-0.10867959 -0.012143459 -0.019125002
0.025230657 -0.011343552 -0.018819101
0.19436911 -0.010800727 -0.018289251
0.25740898 -0.013777401 -0.016921157
-0.22232661 -0.0098573817 -0.011964594
-0.16380635 -0.0094984993 -0.014406424
-0.094282106 -0.0087428093 -0.013616832
-0.023316832 -0.0085085109 -0.013208444
0.034324847 -0.0092415623 -0.015272535
0.064463004 -0.0077815969 -0.010234723
0.10448711 -0.0085123181 -0.014040697
0.16168419 -0.008654465 -0.014753283
0.18972307 -0.0086670369 -0.014816307
0.016941208 -0.090582572 -4.8055215e-05
0.10640052 -0.090443499 -0.0033698424
0.11163346 -0.090078756 -0.0034324229
0.23703384 -0.095568098 -0.001047593
-0.071535826 -0.083247192 -0.0077501489
-0.054883521 -0.085115775 -0.0071166358
-0.0010952514 -0.084959418 -0.00047866988
0.093647495 -0.083755217 -0.0068600504
0.10012652 -0.08399298 -0.0057360893
0.1146782 -0.083435185 -0.0083873654
0.13390611 -0.085766599 -0.008666655
0.14757136 -0.084497005 -0.0035022337
0.15372483 -0.085142463 -0.0001911384
0.20697357 -0.084259726 -0.0044678976
0.29637507 -0.081114508 -0.0012033666
-0.14591444 -0.077442192 -0.0039798701
0.31758812 -0.076773949 -0.0034125634
0.32234913 -0.074128658 -0.0080652665
-0.19244161 -0.066616394 -0.0084482422
0.33810878 -0.067833006 -0.00040514418
-0.24056938 -0.054368213 -0.0073142718
-0.22656626 -0.059070479 -0.0031874331
0.33843029 -0.054227047 -0.00060040376
0.32637024 -0.044184595 -0.0029156583
0.31352431 -0.03506491 -0.00026482434
0.30659518 -0.02790726 -0.00044257409
-0.30240712 -0.014050538 -0.005074854
-0.26055211 -0.010723021 -0.0048185457
-0.22296128 -0.014994056 -0.0043133413
0.26574519 -0.01144448 -0.00058253494
0.28197235 -0.017744582 -0.0060661468
-0.2470108 -0.0087123476 -0.0016406542
-0.22704157 -0.0071811257 -0.0016671232
-0.20745882 -0.0087630386 -0.0037559089
-0.18076243 -0.0072806338 -0.0058897175
-0.15001698 -0.0072653992 -0.0056575648
-0.12829798 -0.0066432301 -0.0021376768
-0.090465285 -0.0062419344 -0.0013621238
-0.085848927 -0.0067887814 -0.0043810448
0.057566978 -0.0069399071 -0.0058418657
0.086333439 -0.0067123198 -0.0050172266
0.10085854 -0.0066013276 -0.0044608186
0.17629999 -0.0068007018 -0.0054602884
0.18999107 -0.0067980434 -0.0054469621
0.19831966 -0.0071792523 -0.007357982
0.21301681 -0.0062608337 -0.0027539078
0.25621101 -0.0096151493 -0.0034914922
-0.26539931 0.0031805532 -0.0036464182
-0.22629277 0.0039450726 -0.003977641
-0.19095349 0.0033182318 -0.0016567619
-0.28517056 0.013083387 -0.0013251001
-0.24737407 0.015417422 -0.0038440374
-0.28217027 0.025527949 -0.0017292632
-0.27713653 0.024893845 -0.0037619655
-0.30295861 0.034774877 -0.00023063409
-0.28503293 0.034698084 -0.0016701139
-0.23657602 0.030768756 -0.0029749363
-0.2224268 0.03492317 -0.001727459
-0.28726357 0.049342431 -0.001740356
-0.23262683 0.041128792 -0.0022500684
-0.29062098 0.058443893 -0.0016401678
-0.31463322 0.078499302 -0.00010552758
-0.28748181 0.078905307 -0.002205783
-0.30396944 0.087318338 -0.0011447371
-0.31975809 0.10509849 -0.00021130986
-0.30999196 0.10218357 -0.00093423127
0.2319244 -0.11944717 0.0059759305
0.23534682 -0.10104663 0.0021554171
0.018848754 -0.090536244 0.0013625099
0.058231018 -0.090344667 0.0063818973
0.10451292 -0.090486348 0.0021319438
-0.1157912 -0.081118807 0.0032824632
-0.071854912 -0.083464652 0.0082422644
-0.058178678 -0.084674641 0.004266452
-0.018598348 -0.083534077 0.0077911792
0.065611325 -0.084603861 0.0028425725
0.090000555 -0.083712824 0.0069759022
0.10696186 -0.084490873 0.003285131
0.11594276 -0.083960652 0.0058394913
0.12177352 -0.083711639 0.0070549981
0.15158021 -0.0847864 0.0016882814
0.18271844 -0.084838822 0.0018681558
0.19854431 -0.08499065 0.00092122843
0.23886204 -0.083703354 0.0093909074
0.25939155 -0.0832339 0.0069560148
-0.15796123 -0.075521693 0.0021336887
-0.13968496 -0.078320771 0.0054780985
0.31172532 -0.077338792 0.0079600364
-0.23682024 -0.05582381 0.0054242243
-0.26022899 -0.04865345 0.0050361962
0.31142974 -0.034314882 0.0030781678
-0.341032 -0.021289665 0.0021484713
0.29202944 -0.021862619 0.0088766525
-0.29517549 -0.013839835 0.0060852282
-0.28388083 -0.01106664 0.0011595114
-0.25876382 -0.010030571 0.0021625985
-0.23137809 -0.018177737 0.0040172329
0.25789484 -0.010401063 0.0052879611
-0.28488556 -0.0017150046 0.0012686258
-0.23979382 -0.0085148662 0.0044117915
-0.20492664 -0.0076193176 0.006319527
-0.16176873 -0.0064912345 0.0020492419
-0.066631697 -0.0041060476 0.00027433265
-0.048528932 -0.0068906359 0.0051060929
-0.0084244478 -0.0078413412 0.0098475311
0.010884687 -0.0073015383 0.0071553793
0.022064151 -0.0072507989 0.0069023278
0.075433806 -0.006958181 0.0062339418
0.089611813 -0.0060270531 0.0015782956
0.12257551 -0.0059139882 0.0010129696
0.17155688 -0.0076396624 0.009641353
0.1861439 -0.0073040156 0.0079631163
0.20402554 -0.006555994 0.004223004
0.22826329 -0.0063980347 0.0011969167
-0.28734046 0.0066989521 0.0046791499
-0.26948527 0.0081006531 0.002229095
-0.24609715 0.0072822468 0.0038977833
-0.19276111 0.0038039391 0.0016852941
-0.18764858 0.00049620628 0.0017282302
-0.29987133 0.014092493 0.00039863525
-0.28730914 0.013037554 0.0012629449
-0.27440333 0.010195483 0.0019687463
-0.25158671 0.012982499 0.0035785339
-0.29434872 0.028150178 0.00099820737
-0.2748749 0.022241021 0.0020549637
-0.26448861 0.028787248 0.0038591435
-0.25037646 0.020006217 0.0035689455
-0.27075464 0.035585701 0.0038554468
-0.25832564 0.030822102 0.0033029271
-0.23661366 0.034228243 0.0026344857
-0.28479427 0.046893902 0.0017257077
-0.24313271 0.041419867 0.0026276517
-0.22901301 0.045807861 0.0013309724
-0.26323256 0.051595669 0.0029682913
-0.25811052 0.0552232 0.0027248967
-0.2640413 0.067235991 0.0031670956
-0.25274575 0.065672189 0.0017333789
-0.24389675 0.062407434 0.0012957823
-0.30706796 0.07853689 0.00084023312
-0.31192565 0.083026722 0.00056467182
-0.27434787 0.088311337 0.002984982
-0.27657095 0.095284007 0.0015696189
-0.30745593 0.10825849 0.0010207422
-0.30722645 0.11770689 0.0011496395
-0.29377058 0.1202905 0.0012552327
-0.01169772 -0.090013057 0.01528801
0.025784295 -0.090232775 0.010042077
0.033216856 -0.090144694 0.012136826
0.077911034 -0.090136372 0.01196235
-0.089585796 -0.080225773 0.01670533
-0.072411858 -0.081944637 0.015407566
-0.048220158 -0.086457916 0.016939983
-0.016332749 -0.082534559 0.013029077
-0.0059162909 -0.080934718 0.016957305
0.0093538305 -0.08994624 0.016471948
0.039839908 -0.0827576 0.011970309
0.11429462 -0.082777858 0.011514246
0.15366837 -0.082083389 0.010057053
0.16455768 -0.081831962 0.014869316
0.2130339 -0.081634223 0.015808985
0.2376608 -0.083370313 0.010683242
-0.16371147 -0.072226427 0.013154555
-0.15689251 -0.072213471 0.015185423
-0.13325547 -0.077578537 0.012811652
-0.081272691 -0.077686712 0.018577227
-0.062216606 -0.078932598 0.019917987
-0.035095647 -0.079269499 0.019420214
0.14015284 -0.079122938 0.019462176
0.1536795 -0.079924121 0.019327149
0.18688032 -0.079040244 0.019723773
0.29357845 -0.078305252 0.013152285
-0.20970899 -0.064207695 0.014960382
-0.23748495 -0.05388774 0.010795717
0.33316129 -0.055439513 0.010634356
0.30561316 -0.040801398 0.017802276
-0.27373642 -0.03131251 0.017166102
-0.30768156 -0.023166256 0.011618169
-0.29059833 -0.021779299 0.014436305
-0.26307988 -0.026674794 0.018825531
-0.24812667 -0.012495719 0.01198726
-0.19910949 -0.011827988 0.016340531
-0.11397659 -0.011337593 0.017774403
-0.1031597 -0.012313743 0.019516703
-0.052487943 -0.011097467 0.01841303
-0.017257132 -0.01053308 0.017570315
0.022207212 -0.011001531 0.018269781
0.038736444 -0.011132662 0.018476261
0.16240813 -0.011319912 0.019027831
-0.20454969 -0.0090702092 0.011933772
-0.076606601 -0.0089114811 0.015149018
0.046210997 -0.0081582423 0.011643027
0.05041543 -0.0078874938 0.010397922
0.14339963 -0.0082614496 0.012750294
-0.057197455 -0.084635817 0.020023152
-0.039666459 -0.08741726 0.02213436
0.14493641 -0.08191856 0.022657527
-0.068069197 -0.078527741 0.020516142
-0.056487478 -0.074852869 0.025945649
-0.045126483 -0.073489167 0.027960468
-0.00243549 -0.07657674 0.023273129
0.04749988 -0.072506219 0.028567214
0.062372543 -0.073336318 0.027205512
0.12626538 -0.07643377 0.023480698
0.13746567 -0.072507426 0.028673377
0.15093304 -0.077182241 0.026199277
0.19612315 -0.078656919 0.020297896
0.22014326 -0.076143108 0.024063015
0.23190026 -0.07279706 0.028410265
0.27780437 -0.069418944 0.027080763
0.29311892 -0.054854453 0.029661454
-0.21589445 -0.046733927 0.024858749
-0.30372864 -0.022925751 0.025470641
-0.29407766 -0.024262425 0.024227839
-0.27681801 -0.022801066 0.023709143
-0.25428089 -0.020468052 0.029892273
-0.23344061 -0.027354816 0.024354273
-0.15750946 -0.023863258 0.029724598
-0.22999714 -0.018309077 0.020811331
-0.11750655 -0.01904648 0.027824637
-0.072595179 -0.014534226 0.023544639
0.041314475 -0.014422741 0.02341345
0.058439616 -0.014824491 0.024174061
0.099336125 -0.013217523 0.021869859
0.12664331 -0.014581695 0.023913184
0.16082507 -0.016554911 0.026868407
0.17637268 -0.01506482 0.024636839
0.21086144 -0.015616925 0.025463663
0.22800282 -0.01968604 0.029239718
0.24032333 -0.017765014 0.026582342
-0.0041846605 -0.088622801 0.030415319
0.047013476 -0.084550999 0.035528544
0.057449155 -0.084238835 0.037084546
0.10501831 -0.088674337 0.030290758
-0.070080608 -0.070578776 0.031965662
-0.048104271 -0.070032969 0.030288219
0.012821301 -0.074732542 0.039775938
0.069395185 -0.077903666 0.039798014
0.11436379 -0.073529378 0.039798301
0.12766695 -0.07324364 0.039454497
0.18464039 -0.070236981 0.030222371
-0.064624012 -0.063150302 0.034911379
-0.052965071 -0.062615886 0.037159882
-0.039193295 -0.068626165 0.031233182
-0.020206146 -0.06879212 0.039408997
0.018971026 -0.060402937 0.039798301
0.032491066 -0.068373114 0.039795764
0.065626562 -0.064291358 0.039798301
0.077748746 -0.064400837 0.039963201
0.084032357 -0.060063079 0.039963201
0.094418004 -0.064877033 0.033842169
0.10290805 -0.064605683 0.034086142
0.11220801 -0.060012396 0.037019592
0.12163463 -0.067713328 0.032031737
0.1357784 -0.061560486 0.03617217
0.2243242 -0.063216671 0.034901731
0.24945356 -0.060232945 0.03560302
0.25909132 -0.067629099 0.030276919
-0.14830367 -0.058928199 0.030911315
-0.13547331 -0.055521421 0.034361221
-0.11408359 -0.056295134 0.035426602
-0.0060647251 -0.059555016 0.03979639
0.0071022995 -0.054341413 0.038505897
0.018765526 -0.056725219 0.037360646
0.02138618 -0.057455335 0.039402291
0.043551505 -0.055273429 0.039069261
0.099779941 -0.054498158 0.038046844
0.10774901 -0.05800432 0.039798297
0.12316018 -0.055386811 0.037908539
0.13841489 -0.055414826 0.037709322
0.2013399 -0.054605063 0.037875243
0.24596629 -0.059560776 0.036007676
-0.18124656 -0.040959876 0.031978842
-0.11977743 -0.04374782 0.037557114
-0.085082151 -0.047506221 0.039019182
-0.048217122 -0.049143154 0.038876995
-0.034294274 -0.04621071 0.039463464
0.020444658 -0.040841267 0.038670082
0.10576086 -0.049371049 0.038980141
0.12940972 -0.041877214 0.038970932
0.19243754 -0.043634854 0.039322495
0.28274229 -0.043786868 0.031598054
-0.14477801 -0.035335153 0.034731768
-0.1182183 -0.033974577 0.035676025
-0.058841847 -0.03853447 0.038208719
-0.044400986 -0.035802018 0.037662238
0.020083185 -0.036133181 0.037728485
0.10830481 -0.031032247 0.036801983
0.19622672 -0.034304846 0.037456434
0.24328989 -0.035554495 0.036742896
0.25576034 -0.034043744 0.035213802
-0.27597782 -0.021879595 0.034878425
-0.26303598 -0.024360966 0.036868647
-0.25383356 -0.02023717 0.033663139
-0.075958014 -0.02940705 0.035946328
-0.065181889 -0.024858685 0.032900348
0.0098011438 -0.028840128 0.035566665
0.042386897 -0.023858134 0.032249384
0.13722281 -0.026582677 0.034199759
0.14059965 -0.026924495 0.034427311
0.024652712 -0.065239228 0.048374578
0.040764831 -0.063974872 0.040435523
0.11850641 -0.062490191 0.046866886
0.068835661 -0.059518542 0.040274911
0.086244985 -0.058018461 0.044996608
-0.26408112 -0.02312978 0.046715736
-0.2525163 -0.020017214 0.04507618
-0.25842473 -0.019332515 0.044709958
0.0074398243 -0.085901797 0.056213379
-0.0072818487 -0.073449731 0.052552585
0.014276335 -0.074070349 0.051350921
0.032816399 -0.074162692 0.052903228
0.047807232 -0.075117394 0.050274316
-0.0049504228 -0.068961658 0.054471791
0.051551703 -0.059977114 0.054237463
-0.30359647 -0.020817956 0.059141379
0.005742956 -0.1221846 0.065025762
-0.0017317513 -0.11180162 0.067306086
0.0064818235 -0.11554714 0.06142785
0.018558804 -0.11295279 0.069068201
0.064360045 -0.072644316 0.066523887
0.0016038502 -0.065950967 0.066386297
0.046648208 -0.058258425 0.069414228
0.060569052 -0.057658523 0.060277313
0.082348019 -0.056759182 0.067859441
-0.28307074 -0.021183237 0.064817615
-0.31266981 -0.017775964 0.066629335
-0.29986048 -0.017067503 0.06709937
-0.27393964 -0.01718007 0.067578182
0.0074049812 -0.11432205 0.074592389
0.0027036399 -0.10915968 0.078145601
0.0149808 -0.093589976 0.075015455
0.0070934054 -0.080062591 0.071590967
0.030352067 -0.070249788 0.07642059
-0.010883255 -0.066044331 0.07791727
0.001668015 -0.064213119 0.076866671
0.067480907 -0.056230579 0.077456474
0.076488838 -0.056531496 0.071993217
-0.29029518 -0.016403787 0.071401067
-0.27310541 -0.018637963 0.077908099
0.00052743533 -0.096960172 0.087207198
0.021934697 -0.082226992 0.085248671
0.016570752 -0.074884027 0.08349511
0.006553839 -0.061634172 0.087778345
0.011920595 -0.06113752 0.085591994
0.044448599 -0.069870837 0.086733118
0.032792956 -0.057984035 0.084501565
0.1130926 -0.10439906 0.098327607
0.1258224 -0.1020664 0.096902817
0.104474 -0.096846372 0.098280028
0.13842511 -0.0998822 0.099235989
-0.021857211 -0.070251957 0.097349331
0.00070582586 -0.075012892 0.093780741
-0.011493068 -0.066291831 0.094008796
-0.00094457506 -0.06153708 0.095631696
0.0024634034 -0.061532937 0.092355229
0.02997773 -0.068360351 0.090779752
0.067419402 -0.066192687 0.092907876
0.020986611 -0.058329657 0.093842708
0.088944361 -0.058545265 0.094402164
0.10907142 -0.11031637 0.10420861
0.087649524 -0.1036149 0.10592694
0.091785893 -0.10271122 0.10474703
0.12997399 -0.10162677 0.10794305
0.089408241 -0.095651567 0.10192811
0.10457 -0.0912662 0.10930182
0.1393404 -0.081935279 0.10147531
0.089976579 -0.076361373 0.10751034
0.036478579 -0.067236483 0.10374306
0.014484926 -0.057245016 0.10672136
0.039072275 -0.055271592 0.10254978
-0.31032163 -0.016234498 0.10796311
-0.30653936 -0.015223306 0.10492909
-0.29457796 -0.01712505 0.10075586
0.1086202 -0.1142545 0.11738918
0.12997399 -0.10911772 0.11867996
0.13475791 -0.093165755 0.11688912
0.025103321 -0.083155379 0.11655422
0.056446359 -0.086158164 0.11465429
-0.0056956625 -0.070826426 0.11462315
0.04720122 -0.075885013 0.11438676
0.054682299 -0.072779745 0.11379061
0.061749484 -0.07748986 0.11421424
0.083312437 -0.078630149 0.11570418
0.091306642 -0.073867038 0.11929386
0.13216224 -0.072367951 0.11035844
-0.026642043 -0.067027256 0.11706707
-0.0036762352 -0.065002821 0.11611059
0.016920859 -0.069273263 0.11940111
0.036932364 -0.065391794 0.11896685
0.053931303 -0.065892443 0.11547188
0.074734114 -0.061901808 0.11813296
0.030673049 -0.055085495 0.11162335
0.068372212 -0.055477247 0.11438466
-0.32135373 -0.014882156 0.11717353
-0.31912512 -0.014901348 0.11882795
0.067916051 -0.10252132 0.12071582
0.10457 -0.099992335 0.12454885
0.12081227 -0.07254383 0.12455507
0.13698713 -0.076579973 0.12612985
-0.020385854 -0.060230747 0.12297384
0.0046188626 -0.061949428 0.12365748
0.022702074 -0.063454255 0.12391869
0.039428268 -0.062949076 0.12945586
-0.015074694 -0.059595555 0.12036621
0.010163317 -0.055326026 0.1268509
0.037845794 -0.053587396 0.12544474
-0.33280203 -0.012781538 0.12758458
-0.32039565 -0.011795742 0.12751238
-0.31867588 -0.012318646 0.12170134
0.10978167 -0.10384416 0.1351399
0.111872 -0.10952297 0.13001382
0.09549436 -0.09361998 0.13658699
0.10257884 -0.090458699 0.13452968
0.12661968 -0.096912242 0.13422564
0.056086387 -0.060107052 0.13442594
-0.00060498901 -0.055338826 0.13597742
0.0073013753 -0.054858044 0.13397633
0.022579435 -0.05354638 0.13392435
0.055137366 -0.059768349 0.13710776
-0.32089025 -0.011246034 0.13296381
-0.0078615546 -0.058428474 0.14350833
0.0031626774 -0.059123751 0.14621247
0.06135083 -0.058472846 0.1406077
-0.027192889 -0.055098332 0.15696584
-0.018423909 -0.056377992 0.15592113
-0.020541236 -0.060745351 0.16899519
-0.018778753 -0.063079469 0.1631106
-0.02990537 -0.059406985 0.16851977
-0.016512372 -0.05576393 0.16499302
0.008121917 -0.050694652 0.16382536
0.022582956 -0.058003508 0.16711903
0.034525793 -0.057087161 0.16468242
0.043734673 -0.056045853 0.16461012
-0.020216506 -0.054167956 0.17926212
0.018558312 -0.056554023 0.17742965
0.036852017 -0.0505068 0.17855799
0.028406531 -0.04948942 0.17327982
0.020638987 -0.048462357 0.18104056
-0.034763128 -0.051455904 0.19347599
0.018385317 -0.053461596 0.19422644
0.021398878 -0.053832166 0.19036373
-0.031381257 -0.049538907 0.19501436
-0.00085798465 -0.046638165 0.19820337
-0.031068545 -0.050722383 0.20770356
-0.027936619 -0.048000343 0.20304804
-0.014605109 -0.047164474 0.20093067
-0.012774135 -0.051972628 0.21077442
-0.0389641 -0.049175594 0.2193986
-0.049076237 -0.047421366 0.22093531
0.009314212 -0.048861999 0.22465762
-0.041957524 -0.047270142 0.23708028
-0.036685597 -0.044725373 0.2302838
-0.027918885 -0.048922643 0.23039746
-0.036919203 -0.046728835 0.24630649
-0.02159374 -0.04779496 0.24895637
-0.018392319 -0.041757189 0.24412569
-0.045500565 -0.043500379 0.2565496
-0.025968798 -0.040201634 0.25876105
-0.015684932 -0.040787689 0.25957379
-0.063788988 -0.042258114 0.26397157
-0.064636871 -0.040204704 0.2783975
-0.028119322 -0.044317923 0.27224448
-0.063379996 -0.040763773 0.29200795
-0.042958483 -0.042225286 0.29075465
-0.036517575 -0.036927752 0.2919001
-0.067159235 -0.036406852 0.30487335
-0.044905588 -0.035305463 0.30756843
-0.037398927 -0.039876148 0.30202901
-0.075504079 -0.037562601 0.31826219
-0.060480408 -0.038854118 0.3125982
-0.053398423 -0.039273214 0.31374663
-0.044149656 -0.0384036 0.31414917
-0.079629309 -0.035382148 0.33815551
-0.06919796 -0.032111265 0.3348788
-0.097172298 -0.036746413 0.34292278
