# .PCD v0.7 - Point Cloud Data file format
VERSION 0.7
FIELDS x y z
SIZE 4 4 4
TYPE F F F
COUNT 1 1 1
WIDTH 892
HEIGHT 1
VIEWPOINT 0 0 0 1 0 0 0
POINTS 892
DATA ascii
0.25072592 -0.014053977 -0.26321378
0.23948067 -0.00097363663 -0.2622858
0.24941115 -0.0178433 -0.25659183
0.25164577 -0.0158248 -0.25874764
0.2045266 -0.01209572 -0.24261206
0.22452596 -0.0178433 -0.24409625
0.19457856 -0.0178433 -0.23389219
0.20870589 -0.0178433 -0.23210736
0.22871582 0.0013880329 -0.23251256
0.25103936 0.00138762 -0.23623344
0.17915927 -0.0178433 -0.22321925
0.25808924 -0.013346553 -0.22746317
0.25825727 -0.0076697171 -0.22664742
0.22885701 0.001387959 -0.22966631
0.2370477 0.00138762 -0.22826265
0.23974307 -0.0178433 -0.21319649
0.26095998 -0.0083248932 -0.21352528
0.25834787 0.00138762 -0.21620847
-0.15921652 -0.017249648 -0.20072329
-0.10419351 -0.015805425 -0.2054213
-0.081879437 -0.010253343 -0.20838201
-0.035973206 -0.017672239 -0.2090095
-0.0092795379 -0.0178433 -0.20135823
0.021720175 -0.0178433 -0.20251988
0.030976431 -0.015729645 -0.2049592
0.26217657 -0.01639034 -0.20761853
-0.1133998 -0.00074460841 -0.20634805
-0.099189065 -0.0034265132 -0.2076264
-0.076393008 -0.0030989279 -0.20862147
-0.058691543 -0.00052126427 -0.20939419
-0.032441646 -0.00059428671 -0.20894116
-0.078655154 0.0013876199 -0.20687148
0.19261287 0.00138762 -0.20893647
0.20746729 0.001388588 -0.2025295
-0.18812463 -0.013231535 -0.19576976
-0.13924243 -0.010065019 -0.19559465
-0.097444452 -0.015301258 -0.19463922
0.018448751 -0.017842798 -0.19054854
0.040648006 -0.017842673 -0.19015469
0.054757968 -0.017842956 -0.19555432
0.17687702 -0.017843302 -0.19497675
0.24972901 -0.015650397 -0.19646639
0.25680131 -0.0178433 -0.1918442
-0.072131336 -0.0025222669 -0.19192958
0.087607622 -0.00058433792 -0.19609682
-0.15799257 0.00074234238 -0.19680202
-0.082953997 0.00138762 -0.19944271
0.0035453793 0.0058787637 -0.19214088
0.037017446 0.0094419327 -0.19627875
0.08444342 0.0013882815 -0.19470453
0.14553727 0.00138762 -0.19781606
0.18477237 0.0013881642 -0.19569299
0.23933545 0.00138762 -0.19563898
0.26211631 0.00138762 -0.19925833
-0.24090864 -0.015765306 -0.18250763
-0.21590927 -0.011610694 -0.18797973
-0.037269354 -0.010194271 -0.18617354
-0.019271407 -0.015903139 -0.18184674
0.16609743 -0.0178433 -0.18862155
0.17605597 -0.0178433 -0.1886882
0.20176142 -0.0178433 -0.1811469
0.21667093 -0.0178433 -0.18065071
0.22382115 -0.0178433 -0.18543936
-0.2418849 -0.00076852209 -0.18297215
-0.22348031 -0.0030772374 -0.18768616
0.13421927 -0.0077062268 -0.18539351
-0.20836842 0.0011706051 -0.18919514
0.083172493 0.00138762 -0.18671645
0.11997305 0.00138762 -0.18475893
0.085413262 -0.0178433 -0.17283934
0.16228522 -0.011948566 -0.17757988
0.24972901 -0.0106318 -0.17888379
0.15895918 -0.0096557299 -0.17850587
0.24972898 -0.0011664543 -0.17714718
0.26893455 -0.0065182755 -0.17480719
0.11621417 0.0013876201 -0.17639311
0.12333839 0.00138762 -0.17794277
0.17436974 0.0013895903 -0.17389579
0.21593949 0.00138762 -0.17599738
0.15981072 -0.021596756 -0.16959342
0.17295316 -0.026380366 -0.16046369
-0.2950103 -0.016299723 -0.1654411
0.089453109 -0.0178433 -0.1663841
0.1008054 -0.0178433 -0.16575658
0.13160293 -0.01784417 -0.16196522
0.16817839 -0.017844552 -0.16972747
0.20893079 -0.017843302 -0.16535993
0.21229084 -0.0178433 -0.16251273
-0.29591012 -0.0058058407 -0.16523355
0.033664256 -0.0097985379 -0.16520359
0.41471589 -0.0030583832 -0.16602001
0.093770787 0.00138762 -0.16624048
0.11480592 0.0013879628 -0.16500199
0.18726096 0.0013888396 -0.16856164
0.24204537 0.00138762 -0.16188908
0.25937518 0.00138762 -0.16283876
0.38002729 0.00138762 -0.1624123
0.15381345 -0.028109312 -0.15716393
0.22242436 -0.020538585 -0.15483475
0.10473825 -0.017843727 -0.15300345
0.26994085 -0.0178433 -0.15594178
-0.33246037 -0.0042121913 -0.15092546
-0.32697168 -0.0061053364 -0.15327714
0.063148499 -0.00010765705 -0.15273249
0.400296 -0.0045853867 -0.15066169
0.060817398 0.0013876199 -0.15982169
0.13763908 0.0013878737 -0.1515469
0.18047732 0.00138762 -0.15555164
0.21945228 0.00138762 -0.15222941
0.23435718 0.00138762 -0.15205382
0.24084997 0.00138762 -0.15799266
0.11909719 -0.034814399 -0.14351635
0.14456531 -0.032499727 -0.14878464
0.18819924 -0.034814399 -0.1405282
0.19228198 -0.034814399 -0.14201142
0.08275643 -0.024965668 -0.14512613
0.13447784 -0.028049733 -0.14436699
0.18226375 -0.023466347 -0.14436699
0.24318193 -0.023756903 -0.14687693
0.17862204 -0.019471124 -0.14436699
0.18103833 -0.017843485 -0.148094
0.24972901 -0.010917826 -0.14016826
0.3878547 -0.003378697 -0.14307091
0.39679 -0.0045658788 -0.14021826
0.401021 -0.0080080116 -0.14829478
0.15011069 0.0019581472 -0.14176495
0.23140953 0.0014276846 -0.1441866
0.17366552 -0.034814399 -0.13380931
0.19619462 -0.034814399 -0.13916698
0.21032207 -0.034814399 -0.13601649
0.085422575 -0.016354455 -0.13858756
0.27759039 -0.015677787 -0.13198504
0.38323057 -0.0178433 -0.13219529
0.39679 -0.01581572 -0.13023724
0.37730342 -0.0092801917 -0.1316053
0.11547841 0.003889414 -0.1328938
0.2237784 0.0013887933 -0.13726924
0.25599813 0.00138762 -0.13005009
0.39234057 0.00138762 -0.13448571
0.091379151 0.013259795 -0.13117759
0.29185122 -0.0178433 -0.12314438
0.35094044 -0.0178433 -0.12302791
0.37398037 -0.010334088 -0.12966338
0.30816841 -0.0016895825 -0.12623028
0.08639282 0.0064466614 -0.12114353
0.1017371 0.0052807229 -0.12650043
0.12513757 0.0013932538 -0.12826435
0.16813014 0.0062591992 -0.12198779
0.20563875 0.0013896136 -0.12904343
0.23619439 0.0061281454 -0.12257562
0.24902239 0.001387652 -0.12685367
0.26748902 0.00138762 -0.126221
0.28792462 0.00138762 -0.12249333
0.15356115 -0.040741373 -0.11148926
0.17959562 -0.040163722 -0.111532
0.10440599 -0.034814399 -0.11975075
0.20441842 -0.034999102 -0.11165573
0.22975062 -0.034814399 -0.11361349
0.23498295 -0.034867279 -0.111532
0.25500479 -0.01204337 -0.1124984
0.26224834 -0.010303977 -0.11089429
0.27235603 -0.0123873 -0.11225831
0.29717383 -0.0178433 -0.11631953
0.33609861 -0.017843302 -0.1193179
0.10376724 -0.0065522632 -0.1134726
0.25521713 -0.0093694283 -0.11553973
0.35050523 -0.0017260353 -0.1189592
0.09547618 0.0013945948 -0.11352827
0.10506512 0.0013941613 -0.11063297
0.12124882 0.0013934296 -0.11800013
0.1585591 0.0070835771 -0.11819986
0.24533945 0.007332461 -0.11703684
0.29996064 0.00138762 -0.11919659
0.30851161 0.00138762 -0.110809
0.38186228 0.00138762 -0.11223321
0.20474371 -0.047240864 -0.10062072
0.12043711 -0.034814399 -0.10661762
0.19262752 -0.034814399 -0.1074698
0.21961883 -0.034814399 -0.10633469
0.22867489 -0.034814402 -0.10514467
0.23647705 -0.034814399 -0.10544305
0.24972898 -0.020361872 -0.10952646
0.26668099 -0.017541222 -0.10387863
0.28073958 -0.015979514 -0.10702599
0.29760921 -0.013330204 -0.10652411
0.38185188 -0.0178433 -0.10049446
0.2635681 -0.0021969329 -0.10475242
0.29844499 -0.0040866542 -0.10454003
0.11113542 0.0093332222 -0.10786747
0.12404668 0.001393303 -0.10728046
0.13630578 0.0013927487 -0.10257919
0.16365024 0.0054233763 -0.10461143
0.18922532 0.009316083 -0.10792954
0.24066252 0.0013880299 -0.10220598
0.16659072 -0.044536445 -0.095950402
0.17904769 -0.046657443 -0.093565412
0.14663291 -0.036267452 -0.094110459
0.16872852 -0.034814399 -0.094183572
0.23873961 -0.034814399 -0.091273919
0.070436701 -0.024921814 -0.091852829
0.083481126 -0.022606064 -0.096227743
0.098926783 -0.022191398 -0.096003115
0.25866637 -0.020947309 -0.091757737
0.075217463 -0.01750925 -0.093466796
0.26305872 -0.019248635 -0.099453308
0.29369363 -0.017173413 -0.097578332
0.11378825 -0.0044487389 -0.096131094
0.080767557 0.0066020638 -0.094855487
0.21599871 0.001459187 -0.092367202
0.22434191 0.0013887679 -0.098170444
0.25129035 0.0015655686 -0.090378568
0.27347919 0.0010959251 -0.094225682
0.15653388 0.012667783 -0.092527449
0.21717878 0.012630768 -0.092684299
0.1714309 -0.045470752 -0.087780446
0.21301213 -0.046290446 -0.086738944
0.082097545 -0.034814399 -0.086698405
0.14467657 -0.037284642 -0.087101281
0.16771221 -0.034814399 -0.086359374
0.20071472 -0.034814399 -0.089289546
-0.041594554 -0.022529442 -0.082963429
0.042211369 -0.024982369 -0.08585456
0.058883019 -0.02548953 -0.085644498
0.27596352 -0.018242422 -0.082528554
0.38589165 -0.017843299 -0.085041985
0.07652019 -0.0057752202 -0.089477189
0.08575093 -0.0078910515 -0.088301845
0.10009187 -0.0057752202 -0.08568012
0.11723951 -0.002361537 -0.088623524
0.130144 -0.0067132059 -0.089192174
0.27320057 -0.00097207271 -0.085813351
0.28263074 -0.00098807656 -0.089534931
0.39679 -0.0072849831 -0.086499006
0.10196757 0.0076639475 -0.080281511
0.11903785 0.0066809556 -0.084711574
0.12456781 0.001598913 -0.089938484
0.16726738 0.0013913487 -0.081552088
0.19797663 0.0049157292 -0.080281064
0.21320783 0.0025224488 -0.083879761
0.22102311 0.0090473406 -0.0802809
0.25940713 0.0016116751 -0.089643665
0.2873351 0.0015369022 -0.083648846
0.10505766 0.014378058 -0.084675848
0.12536933 0.015023094 -0.081705853
0.13426313 0.010936577 -0.080281138
0.15923493 0.011548482 -0.0802809
0.16199678 0.013260482 -0.089801341
0.17925712 0.014342132 -0.084824711
0.1801593 0.014341569 -0.08482711
0.1544788 -0.034814399 -0.079867005
0.19140422 -0.034814399 -0.072800674
-0.064375445 -0.021223856 -0.078021333
-0.054032721 -0.020985376 -0.078332022
-0.045082621 -0.021788731 -0.077572204
-0.029451018 -0.021834131 -0.07753735
-0.016275458 -0.020392131 -0.079980336
0.0017695595 -0.021943403 -0.077478535
0.035595529 -0.027532196 -0.078119189
0.064993903 -0.02130729 -0.074530303
0.24972901 -0.027748642 -0.072865345
0.11609031 -0.0114321 -0.076007098
0.1150972 -0.0057752207 -0.078090042
0.12432967 0.0069075995 -0.071876086
0.38302091 0.00138762 -0.072268702
0.13782063 0.015327099 -0.074992061
0.18595389 0.0153271 -0.077645727
0.19557928 0.0153271 -0.071991496
0.21546337 0.0153271 -0.076753527
0.24972901 0.010597473 -0.077107936
0.19357857 0.030053494 -0.070004433
0.23397139 -0.041197054 -0.064016245
0.070436701 -0.031437349 -0.060186144
0.110345 -0.034305435 -0.068279594
0.246746 -0.034814399 -0.066562533
0.070436701 -0.028573416 -0.066231117
0.24972899 -0.010522069 -0.064430721
0.2752893 -0.016384808 -0.06827493
0.38278621 -0.0178433 -0.063387707
0.39601591 -0.014575668 -0.066828623
0.095089354 -0.0031587121 -0.067964368
0.10844649 -0.0031593048 -0.066723704
0.25760067 -0.003437893 -0.067136019
0.2877351 -0.0079885116 -0.060621716
0.29355782 -0.0052628904 -0.064920306
0.077475034 0.0013948811 -0.062826321
0.16453652 0.001391334 -0.067351073
0.2418876 0.0013879192 -0.06220217
0.39105427 0.00138762 -0.063997909
0.13626549 0.0153271 -0.067945041
0.15365207 0.023710024 -0.06410417
0.22105995 0.024703167 -0.068321943
0.21909395 -0.04515085 -0.056639843
0.10537918 -0.030110287 -0.058441155
0.13431954 -0.034814399 -0.051412687
0.15304479 -0.037322298 -0.055148512
0.19056696 -0.034814399 -0.059332348
0.10918207 -0.029667003 -0.058720365
0.079303563 0.0013945366 -0.050684225
0.10427611 0.0013936488 -0.050744951
0.11347164 0.0013933198 -0.051402479
0.14512883 0.0013919063 -0.051088512
0.2047314 0.0013893374 -0.058321197
0.38876402 0.00138762 -0.057279464
0.14084163 0.0153271 -0.055233397
0.16124745 0.0153271 -0.054088339
0.1456545 0.020192916 -0.051886998
0.17513412 0.029205833 -0.054352522
0.22297518 0.0240297 -0.053092655
0.18803699 -0.047449574 -0.045978334
0.21035463 -0.046595912 -0.042697269
0.14963965 -0.034814402 -0.046596862
0.13227192 -0.029997604 -0.044310506
0.37962919 -0.0178433 -0.049117107
0.38230199 -0.0178433 -0.041135646
0.10226104 -0.0031592399 -0.044932649
0.20929228 0.0013891633 -0.048980169
0.176632 0.0153271 -0.044878446
0.18234301 0.0153271 -0.047151469
0.17298461 0.028902845 -0.045216326
0.15816064 -0.042274456 -0.034061328
0.22436391 -0.044009544 -0.039043427
0.14495969 -0.034814402 -0.03337574
0.19833246 -0.034814399 -0.036159411
0.20147274 -0.034814399 -0.033077762
0.39513946 -0.015303831 -0.037984468
0.064777307 -0.0031578369 -0.038408183
0.079917036 -0.003159395 -0.034697354
0.099367239 -0.00016004138 -0.035780802
0.10434486 -0.0031594064 -0.032082163
0.068021417 0.0013943345 -0.03750097
0.07441093 0.0013942351 -0.038334128
0.098102726 0.0013932468 -0.030170649
0.14208551 0.0013917282 -0.035060551
0.15594265 0.0153271 -0.035534456
0.18805593 0.024392357 -0.0391578
0.20901544 0.024637125 -0.0391578
0.21333292 0.02581721 -0.0391578
0.18834101 -0.047461174 -0.025088223
0.19826926 -0.047547281 -0.029992484
0.22280741 -0.044434115 -0.02165097
0.19698201 -0.034814399 -0.023467813
0.2067481 -0.034814399 -0.027054954
0.21675441 -0.034814399 -0.022830728
0.1189986 -0.022323169 -0.02464621
0.11012392 -0.0122639 -0.025354408
0.24972901 -0.010920787 -0.024209201
0.13624354 -0.0048441663 -0.020817049
0.24972901 -0.00034565222 -0.023800343
0.060136985 0.0058426466 -0.021646691
0.071850985 0.0013937379 -0.02766588
0.09491051 0.0013931699 -0.027198263
0.16586617 0.0013908483 -0.022046119
0.19415328 0.001389741 -0.021706101
0.24972899 0.0050944733 -0.028911948
0.044013143 0.012794446 -0.023428921
0.058958136 0.015076789 -0.024788734
0.09088178 0.012514604 -0.028113035
0.1066946 0.016626779 -0.020638272
0.1388873 0.0153271 -0.028532209
0.14490519 0.0153271 -0.02511961
0.18443078 0.0153271 -0.027906939
0.21721089 0.0153271 -0.029516226
0.13677424 -0.030160395 -0.01220747
0.15063798 -0.039696716 -0.015836179
0.20453121 -0.034814399 -0.011800867
0.21832496 -0.034814399 -0.01234157
0.22309268 -0.034814399 -0.013770556
0.24438845 -0.037196595 -0.014717579
0.096615463 -0.024559204 -0.014999202
0.27705568 -0.02263312 -0.014126578
0.24984126 -0.010580312 -0.015075069
0.2581065 -0.014959119 -0.017999317
0.26450104 -0.017386895 -0.01344339
0.27033174 -0.016031276 -0.01764304
0.28173018 -0.01961598 -0.016158266
0.34582916 -0.013500067 -0.01819141
0.407974 -0.019650325 -0.012792531
0.13673201 -0.0054241689 -0.012892596
0.24972899 -0.0068523632 -0.013278112
0.29492465 -0.0039800992 -0.014185924
0.36758932 -0.0084308218 -0.018513162
0.086604863 0.0013927448 -0.013677678
0.14208367 0.0013915005 -0.013952603
0.24459207 0.0013878063 -0.011473248
0.28696352 0.0063834074 -0.011090171
0.32777986 0.0044540325 -0.013122633
0.37299266 0.0062332577 -0.011285871
0.407974 0.0040568751 -0.012676022
0.067035198 0.010855077 -0.018283833
0.20469862 0.0153271 -0.017986391
0.070929691 -0.034814399 -0.007040279
0.13715693 -0.034221768 -0.0059992913
0.26524144 -0.030297533 -0.0030286673
0.24972899 -0.021576274 -0.0067411736
0.3316102 -0.027592972 -0.00884597
0.36147135 -0.024893597 -0.0066104345
0.37179339 -0.026449939 -0.0036702016
0.24972899 -0.018642031 -0.0077210339
0.24972898 -0.0087766256 -0.0052122623
0.069315284 0.0013923603 -0.0034042527
0.10598603 0.001392157 -0.0068413741
0.15261807 0.0013911583 -0.008126691
0.19495931 0.0013896155 -0.005218409
0.24920315 0.001387639 -0.0051318896
0.26170594 0.0060955025 -0.0054289745
0.27109998 0.00725635 -0.0099524064
0.32728779 0.0093697626 -0.0065055601
0.33307055 0.0093692131 -0.0065068873
0.36354977 0.0051134648 -0.0070765223
0.093500778 0.015572724 -0.0038001179
0.15168071 0.0153271 -0.0082095871
0.17575726 0.0153271 -0.00039864346
0.20349284 -0.047348004 0.0075444691
0.23193759 -0.034814402 0.00056332443
0.24719207 -0.032944348 0.0053663929
0.2524896 -0.030460218 0.0074816402
0.089920223 -0.025543399 0.00057685934
0.24972901 -0.010001431 0.007404536
0.39679 -0.017230865 0.00073175924
0.079879418 0.0067070555 0.0091180373
0.10042121 0.0013916453 0.0072984411
0.12756547 0.0074467077 0.0050414712
0.20019834 0.0013894245 0.0090113645
0.21251376 0.0013889759 0.0067237462
0.32590157 0.0079557411 2.5008621e-05
0.38011053 0.0013876199 0.0064165508
0.40017271 0.0073761111 0.007364749
0.095813058 0.016625777 0.0046919333
0.18019682 0.0153271 0.0036681062
0.19094095 0.01604218 0.0043939273
0.34037942 0.011471537 0.0016347781
0.407974 0.010062825 0.0090739401
0.16219945 0.025118094 0.0074937386
0.20649771 0.026196901 0.0065191719
0.21157427 0.026196901 0.006767395
0.15313718 -0.040589854 0.018422801
0.19033432 -0.047537208 0.015436623
0.22867742 -0.042829692 0.013125709
0.12881669 -0.034814399 0.011656936
0.15437454 -0.034814399 0.016987089
0.19988355 -0.034814399 0.018735882
0.20405784 -0.034814399 0.011583677
0.24588038 -0.034814399 0.016033843
0.10418661 -0.025543399 0.014014028
0.11424603 -0.025543399 0.011332834
0.25900441 -0.028956536 0.011595891
0.27707607 -0.025083233 0.011597204
0.31214017 -0.024261385 0.012975724
0.32880169 -0.023097079 0.014437943
0.33951679 -0.028346729 0.013068174
0.38793236 -0.025468215 0.010951459
0.24993742 -0.015131641 0.019610651
0.3551825 -0.016202344 0.019339725
0.38082972 -0.0178433 0.014144354
0.39263827 -0.0178433 0.011904873
0.083988532 -0.00080676848 0.019676171
0.11902729 -0.0031607472 0.011733538
0.12458899 -0.0018130975 0.010728346
0.13668917 -0.0089009022 0.018915609
0.31134337 -0.003754897 0.019416995
0.38399312 -0.0013668322 0.018335631
0.059298992 0.0070449086 0.015210746
0.063276358 0.0013911114 0.017348031
0.087350801 0.0099608414 0.013413453
0.09547922 0.0040545575 0.012953485
0.10613242 0.0013913002 0.011384844
0.16679691 0.0013906365 0.010168548
0.18576717 0.0013899504 0.010934748
0.24498083 0.0013877929 0.01029391
0.27749738 0.005549009 0.0175073
0.062230945 0.010571201 0.010803135
0.075252272 0.01594054 0.012389671
0.14871573 0.017689118 0.011276448
0.15855594 0.0153271 0.011968362
0.171193 0.0153271 0.013880927
0.2057786 0.0153271 0.0158983
0.29949102 0.0153271 0.018678825
0.14654621 0.02404684 0.01197684
0.1523377 0.026196901 0.010781426
0.20114473 0.026196901 0.019958925
0.28307736 0.022498768 0.018627699
0.24037983 0.034936272 0.018627699
0.16251461 -0.043465376 0.023383792
0.22579245 -0.043618806 0.024886213
0.13713294 -0.034814399 0.023627639
0.16566935 -0.034814399 0.025823258
0.18936281 -0.034814399 0.027162539
0.13607115 -0.022829793 0.02894308
0.25608644 -0.021844346 0.020061458
0.091983221 -0.01319914 0.022592925
0.27905852 -0.013038533 0.020140281
0.32378718 -0.01264529 0.023633545
0.38326675 -0.011140748 0.023831628
0.39642826 -0.016394692 0.022822157
0.40028968 -0.010885485 0.023865234
0.24972898 -0.0060738754 0.027484803
0.2868681 -0.0076731229 0.023742985
0.31285655 -0.0080270534 0.020392351
0.33685261 -0.001857815 0.022310548
0.34878913 -0.0084534008 0.023845734
0.063609309 0.001390669 0.023474304
0.085324951 0.003464462 0.020590037
0.2064326 0.0153271 0.025949731
0.29235995 0.015327099 0.026932031
0.19893257 0.026196901 0.028182607
0.20730707 0.026196901 0.02125841
0.22569294 0.026196901 0.027085241
0.24137491 0.026196901 0.027411079
0.27394184 0.038812745 0.025326673
0.18641907 0.044252366 0.026949989
0.20189376 0.046632711 0.026846541
0.13368794 -0.034814399 0.037882935
0.16717592 -0.034814399 0.033164252
0.20181215 -0.034814399 0.038623549
0.079443417 -0.025543399 0.037509266
0.11389345 -0.012313309 0.038161136
0.10501008 -0.0031619952 0.03783324
0.096634626 0.0013910078 0.030835319
0.10362502 0.0013910701 0.030257374
0.17122714 0.0013899258 0.030134099
0.22849436 0.0013883935 0.039100789
0.30283901 0.018219361 0.03830421
0.24564891 0.026196901 0.03595243
0.27680492 0.026196901 0.031984802
0.14615421 0.030847795 0.038929671
0.2781502 0.03737656 0.030741461
0.19874375 0.046231359 0.039902315
0.21594816 0.047528304 0.039018206
0.18213931 -0.047012813 0.044904526
0.128365 -0.033989459 0.041439898
0.13822073 -0.034814399 0.047809005
0.20770374 -0.034814399 0.041746363
0.24972901 -0.029256299 0.046858214
0.10457826 -0.018333649 0.041450799
0.13251972 -0.019321924 0.048313748
0.083838448 -0.0031643126 0.047235329
0.24972899 -0.0059579234 0.045220893
0.12574579 0.0031980653 0.047588192
0.16046107 0.0013899647 0.045030374
0.17114149 0.0013897445 0.041748773
0.23421665 0.0033722844 0.046619937
0.15918261 0.0153271 0.040420555
0.17353156 0.015326774 0.048528515
0.22770634 0.015326479 0.04196509
0.24067786 0.015326215 0.045855857
0.1372862 0.026402038 0.040497068
0.14581746 0.027839787 0.046019189
0.20758611 0.026196901 0.045300715
0.22299568 0.026196901 0.049957789
0.24954242 0.026196901 0.043853678
0.14828411 0.031915572 0.040228445
0.1613515 0.036939815 0.044543445
0.19994859 0.046384871 0.043301154
0.25898439 0.04303268 0.047096971
0.11723444 -0.034814399 0.056475405
0.15042517 -0.03962066 0.053448338
0.19988918 -0.034814399 0.057966277
0.23296769 -0.034814399 0.059268616
0.27631018 -0.0086506316 0.058151677
0.081395485 0.00138762 0.053258818
0.094861843 0.00138762 0.051605206
0.11549121 0.00138762 0.059327029
0.13632202 0.00138762 0.056447841
0.15598348 0.00138762 0.050766863
0.16500579 0.00138762 0.054005217
0.17073354 0.0013876201 0.051981892
0.21168183 0.00138762 0.058820806
0.38933313 0.0013876201 0.051105376
0.1643213 0.0153271 0.055277012
0.20479399 0.0153271 0.058444813
0.21355928 0.014027606 0.05874379
0.24741603 0.016709639 0.052621149
0.27323657 0.017964436 0.053530999
0.16276036 0.026196901 0.05384957
0.20486841 0.026196901 0.054933373
0.22436321 0.026196901 0.056641437
0.15773095 0.035662256 0.050398227
0.21677347 0.045600824 0.051208999
0.098240554 -0.030402446 0.060596555
0.110085 -0.03111919 0.067385942
0.15047924 -0.039639987 0.062502682
0.23648772 -0.034814399 0.066573113
0.095491052 -0.018586839 0.066997074
0.29670203 -0.013813976 0.063141249
0.3877362 -0.0178433 0.068435274
0.12873192 -0.0019180774 0.063354999
0.25213504 -0.0074718427 0.06512779
0.28905073 -0.0047982614 0.069313228
0.29062077 -0.0017096503 0.067435041
0.085570134 0.00138762 0.061807554
0.10864183 0.0013876201 0.061389439
0.11499585 0.00138762 0.063066326
0.1262989 0.0013876201 0.065824077
0.18336281 0.00138762 0.062995292
0.22397193 0.00138762 0.06746076
0.23904014 0.0013876201 0.062994137
0.1468475 0.013507335 0.062491603
0.19415364 0.0153271 0.061883479
0.22142795 0.013330942 0.063755788
0.23926322 0.013225659 0.064512059
-0.091287687 -0.02410051 0.079587676
-0.077093959 -0.02618923 0.078126967
-0.062919803 -0.020970374 0.077738613
-0.041667435 -0.022723053 0.078799225
-0.021851623 -0.02284693 0.077999085
0.048630178 -0.029289406 0.079963051
0.24972898 -0.027761832 0.077234551
0.12467381 -0.014648577 0.07612294
0.28689563 -0.016554667 0.077058598
0.095065564 -0.0078157503 0.073549494
0.26285449 -0.0017603822 0.075795501
0.10136007 0.0013876199 0.072997645
0.12450936 0.0079641119 0.076640353
0.17000549 0.0013876201 0.07731542
0.19352868 0.0013876199 0.07650958
0.22592215 0.00138762 0.070374422
0.2681849 0.0020452191 0.076157339
0.23716885 0.012150871 0.072245404
0.099670753 -0.034814399 0.082439899
0.12526223 -0.034814399 0.085435875
-0.051137194 -0.024886701 0.080623135
-0.044745337 -0.022983134 0.082336344
0.05304344 -0.021375535 0.086488307
0.11008501 -0.027865328 0.088015229
0.04628104 -0.018000441 0.083317026
0.12035733 -0.011665374 0.087171137
0.10152356 -0.0078157503 0.080394484
0.12291792 -0.0035313265 0.081600785
0.12160802 0.00138762 0.089517862
0.1338128 0.00138762 0.088941775
0.14447129 0.00138762 0.085137837
0.16503017 0.00138762 0.082285009
0.19447313 0.00138762 0.082933709
0.22123432 0.00138762 0.082906187
0.24972872 0.004232218 0.082123727
0.27663705 0.00077679078 0.089392558
0.12063967 0.010841572 0.081674241
0.16773969 -0.044758234 0.099875785
0.2144008 -0.046056677 0.097637884
0.08152853 -0.034814399 0.09226153
0.091249272 -0.034814399 0.092744693
0.15352386 -0.037242346 0.093673036
0.29121894 -0.021002553 0.099906631
0.072240151 -0.015972408 0.093631215
0.1081294 -0.019153899 0.095635138
0.12285512 -0.0114921 0.090210639
0.24972957 -0.017085077 0.09539561
0.27102023 -0.018371027 0.094503373
0.38940978 -0.0178433 0.097268745
0.099551834 -0.0091371071 0.099165991
0.081544027 0.00138762 0.091845393
0.094080769 0.00138762 0.099861696
0.10446814 0.00138762 0.098348781
0.14096385 0.00138762 0.098856486
0.15018919 0.00138762 0.099047631
0.16147268 0.0086605912 0.097363807
0.18838723 0.00138762 0.093069017
0.22320332 0.00138762 0.097720444
0.23586874 0.008620996 0.097643241
0.24658087 0.00138762 0.090604126
0.393374 0.00138762 0.099728942
0.1164888 0.011015384 0.095586397
0.16358596 -0.043728091 0.10359146
0.22155033 -0.044676743 0.10400286
0.09526521 -0.032681186 0.10415556
0.12388112 -0.034814399 0.10794988
0.16175954 -0.034814399 0.10700727
0.20326287 -0.034814399 0.10842879
0.23218757 -0.034814399 0.10659248
0.086605623 -0.028845128 0.10173935
0.27520275 -0.016871611 0.10302293
0.28511524 -0.01695912 0.10269672
0.1099393 -0.0048023425 0.10882534
0.11310375 -0.0087562231 0.10295005
0.25072652 -0.0031370132 0.10868453
0.27173015 -0.0015801421 0.10486722
0.083278626 0.00138762 0.10336196
0.099101953 0.00138762 0.10571562
0.12318785 0.00138762 0.10516457
0.13351509 0.0013876199 0.10218774
0.14514357 0.0013876201 0.10655499
0.18513004 0.00138762 0.10898928
0.20560786 0.00138762 0.10258023
0.21410036 0.00138762 0.10339656
0.2320129 0.0072265612 0.10767658
0.24748857 0.0021429495 0.10494238
0.26823872 0.0022387332 0.10422125
0.27174172 0.0022629066 0.10415037
0.29844499 0.001542968 0.10132265
0.26972875 -0.017843299 0.11723433
0.25752565 -0.0046616816 0.11171394
0.28845251 -0.0083565749 0.11354747
0.29288217 -0.0044195699 0.11129652
0.088359505 0.006762214 0.11102679
0.092141531 0.00138762 0.11646987
0.16951382 0.00138762 0.11267409
0.17173769 0.0039277924 0.11267001
0.18922375 0.00138762 0.11323215
0.20050879 0.0067787953 0.11090043
0.24957335 0.0059179859 0.11709066
0.27848253 0.00138762 0.11604068
0.2882854 0.00138762 0.11575483
0.19770932 -0.047568649 0.12152389
0.13053514 -0.034814399 0.1232062
0.19407105 -0.034814399 0.12559152
0.29256976 -0.0178433 0.12104381
0.32002622 -0.012079034 0.12624723
0.3697072 -0.0178433 0.12898326
0.37787676 -0.015687581 0.12637642
0.24972931 -0.0085459575 0.1298535
0.26637083 -0.0083515216 0.12245515
0.30556503 -0.0013037667 0.12823156
0.36963379 -0.0090179229 0.12324283
0.39679003 -0.0021244376 0.12972617
0.094604045 0.003324535 0.12289779
0.10565978 0.00138762 0.12354777
0.13408016 0.00138762 0.12898366
0.15448642 0.00138762 0.12225139
0.21335608 0.00138762 0.12304512
0.23659198 0.00138762 0.12602665
0.24453233 0.00138762 0.12568556
0.25058907 0.0013876199 0.12139296
0.34208059 0.00138762 0.12410302
0.36405528 0.00082546752 0.12830409
0.1143622 -0.034814399 0.13564739
0.13573916 -0.034814399 0.1369978
0.14983574 -0.034814399 0.13644329
0.19726619 -0.034814399 0.13077945
0.23898922 -0.034814399 0.13412389
0.10037446 0.00138762 0.13163196
0.12181167 0.00138762 0.13305171
0.15452453 0.00138762 0.13575341
0.16655412 0.00138762 0.13868441
0.22283165 0.0030121503 0.13800022
0.23922086 0.0013876201 0.13461468
0.1369186 -0.033206701 0.14969701
0.15504399 -0.034814399 0.14579502
0.21825418 -0.034814399 0.1488245
0.22877771 -0.034814399 0.14488307
0.08219219 -0.027922796 0.14793624
0.09893176 -0.027782485 0.14969701
0.15751258 -0.027238129 0.14969701
0.21834838 -0.025433009 0.14969701
0.10559855 -0.017761189 0.14969701
0.17847061 -0.016360367 0.14969701
0.22903195 -0.011816502 0.14969701
0.24941859 -0.010462902 0.14969701
0.26279694 -0.0178433 0.14617358
0.27407616 -0.013296166 0.14767754
0.41008583 -0.016795013 0.14452851
-0.37122875 -0.003777585 0.145175
0.085435718 -0.0082022771 0.1439012
0.17078876 -0.0016429382 0.14969701
0.2185871 -0.0035990714 0.14969701
0.24972999 -0.0077332933 0.14941807
0.39056385 -0.0047692629 0.14969701
0.41887486 -0.0077466243 0.14942084
0.087054446 0.0098907119 0.14188749
0.11049307 0.0018586242 0.14630641
0.12796302 0.0013876201 0.14236508
0.13157882 0.00138762 0.14878795
0.16637169 0.00138762 0.1428059
0.18634784 0.00138762 0.14235233
0.20257103 0.00138762 0.14357626
0.24673334 0.0019853159 0.14167677
0.17226711 -0.033085093 0.15377074
0.23808765 -0.027643351 0.1545008
-0.34346572 -0.011349775 0.15449663
0.071675345 -0.011230288 0.15366976
0.1592537 -0.0178433 0.15382959
0.24155885 -0.010692322 0.15355143
0.26302838 -0.0178433 0.15297465
-0.34499505 -0.0066000149 0.15487805
-0.33111691 -0.0063691679 0.15953489
0.2719557 -0.00372147 0.15816131
0.061718166 0.00138762 0.15805697
0.21379791 0.00138762 0.15391971
0.13896406 -0.02672182 0.16876078
-0.32481802 -0.010991821 0.16075772
-0.30780143 -0.012812642 0.16647114
0.037252977 -0.014452631 0.16761017
0.21570617 -0.014949832 0.16574797
0.24096662 -0.0178433 0.16937423
0.21558747 -0.0027622243 0.16580397
0.27106419 -0.0024925186 0.16256915
0.064136319 0.00138762 0.16537972
0.074621126 0.00138762 0.16690078
0.13332811 0.00138762 0.16911586
0.21270898 0.00138762 0.16769564
0.22172135 0.00138762 0.16350113
0.15159741 -0.023574512 0.17617492
0.16881749 -0.024217812 0.17465949
0.19928876 -0.021407397 0.17051108
0.095974356 -0.0178433 0.17528412
0.15266 -0.0178433 0.17692558
-0.29134148 -0.0025702179 0.17199767
-0.2847513 -0.0090259183 0.17421035
0.18554571 -0.0016412596 0.17804569
0.033870038 0.0013876199 0.17658016
0.20644478 0.00138762 0.17249309
0.22978339 0.00138762 0.17966132
0.2671459 0.00138762 0.17170668
-0.26200053 -0.01464746 0.1830337
-0.24468853 -0.014716137 0.18580887
-0.026756288 -0.0178433 0.18709984
0.033869892 -0.0178433 0.18018416
0.085187428 -0.0178433 0.18141168
0.15313825 -0.014613104 0.18958549
0.22253835 -0.0178433 0.18050495
-0.24724379 -0.002360546 0.18823692
0.26568416 -0.0090407059 0.18916887
-0.018962078 0.00138762 0.18945834
-0.0048503107 0.0037921646 0.188935
0.0087198075 0.0049292273 0.188935
0.026494613 0.0015889198 0.18611024
0.089504465 0.0013876199 0.18697593
0.13055317 0.0013876201 0.18312123
0.15146142 0.00138762 0.18405101
0.18553457 0.00138762 0.18354815
0.19254988 0.00138762 0.18773317
0.22815828 0.00138762 0.18032555
0.23105699 0.0013876201 0.18067455
-0.21262568 -0.016671076 0.19854164
-0.16981551 -0.010505391 0.19667718
0.035677884 -0.017843302 0.19609366
0.067205429 -0.0178433 0.19663796
0.1323303 -0.017181246 0.19599992
0.14189869 -0.0045474642 0.19305012
-0.16585362 0.00138762 0.19975518
-0.14905888 0.00138762 0.19904074
0.016498301 0.00138762 0.19881134
0.10250814 0.00138762 0.19270986
0.1965808 0.00138762 0.19542761
0.26196846 0.0013876199 0.19388437
0.059687585 0.011867387 0.19599882
-0.16738248 -0.016491655 0.20564254
-0.072312973 -0.0178433 0.20090622
-0.009246476 -0.0178433 0.20147863
0.042421862 -0.0178433 0.20769346
0.15200911 -0.017843299 0.20789275
0.26157007 -0.014781681 0.20950975
-0.18315259 -0.0016729719 0.20589213
0.1240126 -0.0018376453 0.20394589
-0.18232422 0.00053353002 0.20605764
-0.16472356 0.0010150513 0.20957428
-0.032340746 0.00138762 0.20369157
0.01158431 0.00138762 0.20683272
0.061170537 0.00138762 0.20875378
0.073442914 0.0095698386 0.20495901
0.1079899 0.00032550859 0.20239653
0.11146636 0.00138762 0.20010188
0.14317931 0.0013876199 0.20400852
0.16285837 0.0013876201 0.20723698
0.26221007 0.00050773809 0.20634532
0.05217807 0.011073191 0.20046143
-0.15473068 -0.0178433 0.21001278
-0.14181265 -0.016136769 0.21366975
-0.10321485 -0.013528384 0.21856861
-0.047053628 -0.0178433 0.2180357
-0.013042939 -0.0178433 0.21605636
0.050220352 -0.0178433 0.21134083
0.18277334 -0.0178433 0.2182593
0.20063436 -0.0178433 0.21217549
-0.11605072 -0.0082041044 0.21694086
-0.10742122 -0.0094675412 0.21803659
0.046318628 -0.0011309835 0.21437161
0.067090675 -0.0046288637 0.21107784
0.25998154 -0.0051312307 0.21736366
-0.099698484 0.00138762 0.2102917
-0.017229447 0.00138762 0.21908984
0.23030646 0.00138762 0.21664833
0.24510702 0.00138762 0.21253951
0.20572333 -0.0178433 0.22002235
0.21473657 -0.0178433 0.22288819
0.22761805 -0.0178433 0.22241788
-0.040128026 -0.0064243488 0.22081745
0.24972899 -0.0028629333 0.22302584
0.25827169 -0.0079352558 0.22581731
0.17704201 0.00138762 0.22541392
0.18338403 -0.013197185 0.23422191
0.22497526 -0.0178433 0.23808147
0.23636952 -0.0178433 0.23567617
0.17893764 -0.004023381 0.2319545
0.20435044 -0.0178433 0.24204567
0.22187629 -0.0178433 0.24468789
0.23334104 -0.0178433 0.24213734
0.24972901 -0.00064371881 0.2483158
0.21381634 0.001151636 0.24974063
0.22194639 -0.0064487513 0.25388646
0.22477584 0.00138762 0.25167835
0.23962538 0.00138762 0.25795296
0.25001818 -0.0065638358 0.26662421
