# .PCD v0.7 - Point Cloud Data file format
VERSION 0.7
FIELDS x y z
SIZE 4 4 4
TYPE F F F
COUNT 1 1 1
WIDTH 834
HEIGHT 1
VIEWPOINT 0 0 0 1 0 0 0
POINTS 834
DATA ascii
-0.1019241 -0.022345206 -0.33780494
-0.101962 -0.026616473 -0.32577553
-0.095084056 -0.023358006 -0.3273288
-0.10308103 -0.027408021 -0.31513304
-0.087591648 -0.02446758 -0.31582883
-0.10171712 -0.027694637 -0.30437887
-0.083418459 -0.029899584 -0.30395082
-0.083340712 -0.030562839 -0.29591677
-0.071138881 -0.027756911 -0.29968947
-0.083544977 -0.028237082 -0.28389689
-0.069774337 -0.027115211 -0.2873314
-0.058327161 -0.033157125 -0.27463925
-0.071261592 -0.027967485 -0.27560636
-0.063522689 -0.028064139 -0.2742815
-0.088982835 -0.031553634 -0.26919582
-0.079878107 -0.030708566 -0.26692051
-0.046310313 -0.0308371 -0.2570717
-0.067289859 -0.03224628 -0.24804366
-0.064330578 -0.037241206 -0.23895448
-0.058325909 -0.035396568 -0.23499188
-0.037019074 -0.036510658 -0.23303695
-0.046694215 -0.040061366 -0.22033063
-0.032488666 -0.040327307 -0.22533551
-0.071538024 -0.03736119 -0.22278637
-0.062438726 -0.038665526 -0.2254329
-0.05297327 -0.034050155 -0.22552291
-0.04049439 -0.041118696 -0.21309048
-0.023567934 -0.040443927 -0.21904364
-0.032790534 -0.03316864 -0.21305661
-0.070822984 -0.040034611 -0.20811634
-0.014810801 -0.042663213 -0.20330711
-0.041612968 -0.036334693 -0.20236702
-0.022369556 -0.034210406 -0.20395671
-0.054217484 -0.041163146 -0.19552788
-0.0030922275 -0.042484999 -0.19364469
0.0028549433 -0.040498801 -0.19035426
-0.046870757 -0.038009055 -0.19825381
-0.015564783 -0.035214577 -0.19427994
-0.0040221959 -0.037724636 -0.19644904
-0.047814935 -0.041482091 -0.18003024
-0.033719447 -0.039028682 -0.18087985
-0.028060952 -0.037217185 -0.18537045
-0.048136629 -0.042050876 -0.17728814
-0.032624647 -0.045526721 -0.1737179
-0.011615444 -0.046404868 -0.17557013
-0.0057415441 -0.036703434 -0.17402738
-0.042573154 -0.044106543 -0.16867352
-0.037786305 -0.046698846 -0.16013262
-0.015217645 -0.047277037 -0.16507033
0.0011799429 -0.04858404 -0.16065907
0.014529206 -0.045147192 -0.16886872
-0.015507069 -0.038657419 -0.16629225
-0.00069033355 -0.037471291 -0.16324964
-0.049383499 -0.046509713 -0.15473515
-0.032479964 -0.044777006 -0.15779339
-0.021749005 -0.041599236 -0.15634142
-0.015150525 -0.048391502 -0.15445334
0.022336882 -0.047598545 -0.1542163
0.004014188 -0.05004739 -0.14751719
0.022015166 -0.05046317 -0.14404541
-0.043704383 -0.047970429 -0.14514306
-0.03059927 -0.050146405 -0.13049266
-0.033065379 -0.047540687 -0.13476346
-0.0089978604 -0.042931821 -0.13766894
0.028550422 -0.041724592 -0.13154869
0.035864584 -0.047759451 -0.13918586
0.040285703 -0.04455369 -0.13060799
0.01319157 -0.039541792 -0.13999295
0.11062971 -0.083533846 -0.12647112
0.073737599 -0.074876726 -0.12460907
0.11720166 -0.079071112 -0.12762597
0.1230591 -0.078673534 -0.12239991
-0.01778413 -0.051554821 -0.12302265
0.0076678395 -0.052609734 -0.1247386
0.0880211 -0.058603648 -0.12047026
0.095985338 -0.05818776 -0.12088674
-0.037112322 -0.049401533 -0.12864888
-0.0012890776 -0.04419069 -0.12396116
0.10816624 -0.093131408 -0.11697443
0.082952462 -0.088945426 -0.11815415
0.097936958 -0.085299522 -0.11756967
0.057664637 -0.078404933 -0.1141818
0.052059561 -0.062529191 -0.11045983
0.113391 -0.068560541 -0.11820402
0.12178507 -0.062149618 -0.1163612
-0.028872332 -0.05187089 -0.11559406
0.052062795 -0.051154163 -0.114192
0.066227935 -0.056800738 -0.11140017
0.076227598 -0.055661105 -0.11098834
0.085405745 -0.053054739 -0.11268595
0.094613627 -0.0504696 -0.11232126
0.11267019 -0.055142496 -0.11449955
0.1241133 -0.057341661 -0.11633804
-0.013871476 -0.04751442 -0.11754873
0.023762949 -0.041576084 -0.11907594
0.030938614 -0.042168438 -0.11351781
0.046502404 -0.045131125 -0.11755481
0.052134007 -0.047828499 -0.11569387
-0.33629459 -0.021540001 -0.11213776
-0.3306708 -0.019994762 -0.11583391
0.06925112 -0.083022371 -0.10241162
0.073675409 -0.088584006 -0.10452022
0.095202208 -0.087984793 -0.10290287
0.10395602 -0.089134976 -0.10909817
0.113391 -0.085091889 -0.10215177
0.050827444 -0.076757878 -0.10663442
0.058252595 -0.065666929 -0.101509
0.062701479 -0.061790776 -0.10902569
0.0057800692 -0.053318176 -0.10772675
0.028567778 -0.054073896 -0.10468657
0.045032404 -0.055106435 -0.10805153
0.05048199 -0.055001412 -0.10931966
0.077108726 -0.05632513 -0.10647367
0.086548783 -0.052891269 -0.10375967
0.096779212 -0.054736458 -0.10809745
0.0063266223 -0.046203151 -0.10512745
-0.3354823 -0.021754889 -0.10436083
0.11665529 -0.092735916 -0.098672323
0.075554311 -0.084208079 -0.096917123
0.081773639 -0.087877549 -0.097367764
0.11400601 -0.083570801 -0.095877551
0.068676427 -0.07488066 -0.096401036
0.071563311 -0.076172903 -0.092404723
0.057729952 -0.068212979 -0.099697173
0.087903008 -0.067739561 -0.093521208
0.091931194 -0.061648041 -0.098114185
-0.027418053 -0.054802053 -0.091985255
-0.014971076 -0.054796077 -0.096213423
0.036658593 -0.057097152 -0.095201731
0.064302005 -0.051696014 -0.098175444
0.0016517034 -0.049026482 -0.091085561
-0.32082051 -0.024207599 -0.090459153
0.12383694 -0.079452612 -0.089346483
-0.028319087 -0.053598307 -0.089241877
-0.32165647 -0.023775041 -0.080087811
-0.31880641 -0.023495127 -0.081670694
-0.30492979 -0.023109984 -0.081270829
-0.021223687 -0.054590754 -0.073511764
-0.010379193 -0.057420805 -0.075262412
0.0070326137 -0.057741933 -0.077543728
0.012119899 -0.058738787 -0.070680447
0.024121793 -0.058787949 -0.074238077
0.063786365 -0.046937186 -0.079383165
-0.33670214 -0.02491523 -0.074117191
-0.29452997 -0.024126444 -0.076702058
-0.0014643039 -0.10118931 -0.061905496
-0.024063677 -0.094586089 -0.062256712
-0.015783079 -0.098313272 -0.061760586
0.0018629726 -0.0938567 -0.064797953
0.057374492 -0.061476056 -0.062097207
0.072265722 -0.061653286 -0.060713865
0.079636954 -0.050144292 -0.067377634
0.065733045 -0.047272284 -0.068959355
0.072017841 -0.048159793 -0.066413492
-0.32656193 -0.025749989 -0.064169817
-0.30993712 -0.025315594 -0.063538395
-0.28542966 -0.025166174 -0.067530654
-0.02235057 -0.09606193 -0.054481752
-0.0044275918 -0.095647722 -0.054553837
0.0046621729 -0.0947771 -0.057385914
-0.0028607056 -0.086911283 -0.055043478
0.00014409525 -0.082936212 -0.055169627
-0.0079240091 -0.059673563 -0.057177339
0.018087663 -0.052512057 -0.050885484
0.041079238 -0.048477717 -0.058724776
0.069799371 -0.047901079 -0.058576941
0.076546103 -0.048864618 -0.054116149
-0.30715734 -0.027427424 -0.052174285
-0.28187191 -0.025370447 -0.055211749
-0.005622929 -0.10119904 -0.048138727
-0.02186621 -0.096506454 -0.048079062
-0.015986186 -0.060356617 -0.049185582
-0.0060806884 -0.069846489 -0.040840782
0.015046028 -0.061862998 -0.045462996
0.025919981 -0.062530868 -0.042990997
0.062679842 -0.063025214 -0.049579412
0.09050677 -0.063507847 -0.04042292
0.0085769566 -0.05526454 -0.040132053
0.039785787 -0.050352909 -0.046708681
0.047209274 -0.049043231 -0.048961572
0.065823607 -0.048145995 -0.042051829
-0.28664345 -0.029220344 -0.048784606
-0.011919491 -0.071543552 -0.032716658
0.015332196 -0.070841968 -0.032959547
0.021256119 -0.072355188 -0.032030996
-0.044320807 -0.069766589 -0.030310312
-0.027940199 -0.06563393 -0.033486377
-0.0024112102 -0.062899567 -0.035097737
0.0065226909 -0.063281797 -0.03042068
0.010656151 -0.065691903 -0.035306305
0.02799478 -0.063530684 -0.035245106
0.088068239 -0.065912113 -0.034658298
0.094112173 -0.064534217 -0.035222299
-0.086896271 -0.054493316 -0.03166303
0.0049750987 -0.056344483 -0.035339184
0.018281218 -0.059487142 -0.034658302
0.02623922 -0.056005489 -0.034658302
0.034761339 -0.052580781 -0.034658302
0.04230905 -0.051600382 -0.036270328
0.096430771 -0.059307981 -0.034658302
0.10069788 -0.05326698 -0.034844976
0.1135436 -0.059786126 -0.033723637
0.14025941 -0.053893879 -0.031962752
0.15848465 -0.050950985 -0.033140626
0.16745993 -0.052726839 -0.032546286
0.19714229 -0.054021113 -0.031899128
0.20807333 -0.05122748 -0.033048794
0.2701264 -0.050487649 -0.031132489
-0.13570353 -0.04224224 -0.035071101
-0.085485987 -0.049877059 -0.033497304
-0.066004053 -0.046280392 -0.034460858
-0.02235131 -0.045406137 -0.03475558
0.053569965 -0.040388126 -0.035255812
0.060181744 -0.046339929 -0.03466244
0.086185269 -0.043320604 -0.034963612
0.12507984 -0.041388869 -0.035156116
0.20254111 -0.048223108 -0.034046624
0.25821671 -0.048165854 -0.033083022
0.26082319 -0.041531548 -0.033769872
-0.2728194 -0.030688094 -0.037694924
-0.20629852 -0.033933792 -0.030223317
-0.16687064 -0.032607213 -0.033287048
-0.15106982 -0.033991192 -0.034749154
-0.14901209 -0.033021536 -0.034723792
-0.13258231 -0.034655824 -0.034887403
-0.021348424 -0.037179407 -0.035139613
-0.0065448973 -0.037046824 -0.035126362
0.1349882 -0.035211176 -0.034942832
0.14389956 -0.035122562 -0.034934115
0.15901865 -0.039921887 -0.035302263
0.16819084 -0.037181914 -0.035139862
0.17337988 -0.030169785 -0.03392832
0.19185641 -0.036446873 -0.035066396
0.22389619 -0.032454796 -0.034544263
-0.30294311 -0.027909152 -0.039319456
-0.2673068 -0.028241385 -0.03788048
-0.15340726 -0.023189135 -0.030940354
-0.13548459 -0.027840763 -0.033154823
-0.11153901 -0.026777089 -0.032801587
-0.043699365 -0.027369862 -0.032998495
0.084261447 -0.026912071 -0.032846414
0.11365632 -0.022792391 -0.030936703
0.16425717 -0.026833609 -0.032728978
0.17334059 -0.026885469 -0.032837577
0.23968923 -0.023555486 -0.031317286
-0.050677471 -0.071265101 -0.023456927
-0.027940199 -0.073627517 -0.024657099
-0.015521727 -0.074230984 -0.026116712
-0.0098207323 -0.073684484 -0.028774451
0.00066593848 -0.073955521 -0.028082766
0.024220459 -0.074307226 -0.024142098
0.097609758 -0.073779538 -0.028543144
-0.14235401 -0.066740863 -0.022100111
-0.12197828 -0.064618543 -0.024750356
-0.11897439 -0.067031994 -0.02173657
-0.070620447 -0.065048665 -0.024213238
-0.062015012 -0.064488083 -0.027491111
-0.024377104 -0.063281797 -0.029014599
-0.0012097047 -0.063281797 -0.029004522
0.0094023049 -0.063281797 -0.029537018
0.010962713 -0.063281797 -0.027914962
0.13367216 -0.06527333 -0.023932703
0.15684846 -0.064829119 -0.024487399
0.16273677 -0.068391263 -0.020039171
0.21709388 -0.067070186 -0.021688864
0.22760029 -0.060328286 -0.028344704
0.2747854 -0.061890081 -0.024303053
0.29306677 -0.060994595 -0.021605842
-0.2064909 -0.053813003 -0.022704292
-0.18357827 -0.052719269 -0.027204514
-0.20505743 -0.049557775 -0.026181493
-0.19523251 -0.043988544 -0.029904401
-0.27031332 -0.031917933 -0.025756415
-0.22324678 -0.033646684 -0.027209783
0.3080028 -0.037415523 -0.023464432
0.31811336 -0.034020551 -0.020221528
-0.2635482 -0.028812705 -0.020311985
-0.2469648 -0.025243357 -0.020059519
-0.23713425 -0.025294131 -0.022449452
-0.19947964 -0.028485946 -0.029876327
-0.18120241 -0.022128265 -0.028796179
0.029849239 -0.02053367 -0.029811431
0.26902631 -0.020125203 -0.02660913
-0.17406964 -0.018482517 -0.02727323
-0.16241597 -0.014941644 -0.024997547
-0.14490601 -0.012868771 -0.023175091
-0.059213459 -0.018696466 -0.028579596
-0.048928678 -0.01796986 -0.027995236
-0.024861164 -0.013322433 -0.023741577
0.010287898 -0.017849945 -0.027898844
0.036062211 -0.017191706 -0.0273694
0.047155134 -0.018000927 -0.028020259
0.089279041 -0.015354287 -0.025891885
0.10625401 -0.013908219 -0.024122268
0.11218213 -0.012254802 -0.022408286
0.12773503 -0.018367151 -0.028314713
0.13812275 -0.012562408 -0.022792352
0.14721102 -0.018574076 -0.028481122
0.22646162 -0.01034306 -0.020021103
0.23751014 -0.018840998 -0.028695807
0.24543893 -0.012250798 -0.022276469
0.26526871 -0.016080901 -0.024109872
-0.21493679 0.011515975 -0.020095281
-0.1478314 -0.0705157 -0.015846252
-0.073911563 -0.072287939 -0.011638682
-0.0059308293 -0.074431002 -0.015115553
0.063154995 -0.074431002 -0.011720255
0.093453936 -0.074431002 -0.012723085
0.13483207 -0.071958803 -0.012626074
-0.1463965 -0.069659755 -0.01756403
-0.073785871 -0.069235876 -0.018414691
-0.067003094 -0.069215372 -0.019795656
-0.010747263 -0.063281797 -0.014117781
-0.0076426975 -0.063281797 -0.010056736
0.25421235 -0.069820888 -0.016483046
0.27763173 -0.066933073 -0.018352475
0.29539728 -0.069802411 -0.011821652
-0.23867078 -0.050860893 -0.016395018
-0.22490549 -0.057981543 -0.010866035
0.34060082 -0.051075757 -0.010113851
-0.29648954 -0.031775717 -0.012362966
-0.28896496 -0.032077495 -0.018675031
0.31506783 -0.030035483 -0.019753054
0.3204903 -0.031259693 -0.018033877
-0.280424 -0.023061585 -0.012608234
-0.27491966 -0.028569372 -0.014702829
-0.26165199 -0.026961043 -0.017232828
-0.2429916 -0.013413222 -0.01489595
-0.22248638 -0.010841498 -0.016181659
0.023718253 -0.010165798 -0.019724915
0.075424351 -0.010257974 -0.019909903
0.27564564 -0.010116719 -0.010876898
-0.28459439 -0.00197729 -0.011810077
-0.25572929 -0.00052572053 -0.017315906
-0.2476083 -4.7083886e-06 -0.010088893
-0.2377684 -0.0098111108 -0.010721785
-0.21186349 -0.0020100027 -0.014751931
-0.18900764 -0.0066051064 -0.011288201
-0.095867962 -0.0074348706 -0.014244217
-0.082539923 -0.0089362953 -0.017257426
0.015645804 -0.0059224158 -0.010059793
0.020276237 -0.0076194014 -0.014614553
0.065278575 -0.0074191443 -0.014212657
0.075869493 -0.0069663515 -0.013159577
0.09348812 -0.009074471 -0.017534733
0.16649568 -0.0090817101 -0.017549258
0.19440354 -0.0063868463 -0.011438837
-0.29439363 0.007892549 -0.014984152
-0.26107991 0.0040031476 -0.019342382
-0.25515062 0.0042494219 -0.013370857
-0.228038 0.0047422796 -0.011907363
-0.26525673 0.015537721 -0.01522686
-0.23877183 0.017677311 -0.019934975
-0.29918724 0.023946343 -0.012572074
-0.28595856 0.024732538 -0.014117314
-0.27251104 0.022779683 -0.011626123
-0.23492859 0.029289277 -0.010338541
0.28444865 -0.095886983 -0.0029395723
0.28667453 -0.08421284 -0.0012758158
-0.10571707 -0.073826574 -0.0063536428
-0.073058374 -0.073965862 -0.0049564689
-0.051965032 -0.073836967 -0.0079204421
-0.019970693 -0.074431002 -0.0033735298
-0.0031564161 -0.073177218 -0.0092759598
0.0071282238 -0.074431002 -0.0053880746
0.10082746 -0.074431002 -0.0064223441
0.13525555 -0.074282899 -0.0017762642
0.1444121 -0.073043272 -0.0093726963
0.20963898 -0.074051403 -0.0040983893
0.28997648 -0.070683673 -0.0042264941
0.2939209 -0.072869577 -0.00093160017
-0.17432629 -0.069952637 -0.0011862835
0.015707312 -0.067509972 -0.0092759598
0.3012453 -0.068384402 -0.0052694455
0.32242814 -0.063250266 -0.0051841605
-0.25996107 -0.051984519 -0.0047354447
-0.23003966 -0.05792981 -0.0080200229
0.33699435 -0.057626083 -0.004138201
0.3465108 -0.05069346 -0.0064064004
-0.30715936 -0.041770596 -0.0021773987
-0.29246458 -0.04006939 -0.0098538976
-0.27454719 -0.049177609 -0.00096009864
-0.30616236 -0.031599198 -0.0085821217
-0.31403071 -0.024214337 -0.0060753161
-0.30054429 -0.018190265 -0.0076961084
-0.29706481 -0.014263356 -0.0037857685
-0.27457654 -0.013551209 -0.0078139342
-0.28356171 -0.00039021065 -0.0084109325
-0.26919043 -0.0022082084 -0.0026943281
-0.24684182 -0.0084917378 -0.0012564142
-0.22507311 -0.006561338 -0.0030857152
-0.21357289 -0.0075379731 -0.0069560055
-0.16289829 -0.0050899503 -0.0075682243
-0.15271322 -0.005642761 -0.0091647338
-0.101482 -0.0044343183 -0.0016765849
-0.077650502 -0.0052172337 -0.0069514271
-0.048982359 -0.0048098704 -0.0054435451
-0.035917219 -0.0046484354 -0.0038242782
-0.013457552 -0.0046655508 -0.0039959541
-0.0049818158 -0.0058821552 -0.0099402443
0.018688358 -0.0045306105 -0.0026424404
0.070052549 -0.0049429201 -0.0067781052
0.12799093 -0.0048321863 -0.0056673861
0.1677545 -0.0044063707 -0.0013962557
0.19144382 -0.0055165049 -0.0088545103
0.22815861 -0.0046423962 -0.0037637036
-0.29600054 0.003730417 -0.0011353435
-0.28346792 0.006886635 -0.00098956807
-0.25484788 0.0065996228 -0.0037954152
-0.2512868 0.012285181 -0.0041720588
-0.32629645 0.02990659 -0.00029068999
-0.317121 0.023166072 -0.00029068999
-0.29446992 0.02813331 -0.0042770314
-0.25438827 0.02536587 -0.0026617593
-0.216023 0.025486367 -0.0038409599
-0.32020432 0.032603174 -0.00029068999
-0.28345174 0.033403374 -0.0020353463
-0.27174106 0.031449161 -0.0013808917
-0.26459914 0.031093948 -0.0055048615
-0.25162402 0.035233036 -0.00049757212
-0.32091531 0.048583306 -0.00055354816
-0.32401639 0.061517224 -0.00063999376
-0.31457055 0.079180323 -0.0017849703
0.28553125 -0.10062526 0.0076177153
0.28209305 -0.095540762 0.0028049061
-0.087167479 -0.073728018 0.0067374748
-0.076984704 -0.073870316 0.0053338208
-0.04901173 -0.074269935 0.0013250059
-0.02814687 -0.074431002 0.0036554607
-0.0029883422 -0.074431002 0.0053331247
0.02325717 -0.074431002 0.0014055251
0.17357586 -0.074336484 0.00065746543
0.1824052 -0.073979646 0.0042370353
0.22770001 -0.073042601 0.0087935794
0.25329816 -0.072886474 0.00835789
-0.0068092188 -0.063642293 0.0086949803
0.011985306 -0.065149382 0.0086949803
0.29554385 -0.068495646 0.0096566472
0.30108202 -0.068167157 0.0071306052
0.32048184 -0.064485148 0.0011126719
-0.30356023 -0.041764911 0.0038641626
-0.28405711 -0.046253324 0.0043295771
-0.34152669 -0.027027342 0.00014889557
-0.3248916 -0.029051995 0.0033826462
-0.30772224 -0.028484663 0.0067202514
-0.29322082 -0.020372901 0.0095392345
0.32951343 -0.024412774 0.0010302614
-0.31672868 -0.017826462 0.0033569869
-0.30147368 -0.0024847959 0.00081396854
-0.29798049 -0.0067342306 0.0002047485
-0.28684437 -0.0034419508 0.0015507033
-0.26130062 -0.0071971738 0.008351068
-0.25354272 -0.0063974196 0.00082998688
-0.24474773 -0.0060465792 0.0041109798
-0.21599555 -0.0083064716 0.0045628571
-0.20799772 -0.0068291854 0.0040554814
-0.16167188 -0.0048619546 0.0051361565
-0.15714535 -0.0046726456 0.0033352999
-0.14916843 -0.0043645496 0.00039543046
-0.13600215 -0.0053731636 0.0078478288
-0.10425986 -0.0060205534 0.0097700115
-0.070390157 -0.0045073042 0.0018274013
-0.040008362 -0.0048805242 0.005571194
-0.0052147508 -0.0044039888 0.00079104502
0.016722947 -0.0043791672 0.00054206041
0.023179684 -0.0057109194 0.0088506686
0.03662302 -0.0045114206 0.0018687003
0.084430777 -0.0047653713 0.004416089
0.12595753 -0.0057693021 0.0090240156
0.13138153 -0.0044164765 0.0009163082
0.16209996 -0.0056166258 0.0085707009
0.24765056 -0.0047291154 0.0021391716
-0.31215006 0.0065991892 0.0066806115
-0.30318707 0.0019399237 6.7957997e-05
-0.28486645 0.00084656314 0.0095170606
-0.27429545 0.003566348 0.0019313854
-0.22803801 0.0036079385 0.0046049259
-0.32942382 0.014995392 1.5890484e-05
-0.31203839 0.023238908 0.00086462719
-0.30002838 0.029295485 0.00031453525
-0.29873419 0.028583691 0.0024100901
-0.28677329 0.028242299 0.001377447
-0.25016648 0.025487818 0.0057912287
-0.23711482 0.02540959 0.0046104556
-0.22290704 0.024857942 0.0050745104
-0.28732494 0.031780031 0.0017843035
-0.29437286 0.048155397 0.001731111
-0.28938591 0.048790328 0.0020567556
-0.32042733 0.053062499 9.9710116e-05
-0.28298351 0.058149554 0.0015012968
-0.3268474 0.06830804 2.9415769e-05
-0.28685284 0.064172082 0.0011527359
-0.32600287 0.10085051 0.0011508525
-0.14767954 -0.07038673 0.015523848
-0.097582087 -0.072408289 0.010696376
-0.072331533 -0.071036696 0.01421937
-0.03713271 -0.074431002 0.012386328
0.029008057 -0.074431002 0.015679432
0.089892954 -0.074431002 0.016069602
0.093217969 -0.074431002 0.015456654
0.1652852 -0.072600856 0.010118739
0.22676903 -0.071725391 0.012744937
0.28607833 -0.071093954 0.011852195
0.29381788 -0.073705077 0.012172205
-0.17476937 -0.064908355 0.017264649
-0.13652821 -0.069177151 0.017951451
-0.09364032 -0.069114149 0.018077895
-0.02337319 -0.063281797 0.010358755
0.16710255 -0.068923011 0.018461507
0.27472401 -0.067183204 0.018022876
0.28110221 -0.065800034 0.018514795
-0.23486298 -0.054932643 0.011870791
-0.22177806 -0.058420476 0.011036362
-0.20075804 -0.057296664 0.019664573
-0.25591797 -0.040083773 0.018242173
0.32794178 -0.041400518 0.016159335
-0.30347332 -0.030338774 0.018005021
-0.29402047 -0.032001998 0.010617841
-0.27601323 -0.035435382 0.016013371
-0.26076627 -0.034615047 0.018159991
0.31407294 -0.020826388 0.011412374
-0.24890238 -0.011650733 0.010663865
-0.050355807 -0.010276496 0.01935697
0.29719815 -0.017665209 0.016060766
-0.25696328 -0.00058374793 0.016587131
-0.23704568 -0.0065238276 0.010631432
-0.13613814 -0.0079512689 0.014699299
-0.12734543 -0.0098027289 0.018415235
-0.094431669 -0.009138057 0.017081253
0.0002876576 -0.0061625899 0.010191737
0.027387589 -0.0085884314 0.015978258
0.068208553 -0.0092670955 0.017340396
0.10038252 -0.0070952554 0.012960937
0.14355278 -0.0074400441 0.013328044
0.18765828 -0.0095907524 0.017989933
0.20433085 -0.0071361493 0.01294278
-0.23485929 0.0033133011 0.018802393
-0.22104689 0.0012900319 0.017505344
-0.214434 0.0048001166 0.013422409
-0.30262578 0.011216424 0.01351582
-0.28198037 0.011121733 0.015065784
-0.27175605 0.017911572 0.018393207
-0.26665312 0.014181228 0.016746648
-0.25451767 0.018419139 0.016261719
-0.23862277 0.016961101 0.013626548
-0.30070075 0.023785368 0.011292051
-0.25340936 0.021589065 0.014538563
-0.013355308 -0.074431002 0.022004982
0.09370777 -0.073775403 0.026851377
0.11386518 -0.070693567 0.027474005
-0.14674088 -0.062720262 0.025847729
-0.095308803 -0.063250929 0.025422748
-0.072786532 -0.063351698 0.025342049
-0.056587473 -0.067022868 0.027882149
-0.049764946 -0.069364592 0.028215216
0.13160624 -0.064030915 0.024798103
0.14205627 -0.064769715 0.023980323
0.17103185 -0.060898725 0.027306493
0.21167989 -0.063724011 0.025043884
0.24933341 -0.061453536 0.026666064
0.25386733 -0.060676761 0.026974328
-0.20622405 -0.050521679 0.024677858
-0.18203011 -0.057068914 0.024182476
-0.17248702 -0.054300334 0.027427332
-0.16564991 -0.057151511 0.026941642
0.21669535 -0.058644123 0.029006189
0.23225398 -0.058163822 0.029246345
0.2679272 -0.059182197 0.026951049
0.28133816 -0.056331184 0.026058184
0.30298871 -0.051797658 0.023032626
-0.20294833 -0.0402201 0.029317053
-0.191407 -0.04793774 0.028187141
0.30804324 -0.049659669 0.022073289
0.31610021 -0.042192839 0.020656183
-0.31076214 -0.03064914 0.024936369
-0.30613017 -0.03119101 0.021340957
-0.27409264 -0.031577002 0.027585668
-0.25504777 -0.031147994 0.021911314
-0.23542525 -0.032788891 0.023682551
-0.20495991 -0.034495011 0.029728364
0.28088412 -0.034098126 0.029267058
0.29095587 -0.039784964 0.027638689
-0.31398332 -0.029649416 0.026815072
-0.30160201 -0.029439449 0.025244761
-0.27310377 -0.028030168 0.029167663
-0.23282939 -0.027601894 0.023778521
-0.21712908 -0.027945278 0.02732783
-0.20244786 -0.028110968 0.02907237
-0.06347651 -0.020300431 0.029113907
-0.02587343 -0.0200269 0.028977601
0.19397989 -0.02047063 0.029198721
0.23045503 -0.02129988 0.029611932
0.25164375 -0.022166455 0.029463004
-0.15447579 -0.014802005 0.024669055
-0.1409803 -0.017949384 0.027397454
-0.11989274 -0.014131774 0.024170948
0.001135871 -0.018315319 0.02769178
0.015046757 -0.019354427 0.028527293
0.043437373 -0.018690016 0.0279931
0.097224578 -0.016694101 0.026388057
0.14420709 -0.015153122 0.02514888
0.20053278 -0.01515091 0.025147086
0.26136243 -0.014462037 0.022147657
-0.041465923 -0.071360201 0.030516032
-0.010163353 -0.071587093 0.032097422
0.036686875 -0.071898624 0.031844247
0.088598877 -0.072445966 0.031258494
-0.014468556 -0.063770667 0.033799402
0.013400209 -0.063281797 0.033639356
0.044168115 -0.067545965 0.034077302
0.056627069 -0.06187648 0.034077302
0.073742926 -0.062757924 0.034077302
0.11659381 -0.062073007 0.03201047
-0.15884173 -0.052711818 0.030586021
-0.12560363 -0.05128219 0.032449313
-0.08379069 -0.053616952 0.031519815
-0.079340689 -0.05226893 0.032121528
-0.037460387 -0.055067886 0.034077302
-0.021328259 -0.056211948 0.034077302
0.013539661 -0.053578146 0.034077302
0.034675721 -0.057359874 0.034077302
0.12725805 -0.05637341 0.030141566
0.23253834 -0.052809637 0.031923477
0.25359687 -0.053646915 0.030946326
-0.14781739 -0.04137142 0.034576625
-0.12219473 -0.048727479 0.033297956
0.023876498 -0.047771633 0.034077302
0.043470629 -0.047256432 0.034077302
0.19188847 -0.04230443 0.034483571
0.2353726 -0.047206502 0.03380321
0.25208426 -0.044716425 0.033723719
-0.28120792 -0.030559523 0.035992797
-0.17586307 -0.031038059 0.031401925
-0.16160539 -0.036082201 0.033514716
-0.15458313 -0.037907138 0.034239277
-0.095175549 -0.039157491 0.034756295
-0.078178942 -0.03374923 0.034215391
-0.061938405 -0.036152676 0.034455627
-0.05587076 -0.035092156 0.034349635
-0.048989668 -0.039704185 0.03474291
-0.019568428 -0.037099831 0.034550402
0.010819957 -0.037834961 0.034623962
0.05650524 -0.039973028 0.0347161
0.087112181 -0.03622444 0.03446281
0.17140168 -0.032120235 0.033995196
0.18306929 -0.031174049 0.033680893
0.19251883 -0.039165534 0.0347571
-0.32565939 -0.028891832 0.036711965
-0.31897593 -0.029542103 0.032911427
-0.17229211 -0.029321758 0.031142529
-0.12805535 -0.027012857 0.032298587
-0.089928709 -0.023680178 0.030798046
-0.079088733 -0.027870964 0.032583646
-0.042826835 -0.023055052 0.030486573
-0.038461342 -0.029843066 0.03323878
0.0082748178 -0.023613866 0.030765019
0.044654377 -0.024891013 0.031401396
0.19736716 -0.027436387 0.032439284
0.20621309 -0.026564242 0.032149561
-0.023340173 -0.092465043 0.049287818
-0.0064387042 -0.096718818 0.04979841
-0.0030977908 -0.070698947 0.049616449
-0.03604288 -0.060590684 0.04207569
-0.022719165 -0.060438428 0.047428392
-0.0090010706 -0.061198901 0.044151731
0.022955218 -0.062588796 0.041663606
0.076113522 -0.064084552 0.044785075
-0.023036074 -0.058386486 0.046351649
-0.0067777876 -0.056194816 0.047465123
0.096345268 -0.053037085 0.045731757
0.071188577 -0.048173651 0.045785334
-0.29614669 -0.029546587 0.04207224
-0.0065319673 -0.10174673 0.050110642
0.0159596 -0.10098287 0.052114271
-0.0045551672 -0.093232423 0.058185134
0.0036390899 -0.095184311 0.056635797
-0.003954492 -0.087895088 0.055740118
-6.0797815e-05 -0.077285282 0.057501554
0.0060536759 -0.060207948 0.056702346
0.091896459 -0.055687219 0.058136668
0.049158026 -0.048329152 0.052195076
0.06587147 -0.047375396 0.055525601
0.073978513 -0.048501126 0.0553018
-0.32213873 -0.027215965 0.056774411
-0.31574774 -0.026870489 0.055622913
-0.30321378 -0.028459469 0.051210798
-0.29334742 -0.028395031 0.054751046
-0.007985468 -0.10028405 0.060676932
-0.010946865 -0.093102664 0.06478747
-0.023123203 -0.088788897 0.062489234
0.042230651 -0.060117707 0.068893261
-0.0083398297 -0.054647096 0.060180999
0.031434409 -0.048431665 0.068154812
0.077311814 -0.049210336 0.065064773
-0.33307213 -0.02592016 0.065495066
-0.31728554 -0.02693967 0.062133759
-0.30568853 -0.025219139 0.06256853
-0.29257882 -0.024453266 0.065506376
-0.022649014 -0.056477327 0.079903364
-0.010544958 -0.053441029 0.071083687
-0.002543604 -0.057398371 0.077681094
0.036192082 -0.046485357 0.075502716
0.044797048 -0.04602202 0.070638761
-0.33602357 -0.024311716 0.078496039
-0.29277745 -0.023888582 0.070772409
0.1166988 -0.065408781 0.089746803
-0.0089112734 -0.056479946 0.083525732
0.039685812 -0.058686994 0.081392139
0.06744393 -0.054989748 0.089129269
0.0060408674 -0.048624042 0.089565463
-0.33508441 -0.024016073 0.082837321
0.10019525 -0.091797374 0.09674865
0.074657924 -0.084642619 0.096457765
0.096532173 -0.086968772 0.094412543
0.055882305 -0.070371196 0.099627636
0.073288739 -0.073317625 0.092364192
0.082676828 -0.078818187 0.09023878
0.11292905 -0.078685738 0.093493283
0.1084576 -0.060480177 0.092527688
-0.014871537 -0.051048972 0.093176603
0.0026376341 -0.055904821 0.092909381
0.01019412 -0.056065015 0.094406798
0.04142122 -0.057253316 0.095624216
0.055265058 -0.056232013 0.096284434
0.090453729 -0.055908252 0.099027663
-0.0068068979 -0.049467627 0.095949575
0.02235751 -0.044496693 0.099129707
0.060472276 -0.046797473 0.091917686
-0.34109053 -0.022636231 0.094202593
0.100628 -0.095033213 0.10643551
0.12494486 -0.091584764 0.10833444
0.078566618 -0.089597486 0.10235806
0.113391 -0.086895972 0.10633783
0.053354576 -0.07755439 0.10523293
0.113391 -0.070229769 0.10540901
-0.022156384 -0.050470598 0.10585651
0.017716436 -0.054720182 0.10889661
0.031037707 -0.059307292 0.10969941
0.050541744 -0.054216437 0.10779338
0.076250762 -0.055501532 0.108973
0.085735083 -0.053820297 0.10534456
0.1148186 -0.059675839 0.10833109
-0.016992798 -0.049577862 0.10666382
-0.0093780495 -0.048503943 0.10605543
0.0070790215 -0.0457123 0.1072281
0.047836863 -0.044565067 0.10502002
-0.34395304 -0.021227142 0.10773074
-0.32989103 -0.022223966 0.10713321
0.081803173 -0.091455296 0.11009821
0.12510811 -0.092082977 0.11066286
0.073665209 -0.086638033 0.11398905
0.085555799 -0.086559497 0.11522599
0.10889931 -0.06307409 0.11781991
-0.00068057532 -0.052710932 0.11990475
0.027064949 -0.055741973 0.11038208
0.052807927 -0.055267204 0.11047196
0.079282217 -0.055716928 0.11349048
0.092767507 -0.056918893 0.11880846
0.10682154 -0.059354987 0.11027852
0.0013907105 -0.04504595 0.11673231
0.017595235 -0.042325079 0.11644536
0.044409908 -0.044440374 0.11697416
-0.33224893 -0.020426165 0.11161666
-0.33374667 -0.019975908 0.11611515
0.097777933 -0.083579376 0.12639229
0.087216549 -0.077913582 0.12256355
0.10540521 -0.078891188 0.12226187
0.12291811 -0.072745331 0.12464684
0.072076224 -0.069248646 0.1232387
0.085259646 -0.069860131 0.12299396
0.094414704 -0.06637942 0.12618183
-0.020609887 -0.050304871 0.12954518
0.0045643575 -0.052602008 0.12337471
0.019311806 -0.052760519 0.12869266
0.03382764 -0.042475488 0.12850431
0.044924006 -0.049406752 0.12556316
-0.34692305 -0.019922351 0.12063099
-0.036739558 -0.049325023 0.13547206
-0.02552185 -0.04589159 0.13684744
0.029703725 -0.041873418 0.13332984
-0.04143016 -0.047831155 0.14071865
-0.038026046 -0.045874313 0.14800903
0.012725432 -0.039474677 0.14038852
-0.038875379 -0.046680346 0.15834931
-0.026722744 -0.04200577 0.15870437
-0.013209203 -0.040228158 0.15585944
0.011406057 -0.04941636 0.1556924
-0.04192023 -0.045936819 0.16425817
0.014328603 -0.047578134 0.1620855
-0.01670699 -0.039165281 0.16468561
-0.045448475 -0.04335054 0.18856041
-0.004554566 -0.044160739 0.18984662
-0.018645201 -0.036502317 0.18132171
-0.065062732 -0.041708507 0.19485199
-0.056926116 -0.041817345 0.19699568
-0.0044916114 -0.041681599 0.19732274
-0.053633865 -0.039565336 0.19544391
-0.032539584 -0.036690943 0.19233799
-0.062808752 -0.040636037 0.20587973
-0.041861009 -0.041806869 0.2050028
-0.039315168 -0.041967068 0.20490968
-0.012675386 -0.04112095 0.20687675
-0.059698626 -0.039215915 0.20260052
-0.042017192 -0.035228588 0.20911214
-0.051142447 -0.040344566 0.21463062
-0.018187609 -0.041265771 0.21181881
-0.070805348 -0.03627418 0.22821611
-0.064728305 -0.035965916 0.22491531
-0.056877784 -0.039215002 0.22286385
-0.041851684 -0.032303568 0.2259915
-0.082309425 -0.036345333 0.23730592
-0.075724781 -0.034857355 0.24747412
-0.057841025 -0.030706732 0.24908537
-0.048327178 -0.030347608 0.24620607
-0.078485079 -0.034237999 0.250725
-0.066089943 -0.031506322 0.25125256
-0.041728005 -0.031927794 0.25262621
-0.083826579 -0.031043794 0.26817399
-0.078333393 -0.034211226 0.26157022
-0.09337543 -0.031268876 0.27425098
-0.059365854 -0.03309422 0.27560207
-0.080555841 -0.028673075 0.27902877
-0.076994687 -0.031258844 0.2936762
-0.068191215 -0.030996151 0.29068115
-0.10511055 -0.028441437 0.29922628
-0.094629109 -0.028168501 0.2931293
-0.08884117 -0.027066009 0.29478729
-0.069926873 -0.029813293 0.29531279
-0.10039517 -0.026767842 0.30572277
-0.096728794 -0.026786136 0.30268633
-0.092297032 -0.028083518 0.31738549
-0.10737391 -0.026074307 0.32705933
-0.091327801 -0.026533144 0.32609507
-0.11839694 -0.024281366 0.33713603
