# .PCD v0.7 - Point Cloud Data file format
VERSION 0.7
FIELDS x y z
SIZE 4 4 4
TYPE F F F
COUNT 1 1 1
WIDTH 835
HEIGHT 1
VIEWPOINT 0 0 0 1 0 0 0
POINTS 835
DATA ascii
-0.060139928 -0.037224155 -0.28172076
-0.059669308 -0.037569772 -0.2816239
-0.065254509 -0.024226623 -0.28302911
-0.069157511 -0.016748488 -0.28609997
-0.042163037 -0.041215066 -0.27082449
-0.035973307 -0.040513095 -0.27601007
-0.063515484 -0.039797213 -0.2798326
-0.060823284 -0.040896147 -0.26904166
-0.032228034 -0.041972775 -0.26284206
-0.025313102 -0.041323178 -0.26595899
-0.022206642 -0.042444829 -0.25602755
-0.046430666 -0.04490548 -0.23246755
-0.027838994 -0.039872948 -0.23080486
-0.031874776 -0.046439819 -0.22148839
-0.036580581 -0.047208674 -0.21203367
-0.028838305 -0.045112073 -0.20811132
-0.0097832754 -0.042260185 -0.20809574
0.0062855892 -0.04788838 -0.20273197
-0.022705695 -0.049149707 -0.19617462
-0.018371757 -0.042888165 -0.19449934
-0.0018321739 -0.049766492 -0.19015108
0.0044103786 -0.048345588 -0.19991641
-0.017119519 -0.050259314 -0.18611543
0.010852502 -0.050073829 -0.18401664
-0.032928228 -0.048763499 -0.18237665
0.003354684 -0.049893536 -0.18785989
0.017170537 -0.048636861 -0.18568063
-0.027028836 -0.051088732 -0.17431839
0.013521263 -0.050611194 -0.17881043
0.004085389 -0.044941101 -0.17388727
0.019813128 -0.048700303 -0.17486182
-0.031264227 -0.050613798 -0.16526857
0.0027074115 -0.052502949 -0.16549323
0.027752139 -0.051863801 -0.163335
0.025128521 -0.053199854 -0.15422292
0.033302706 -0.051640451 -0.15020545
-0.012400395 -0.047677085 -0.15099457
-0.0020631426 -0.045675851 -0.15748411
0.026078621 -0.049428914 -0.15292317
0.0040923897 -0.054807644 -0.14418888
0.037799809 -0.053323206 -0.1478534
0.029053811 -0.0497756 -0.14104751
-0.024254316 -0.0559658 -0.13419457
0.0043896288 -0.055661697 -0.1360812
0.037803568 -0.05555791 -0.13099703
0.042840943 -0.054799967 -0.13456497
0.0059561729 -0.047473449 -0.13479295
0.029345922 -0.04963351 -0.13263957
-0.011992093 -0.063502483 -0.12699895
-0.00032666652 -0.057150401 -0.12025911
0.032237493 -0.053531222 -0.12722477
0.017617775 -0.048228011 -0.12532191
0.023608048 -0.048808955 -0.12311095
0.091594458 -0.08198382 -0.11065638
0.11010136 -0.082200021 -0.11064683
0.10637987 -0.076600611 -0.11012799
-7.0991868e-05 -0.051345944 -0.11035155
0.030239718 -0.057485342 -0.11769238
0.041962352 -0.052187748 -0.11109158
0.081719682 -0.10003065 -0.10002618
0.077411249 -0.094369978 -0.10473264
0.08119227 -0.096602179 -0.10082817
0.1191598 -0.094644897 -0.10578101
0.068667419 -0.084906816 -0.10227095
0.079533532 -0.084443957 -0.10449982
0.081662796 -0.082373455 -0.10516552
0.12539116 -0.089866713 -0.10412475
0.08566951 -0.072913826 -0.10491789
0.093794011 -0.071441673 -0.1041476
0.076719984 -0.069550939 -0.10354118
-0.014840705 -0.056656387 -0.10648307
-0.0039259964 -0.055406697 -0.10622916
0.00097504165 -0.058493409 -0.10669769
0.086847812 -0.10167439 -0.097609065
0.1141208 -0.10086254 -0.099637762
0.057534933 -0.090517908 -0.096435025
0.063027047 -0.091684468 -0.091653086
0.12700967 -0.098722823 -0.092692532
0.055832565 -0.080507159 -0.097940534
0.064780995 -0.089305662 -0.096553937
0.116935 -0.087086767 -0.09503112
0.036361434 -0.073560409 -0.092564099
0.055469453 -0.076187178 -0.095462561
0.069860749 -0.072033636 -0.097250625
0.116935 -0.072751619 -0.096270524
0.019632382 -0.064129464 -0.09545511
0.026158657 -0.063127875 -0.09390898
0.042591803 -0.063460916 -0.09545511
0.068922617 -0.067057893 -0.095455103
0.075928822 -0.069089457 -0.094553754
0.087585829 -0.064550877 -0.092451997
0.00050560199 -0.059558 -0.095055744
0.029221687 -0.050400544 -0.097837888
-0.35847259 -0.01531325 -0.096226014
0.092937961 -0.10397011 -0.088390984
0.11881503 -0.10212915 -0.08384344
0.056430757 -0.091817141 -0.084577344
0.046969995 -0.086196467 -0.086007796
0.055225279 -0.073729679 -0.086282328
0.063066855 -0.074127361 -0.083518937
0.0069058924 -0.061665267 -0.082042225
0.026812555 -0.061595317 -0.082174443
0.034340717 -0.061702751 -0.081201173
0.055705123 -0.061201222 -0.081229493
0.077816814 -0.065712795 -0.086203977
0.096412323 -0.06028986 -0.086801738
0.11180237 -0.062689595 -0.082593307
0.12817542 -0.066392429 -0.086843386
-0.37256548 -0.017219458 -0.085516363
-0.34213221 -0.017172799 -0.082335301
0.077771425 -0.091183089 -0.071893044
0.080614172 -0.093007043 -0.077850066
0.093874052 -0.097687736 -0.078990735
0.11169773 -0.092819557 -0.070861384
0.12757409 -0.094088018 -0.075326808
0.08510679 -0.08691141 -0.071561635
0.094409414 -0.086670116 -0.071191005
0.116935 -0.0892478 -0.074923664
0.083308727 -0.071001835 -0.075396523
0.091741033 -0.073564753 -0.070171006
0.11544854 -0.070960999 -0.072248727
0.12471659 -0.071592376 -0.077242777
-0.010328203 -0.060768932 -0.072092183
0.029554488 -0.062959321 -0.071041383
0.072884582 -0.067922041 -0.079311483
0.12144963 -0.069705896 -0.079233013
0.045083128 -0.053177822 -0.079987384
0.064462557 -0.057625972 -0.076398462
-0.34916145 -0.019379126 -0.079944901
0.10024328 -0.084548935 -0.067484006
0.10196977 -0.07462953 -0.069005668
0.11381797 -0.076180965 -0.069498613
-0.0066469698 -0.063246049 -0.060288291
0.0044986038 -0.062603429 -0.069710575
0.028659556 -0.064207487 -0.060730796
0.066276655 -0.062630251 -0.067998342
0.015719537 -0.055834722 -0.061189726
-0.35044876 -0.020512136 -0.063469753
-0.34091389 -0.017383011 -0.066557258
-0.32745633 -0.018735949 -0.060472593
0.011735541 -0.11188597 -0.053720292
0.011347786 -0.10828447 -0.055913351
0.018599879 -0.091610894 -0.052247357
0.014563035 -0.073065504 -0.051510733
0.0072850282 -0.064241767 -0.056747749
0.035943497 -0.065287009 -0.05212301
0.080877706 -0.062158726 -0.052048225
0.036637288 -0.05522779 -0.055065598
0.050190337 -0.055662718 -0.057281662
-0.3589493 -0.020624917 -0.058671359
-0.34072566 -0.017817914 -0.056842063
-0.32791513 -0.018656671 -0.054929771
0.016027095 -0.094486512 -0.043527544
0.0017621072 -0.065860324 -0.041646682
0.085412607 -0.064982817 -0.045419224
0.042728204 -0.056058317 -0.048618823
0.055697381 -0.057083908 -0.047934886
-0.32773739 -0.022004632 -0.040377889
0.017415654 -0.1080342 -0.03425822
0.06261953 -0.072293624 -0.030509083
-0.0082009714 -0.064570554 -0.03606813
0.0031364728 -0.06656538 -0.034967504
0.027070422 -0.066930622 -0.037983794
0.054242581 -0.06661386 -0.032249145
0.061624177 -0.0662072 -0.030523412
0.08106681 -0.066564783 -0.03554403
-0.068813555 -0.051526252 -0.030106774
0.026569512 -0.057636 -0.039554976
-0.18791908 -0.041203864 -0.032039642
-0.16407056 -0.046603177 -0.03150402
-0.13507017 -0.041806836 -0.032150295
0.042876299 -0.041049164 -0.032247152
0.071886227 -0.045001633 -0.031740427
0.11045481 -0.042912196 -0.031377718
0.14823003 -0.040862352 -0.031008756
0.16891128 -0.044410601 -0.030207688
-0.23011798 -0.034286395 -0.031060793
-0.20365636 -0.03388866 -0.031927429
-0.18372038 -0.030616591 -0.031306554
-0.15908536 -0.033293821 -0.031540234
-0.11874208 -0.03193881 -0.031354416
-0.10448744 -0.030088266 -0.030770402
-0.095504813 -0.038182426 -0.032155082
-0.083732121 -0.032991897 -0.031489477
0.014107209 -0.032463048 -0.031267196
0.022480378 -0.036113944 -0.031889893
0.032008067 -0.03133443 -0.031267926
0.059490494 -0.032363381 -0.031408645
0.14387751 -0.031507161 -0.030134078
0.15836316 -0.039199196 -0.030861514
0.16371533 -0.03644317 -0.030445412
-0.35061032 -0.020367747 -0.030885173
-0.33372363 -0.022530345 -0.033274297
-0.32327411 -0.022185735 -0.036994398
-0.30010974 -0.021900862 -0.031994246
-0.13325156 -0.029772308 -0.030644208
0.056201175 -0.083077461 -0.0246726
-0.002645402 -0.077221647 -0.02726059
0.069976695 -0.079475664 -0.027571477
0.070811912 -0.07910046 -0.02775147
-0.18686649 -0.061224192 -0.023386881
-0.13246386 -0.064437352 -0.022282859
-0.12281883 -0.06359525 -0.023084572
-0.063097365 -0.061610632 -0.024514426
-0.03322193 -0.062957831 -0.023543585
0.001563578 -0.063101135 -0.023440311
0.013051239 -0.065442473 -0.027623001
0.040644962 -0.066159621 -0.029638005
0.052915916 -0.065583505 -0.026823249
0.069373511 -0.069724038 -0.02883146
0.08090172 -0.065638237 -0.029627869
0.093622521 -0.063724384 -0.026395857
0.11752256 -0.064184286 -0.021829201
0.1557114 -0.063584439 -0.021877076
0.18913192 -0.062153667 -0.022327416
0.26476288 -0.061702143 -0.021539377
0.32684106 -0.060240582 -0.023112293
0.33580828 -0.063308902 -0.02125195
-0.24310185 -0.052379984 -0.02169067
-0.18699156 -0.054418251 -0.028265899
-0.11935116 -0.057429794 -0.027526814
-0.095080793 -0.053433716 -0.029345447
-0.057633676 -0.058785707 -0.026549779
-0.0029394627 -0.05328875 -0.029403273
0.019456042 -0.055459395 -0.028536903
0.034049317 -0.057436854 -0.025806036
0.1431776 -0.057543397 -0.026190838
0.21950462 -0.056744013 -0.025539096
0.27435574 -0.05747886 -0.024141695
0.28745174 -0.055156559 -0.025261417
0.29932928 -0.050398991 -0.02693256
0.30219054 -0.053508706 -0.02583145
0.32376468 -0.056536332 -0.024970418
0.3554931 -0.051043358 -0.023489038
-0.2462613 -0.048121899 -0.02414804
0.2349264 -0.045984808 -0.028940151
0.30839083 -0.043614436 -0.028299943
0.34477103 -0.048268829 -0.026196893
0.18540145 -0.035318188 -0.029946707
0.25913924 -0.031366743 -0.028142042
0.32445556 -0.031156909 -0.025725808
-0.32778859 -0.023006067 -0.02607245
-0.30861595 -0.020752713 -0.026710637
-0.2411488 -0.026298787 -0.028526375
-0.23963666 -0.027444936 -0.02891669
-0.20782757 -0.023090312 -0.0289075
-0.18778715 -0.024338456 -0.028888818
-0.024353081 -0.020193471 -0.025849301
0.028750023 -0.02314873 -0.0279787
0.03249637 -0.02013718 -0.025808793
0.053753424 -0.021460563 -0.026762055
0.064134046 -0.027064104 -0.029563431
0.074984178 -0.025537109 -0.028918926
0.1073689 -0.022619322 -0.027063949
0.1870926 -0.024800673 -0.026865428
0.20503983 -0.025390126 -0.026819043
0.21785419 -0.020375885 -0.023770418
0.26200154 -0.020018889 -0.022804257
0.27701315 -0.026590198 -0.026101101
-0.2279278 -0.012947788 -0.021613738
-0.21219166 -0.012519399 -0.021009844
-0.12791945 -0.017038267 -0.023575934
-0.11461381 -0.01366264 -0.020138282
-0.10894006 -0.014162216 -0.020717047
-0.067426294 -0.018162653 -0.024386067
-0.025813686 -0.019542878 -0.025380351
0.012220208 -0.015494645 -0.022260092
0.058711387 -0.014126637 -0.02067538
0.078638807 -0.019342382 -0.025149833
0.10074652 -0.018707138 -0.024368698
0.13563535 -0.015359014 -0.021182071
0.19197187 -0.017421834 -0.022108201
0.28873792 -0.018820588 -0.021582153
-0.0032196038 -0.084929347 -0.015842425
0.0059977039 -0.084704965 -0.018648891
0.087804385 -0.084015936 -0.012024449
-0.12239932 -0.07108108 -0.013781681
-0.078958131 -0.07257852 -0.010960599
0.032140888 -0.072211504 -0.011652462
0.069246523 -0.070010081 -0.015798943
0.11157773 -0.075576238 -0.016872678
0.28641149 -0.070508167 -0.011854896
0.29050213 -0.071670815 -0.010002649
0.33879396 -0.072433352 -0.011166166
-0.22151597 -0.062255938 -0.016523035
-0.21454933 -0.063099906 -0.017075133
-0.20211515 -0.067962348 -0.011462037
-0.19205202 -0.064955674 -0.018707946
-0.18148474 -0.067106918 -0.017362794
-0.16419537 -0.069837756 -0.0154675
-0.13457169 -0.069178425 -0.016790371
-0.11118257 -0.066742852 -0.019611953
-0.038332079 -0.069914535 -0.015937604
-0.018147267 -0.066590115 -0.019788662
-0.0018137414 -0.066531569 -0.019856598
0.022731461 -0.067791522 -0.016305674
0.041721411 -0.065578006 -0.01946542
0.051722806 -0.066555016 -0.01982956
0.072727665 -0.06556806 -0.015118591
0.092920229 -0.065026432 -0.019695556
0.10565804 -0.069776408 -0.015669487
0.17440651 -0.06682343 -0.017831806
0.20892924 -0.067072369 -0.017197905
0.21262735 -0.066831678 -0.017358594
0.23771894 -0.066313736 -0.017579306
0.25231761 -0.069658399 -0.013580585
0.29382783 -0.069415964 -0.013501365
-0.26141363 -0.051393088 -0.017342418
0.36524096 -0.059791889 -0.019223042
-0.31059408 -0.04197485 -0.010580705
-0.27693424 -0.046270348 -0.01725335
-0.31630152 -0.034066778 -0.013919886
0.34317595 -0.030261181 -0.019343397
0.35312554 -0.031277634 -0.012337424
-0.35899547 -0.022787882 -0.016518768
-0.34847873 -0.023970485 -0.010397566
-0.32555699 -0.02214073 -0.015312686
-0.3124994 -0.029279057 -0.015986251
-0.30396289 -0.027445341 -0.017491721
-0.29783332 -0.025903489 -0.018388046
-0.28557768 -0.015148877 -0.014845823
-0.27914396 -0.013767134 -0.015412099
-0.16602884 -0.010860273 -0.017037863
-0.15959743 -0.010742623 -0.016810663
-0.052494764 -0.010910496 -0.016949873
-0.042452306 -0.012463903 -0.018749524
-0.014064856 -0.012981948 -0.019349363
0.022579471 -0.013294982 -0.019711981
0.11564775 -0.010027679 -0.015319549
0.15244059 -0.012719773 -0.018025275
0.18176378 -0.013411613 -0.018451249
0.21365297 -0.012467495 -0.016848642
0.32571226 -0.018206721 -0.015910139
-0.25037768 -0.0088940747 -0.014237004
-0.039608732 -0.0098901056 -0.015702715
0.017372098 -0.0082352292 -0.012585387
0.047789402 -0.0081428885 -0.012411444
0.11710686 -0.0074760732 -0.010745028
0.12968531 -0.0099232458 -0.014951047
0.30185729 -0.10293421 -9.0540976e-05
-0.015394748 -0.084287956 -0.0067531755
-0.0083643766 -0.084752306 -0.0058526844
0.046910718 -0.085716501 -0.0092485584
0.10408839 -0.082702234 -0.0012255262
0.1130674 -0.081672847 -0.0079813348
-0.18854915 -0.070741564 -0.0097278031
-0.16329536 -0.072875321 -0.009725308
-0.088361546 -0.074233256 -0.0078444257
-0.074711747 -0.075035036 -0.0051774918
-0.068632975 -0.076353043 -0.00045497884
-0.05092191 -0.073232062 -0.0097302711
-0.032236941 -0.076017141 -0.0016585494
0.028905479 -0.074981339 -0.0053698909
0.11707618 -0.07462468 -0.0058016852
0.1206642 -0.072866127 -0.0096499603
0.14455318 -0.073011644 -0.0091185905
0.15214199 -0.073455609 -0.0083612669
0.22080457 -0.072253056 -0.0096712792
0.33027729 -0.073124394 -0.0088898279
0.35385245 -0.074860834 -0.0061225817
-0.23173803 -0.064993054 -0.0048040645
-0.21839216 -0.067255288 -0.0069815381
0.37012345 -0.069880292 -0.0097369328
-0.26980859 -0.057157464 -0.0035668674
-0.31787968 -0.04478823 -0.0037077456
0.37576964 -0.044687837 -0.0063096173
0.36589921 -0.037628829 -0.0086991275
0.35418284 -0.029440261 -0.0053437105
-0.35505691 -0.011911178 -0.00063002924
-0.34995973 -0.016499143 -0.0073649511
0.3332887 -0.017544506 -0.0092250891
-0.33860654 -0.0082494523 -0.00058008451
-0.30701381 -0.0055989404 -0.0027743257
-0.27796462 -0.0034958376 -0.0027775094
-0.26171476 -0.0067998245 -0.0086022587
-0.23865774 -0.0047275429 -0.0070395209
-0.22605079 -0.0050852415 -0.0083146729
-0.2161153 -0.0039285799 -0.00055404892
-0.18961164 -0.0039285799 -0.0011693803
-0.17682268 -0.0044537769 -0.0039063022
-0.15058373 -0.0058680605 -0.008133987
-0.14362076 -0.0045633297 -0.0039118994
-0.1386601 -0.0046874336 -0.004356523
-0.10396124 -0.0050592977 -0.0056887898
-0.083975628 -0.0062356638 -0.0088187587
-0.07513161 -0.0055439882 -0.0074252766
-0.047436386 -0.00749283 -0.0054583214
0.055162188 -0.0040301965 -0.0020018597
0.065620214 -0.0061164722 -0.0085942345
0.093584202 -0.0062945047 -0.008736873
0.1068252 -0.0044863666 -0.0036361669
0.11958852 -0.0055024484 -0.0068390146
0.12125356 -0.0063684564 -0.0086202268
0.16674106 -0.0044239056 -0.0034123901
0.22680542 -0.0039285799 -0.0014785969
0.24928294 -0.0059696455 -0.0065806676
-0.33245102 0.003748822 -0.0015914969
-0.31597072 0.0010579785 -0.0025332435
-0.25755638 0.003495011 -0.00033930707
-0.32639074 0.024549851 -0.0019792987
-0.30386007 0.039303958 -0.00073771499
-0.32014963 0.0643747 -6.0500824e-05
-0.35416147 0.071865894 -0.00022294832
-0.057427034 -0.08056853 0.0060105915
-0.045047585 -0.081860915 0.00049918931
-0.011788662 -0.084526137 0.0024480177
0.063943908 -0.085330471 0.0011926091
0.098822273 -0.083169587 0.0035816415
0.10543111 -0.082565784 0.0074859941
0.30469635 -0.083107427 0.0049475813
-0.17679267 -0.073720552 0.0081829187
-0.056108665 -0.075925425 0.005045509
-0.041046388 -0.074852772 0.0088889012
-0.022153154 -0.075082429 0.0080660377
-0.0056689773 -0.074598521 0.0097998902
0.21106865 -0.075887755 0.0041733333
0.24880716 -0.074980952 0.0065262541
0.28170288 -0.075050056 0.0063469401
0.33894169 -0.07569281 0.0055415872
-0.25124976 -0.061459437 0.004828284
-0.30134645 -0.050194051 0.0036488266
-0.32184613 -0.045369163 0.0022013264
-0.35243484 -0.035151683 0.0060066865
-0.39331099 -0.015267599 0.0055580884
-0.37666804 -0.015418159 0.0073031434
-0.35283083 -0.012155317 0.0046696579
-0.33072326 -0.010414097 0.0046225502
0.33408535 -0.013829426 0.0015245912
-0.35156313 -0.0054867631 0.00084464776
-0.28374064 -0.004244905 0.0052300286
-0.12202645 -0.0039285799 0.0012363864
-0.07254222 -0.0039285799 0.0015343982
-0.065247387 -0.0030414932 0.0042114956
-0.057975315 -0.0045974758 0.0069890078
-0.033870205 -0.0039285799 0.0031120367
-0.016725916 -0.0039305622 0.0047032209
0.01628869 -0.0045126807 0.0067887749
0.095244132 -0.0039285799 0.001329391
0.10711806 -0.0039285799 0.0041557541
0.22760509 -0.0050431127 0.0074804723
0.24243332 -0.0039285799 0.0022081356
0.26279938 -0.0052950233 0.0077350754
0.28757188 -0.00415859 0.0045051402
0.31100124 -0.0050729658 0.0013711589
-0.29545623 0.00045567611 0.0050952178
-0.24679813 0.0021215826 0.0019186579
-0.35401076 0.015077265 0.00081219489
-0.27397838 0.016570168 0.0019652315
-0.36251241 0.038194977 0.0010601471
-0.35967746 0.033807501 0.0014592872
-0.29852384 0.035923611 0.0028130417
-0.28843912 0.036752246 0.0015918476
-0.34503528 0.048879702 0.0031258329
-0.33640173 0.048538901 0.0035083659
-0.36598042 0.053948157 0.0012100993
-0.35537356 0.05348945 0.0024056509
-0.36318931 0.066408455 0.00045980501
-0.33829501 0.066410743 0.0029626666
-0.32285327 0.068259761 0.0022378529
-0.30851817 0.064167321 0.0011469061
-0.36920309 0.071770236 0.0012784953
-0.35804904 0.073167786 0.0022850307
-0.32297578 0.077835441 0.00081066607
-0.34139082 0.082661293 0.0023150956
-0.35324526 0.096561745 5.4439974e-05
-0.3710846 0.10624002 0.0018596591
-0.36779302 0.10700244 0.002087276
-0.047436293 -0.081231281 0.013003256
-0.030504022 -0.083189651 0.014426373
-0.018901411 -0.084056355 0.01197309
0.059767604 -0.085470468 0.018671861
0.10773118 -0.082131915 0.015257847
-0.14740865 -0.071972847 0.015160309
-0.086590528 -0.07244923 0.014262784
-0.074140012 -0.073108129 0.013021703
-0.042877678 -0.077246837 0.01901683
0.021594385 -0.072863311 0.013483092
0.084572159 -0.073687024 0.011741999
0.093189374 -0.072879307 0.013138331
0.11690591 -0.07264857 0.017999947
0.14299315 -0.071939349 0.014096135
0.17519213 -0.0707267 0.015864016
0.24512914 -0.072142601 0.012700314
0.26089376 -0.072006121 0.012782698
-0.23338428 -0.064179398 0.010257852
-0.17856154 -0.069594339 0.017063979
-0.011921356 -0.069163218 0.01986628
0.014953175 -0.066265896 0.013573469
0.026159698 -0.067505345 0.014883442
0.038352795 -0.060279328 0.016884845
0.082360364 -0.063147776 0.014342654
0.17719287 -0.069699124 0.017767606
0.35954201 -0.069727242 0.01755619
0.38095605 -0.061624046 0.013830596
-0.28655323 -0.051398672 0.010281107
-0.27141944 -0.0531587 0.014305628
-0.26692247 -0.054490197 0.015261803
-0.25819245 -0.056786805 0.014919996
-0.24049884 -0.058121845 0.01907862
0.37133816 -0.057284173 0.019548872
0.37714672 -0.047811732 0.012338072
-0.32140097 -0.039278891 0.012842709
-0.31409013 -0.039871052 0.014488692
-0.30081943 -0.036802221 0.019567501
-0.36476517 -0.022652972 0.011522662
-0.34510332 -0.028658979 0.01332022
-0.33599454 -0.023206169 0.015444476
-0.28981683 -0.014564875 0.017351579
-0.26601848 -0.011503596 0.01794786
0.007281933 -0.010282708 0.019280847
0.32027209 -0.013448978 0.015040461
-0.23297507 -0.0087140556 0.018882398
-0.20131981 -0.0080632856 0.017129516
-0.081529468 -0.0080777202 0.01534701
-0.06306915 -0.007292917 0.013868669
-0.012896229 -0.0070828493 0.013472961
0.043172669 -0.0095759816 0.018169297
0.050437026 -0.0076129781 0.01447157
0.073766395 -0.0081081949 0.01539501
0.093432426 -0.008271127 0.015520006
0.109433 -0.0088424282 0.016448157
0.17656475 -0.0081762327 0.01457224
0.20408121 -0.0084118862 0.014558525
0.25347343 -0.0092781289 0.015191322
0.31061822 -0.0084972391 0.011008834
0.053938199 -0.085582025 0.02038612
-0.17689334 -0.06198433 0.026363319
-0.16511007 -0.064886943 0.024387788
-0.1332483 -0.064995617 0.024694419
-0.10273003 -0.066378579 0.023092236
-0.080758207 -0.067697376 0.02156451
-0.050985418 -0.068859778 0.020217933
-0.013205068 -0.067495547 0.02179854
-0.0071662217 -0.066094361 0.022151569
0.010422782 -0.060679719 0.029555909
0.050836485 -0.066682108 0.025296951
0.069862738 -0.060545228 0.024876337
0.087398157 -0.064167395 0.023897298
0.094681576 -0.063338205 0.023482926
0.10374211 -0.064532131 0.024579495
0.12118208 -0.06697832 0.021589976
0.13492222 -0.061383784 0.026684977
0.14387602 -0.067227259 0.020922827
0.1595474 -0.065508284 0.022652693
0.26784799 -0.065243483 0.021357907
0.32317141 -0.065897293 0.021423861
0.33125219 -0.062479183 0.024804607
-0.23471567 -0.058744598 0.020303085
-0.1878987 -0.059465647 0.027725909
-0.042539351 -0.059713613 0.028939627
0.030869316 -0.059686944 0.026000738
0.058994152 -0.059780531 0.026591148
0.093813777 -0.059569351 0.028687341
0.17246793 -0.05746695 0.02887198
0.20702359 -0.059325449 0.026964795
0.25127351 -0.055347919 0.028813044
0.26178288 -0.057448693 0.027399346
0.36244714 -0.050391331 0.023725562
-0.26418614 -0.048546292 0.021973874
0.34689802 -0.041649159 0.027505649
-0.29158872 -0.031250965 0.022955775
-0.28601393 -0.035958096 0.023019038
-0.27196088 -0.037393857 0.026191939
-0.26509914 -0.038524728 0.02736306
0.34731421 -0.035917021 0.024696736
-0.31318611 -0.022586565 0.026413515
-0.30667388 -0.020513428 0.029746505
-0.29368418 -0.022468792 0.020399973
-0.28942192 -0.026220828 0.022922006
-0.27802151 -0.022748405 0.024251007
-0.24655452 -0.023012994 0.029468015
0.15428941 -0.022392824 0.029194519
0.22393952 -0.021816494 0.027662104
0.26347911 -0.024294671 0.028522935
0.28870738 -0.027038164 0.029125504
0.33418813 -0.02802825 0.024396127
-0.2944594 -0.019526239 0.020008616
-0.27522352 -0.017510258 0.021997038
-0.25877208 -0.012214082 0.020210093
-0.23353592 -0.015849432 0.026789354
-0.21508484 -0.013318313 0.025189001
-0.20342803 -0.015205625 0.026198387
-0.17146309 -0.01958729 0.028693531
-0.092673518 -0.017423768 0.026912028
-0.060047373 -0.018275769 0.027525833
-0.031414863 -0.012378553 0.021708757
0.0093978457 -0.011709276 0.020933438
0.032032117 -0.017567914 0.027015842
0.052670863 -0.019441178 0.028365305
0.064037539 -0.015338295 0.025137369
0.090210997 -0.013563272 0.022857506
0.11224841 -0.016962679 0.025834251
0.12966384 -0.019557815 0.027616788
0.17353688 -0.015796486 0.024077974
0.28179973 -0.015074839 0.021611698
0.30686828 -0.0190794 0.024230255
0.02260202 -0.099083886 0.039639995
0.036276717 -0.075614758 0.034291074
0.065456599 -0.076276064 0.033599149
-0.0085642887 -0.067233942 0.032781795
0.0044083958 -0.069693103 0.031744227
0.029068798 -0.064705878 0.031920891
0.061528258 -0.065146193 0.035398178
0.085176803 -0.067305528 0.031589508
-0.19888124 -0.051032905 0.032222405
-0.16403845 -0.053897049 0.032112427
-0.11480407 -0.056768689 0.031061482
-0.045265459 -0.054203849 0.031913616
-0.014215121 -0.05276145 0.032671973
0.14101857 -0.053459972 0.031238521
0.24088228 -0.050183546 0.030857189
-0.23597609 -0.040106431 0.032650925
-0.20103261 -0.043085575 0.03468794
-0.18786457 -0.045736369 0.034499627
-0.17991604 -0.049941942 0.033360194
-0.16646071 -0.046308357 0.034587979
-0.15184379 -0.044659615 0.034838852
-0.12833008 -0.04587495 0.034686774
-0.10508528 -0.043647587 0.034972452
-0.077169411 -0.048391331 0.034364115
0.047592565 -0.044213761 0.034899846
0.14834785 -0.048057772 0.033167318
0.18987176 -0.045704063 0.032766841
0.21457745 -0.041910306 0.032823481
0.29946503 -0.049526453 0.030310582
0.3231968 -0.049131192 0.030491911
-0.25203079 -0.037324093 0.030045927
-0.14529751 -0.033451416 0.034606505
-0.10673261 -0.036391899 0.034983687
-0.020015573 -0.035979018 0.034930889
-0.012251724 -0.035521626 0.034872226
-0.0035362579 -0.03535673 0.034851078
0.037398197 -0.036950354 0.03505547
0.04067269 -0.033380665 0.034597669
0.080146194 -0.034141641 0.034574155
0.15486765 -0.035887983 0.033577081
0.18851101 -0.035754718 0.033006083
0.1978582 -0.035739638 0.032851864
0.2012109 -0.038617209 0.03313452
-0.22617576 -0.023582239 0.031938761
-0.1974476 -0.022083858 0.031245194
-0.15414807 -0.02476019 0.031718448
-0.13416687 -0.027890239 0.032951329
-0.12567483 -0.026752897 0.03249751
-0.02785236 -0.026959548 0.032579932
-0.018213058 -0.029152561 0.033455312
0.22422867 -0.028331909 0.030682571
0.27424121 -0.028780879 0.030004032
0.0034489445 -0.10094728 0.045834299
0.015826758 -0.10169033 0.040996164
0.003190767 -0.098961368 0.044288866
0.010083528 -0.092027605 0.045834299
-0.010490266 -0.065000825 0.049988352
-0.0047516655 -0.066824622 0.043889746
0.0055785002 -0.061914999 0.041247152
0.025200548 -0.067833029 0.04284152
0.041674893 -0.067654558 0.044987474
0.053239346 -0.06690789 0.049890637
0.023107179 -0.058765419 0.04444433
-0.32883242 -0.021968909 0.040368944
-0.35117093 -0.019298533 0.04272477
0.021447241 -0.10694937 0.054861158
0.01700687 -0.097078234 0.052682798
-0.0036120752 -0.063801982 0.053852588
0.0040856535 -0.060847674 0.050633557
0.024711074 -0.066039219 0.057145495
0.073644236 -0.063275203 0.056891758
0.0087756785 -0.059480622 0.054184157
0.039286312 -0.057247233 0.050275236
-0.31447393 -0.020594176 0.054859757
-0.34201366 -0.017953504 0.056640148
0.10072828 -0.095162556 0.068797722
0.095830999 -0.088448629 0.065949276
0.12204783 -0.076824076 0.068000801
-0.00036998349 -0.063803665 0.069562539
0.047404237 -0.065254703 0.063051343
0.08165662 -0.064122826 0.060634881
0.0077321162 -0.058032844 0.065182947
0.033066273 -0.055719789 0.062144063
-0.36305961 -0.020263609 0.067751668
-0.35347283 -0.020423528 0.069728106
-0.32584238 -0.02022779 0.065413989
-0.3570739 -0.017850325 0.066691771
-0.32051906 -0.019779637 0.063919619
0.064083733 -0.090218142 0.077626899
0.075118385 -0.093815699 0.077976532
0.084847912 -0.094388172 0.075333349
0.1262383 -0.091191337 0.072770491
0.047120694 -0.084482126 0.079633929
0.059998214 -0.080470487 0.078612894
0.076528087 -0.086003825 0.072587267
0.085958183 -0.082109995 0.070189372
0.053640716 -0.075682238 0.07989642
0.066051543 -0.074124187 0.07790824
0.081548117 -0.074079581 0.070822611
0.049273673 -0.063552335 0.075426854
0.072437406 -0.061531745 0.075000606
0.09720245 -0.068219207 0.070580676
0.02159219 -0.055210032 0.07020887
-0.34215295 -0.020030996 0.075824499
-0.36402464 -0.018625524 0.076397702
-0.34845909 -0.016923973 0.077561326
-0.33380172 -0.019974802 0.072667606
0.073160954 -0.10023291 0.084462635
0.084049761 -0.10025061 0.082128182
0.11454594 -0.10348824 0.087291129
0.063059151 -0.094137974 0.089295059
0.073766835 -0.096375428 0.081656806
0.082518078 -0.098222196 0.08988674
0.12460048 -0.097825065 0.080723234
0.034257397 -0.083428368 0.086569935
0.04518098 -0.074110352 0.08570189
0.053511687 -0.074030973 0.082177155
0.060706422 -0.072837032 0.087528124
0.116935 -0.073782638 0.083265342
-0.025596498 -0.065762125 0.082410783
-0.011849896 -0.064801849 0.083183318
-0.0085636945 -0.068817429 0.083698995
0.024184357 -0.067171276 0.081180401
0.03118722 -0.063766479 0.089098245
0.040492721 -0.062380224 0.085523956
0.061021373 -0.062789865 0.087497286
0.070547871 -0.065106764 0.08331842
0.091958314 -0.066692233 0.085402191
0.10038882 -0.060552835 0.08613085
0.12325038 -0.063474767 0.089504272
-0.34285688 -0.018331133 0.08414524
0.1058508 -0.10264776 0.094740219
0.11943185 -0.10056993 0.096614227
0.055910788 -0.090709321 0.090684295
0.071999297 -0.097509846 0.096598208
0.088331878 -0.095341757 0.09837433
0.12497245 -0.0950578 0.097600073
0.067298256 -0.082585603 0.098499961
0.073240876 -0.089704841 0.098951787
0.116935 -0.082700104 0.099232942
0.039084684 -0.073283277 0.090862617
0.057049301 -0.071455091 0.090808935
0.064919382 -0.074568652 0.094315514
0.071718335 -0.077219844 0.097285986
0.12579128 -0.072243609 0.099596433
0.010101069 -0.06282571 0.090343013
0.026167691 -0.068861753 0.0929536
0.039891414 -0.064430036 0.090931624
0.051523868 -0.062079307 0.093896024
0.080614798 -0.062891431 0.090786397
0.090943702 -0.067215443 0.095813885
-0.0077740829 -0.056603953 0.09994103
0.012008348 -0.053221676 0.091064282
0.02843692 -0.052067988 0.091126621
0.045751303 -0.053959642 0.090368621
-0.37693688 -0.017728886 0.09546639
-0.3427155 -0.018071242 0.095518604
0.074563712 -0.092618071 0.10195497
0.08830636 -0.098047391 0.1010742
0.09439496 -0.095005319 0.10053837
0.07607463 -0.08572337 0.102256
0.084447764 -0.088478118 0.10413034
0.091809653 -0.082056925 0.10541449
0.10040228 -0.084156737 0.1088206
0.12973574 -0.082155727 0.10344216
0.070624866 -0.076197162 0.10351552
0.11800657 -0.070232853 0.10314559
0.012417801 -0.060545236 0.10120851
0.10297687 -0.06776835 0.10293242
0.018590102 -0.051302031 0.10138911
0.034460619 -0.059990887 0.1056797
0.047980141 -0.054637887 0.10248287
-0.37028861 -0.018520705 0.10538271
-0.36042902 -0.018665951 0.10312884
-0.35090548 -0.017467927 0.1066841
-0.008739287 -0.058814079 0.11127487
0.039655328 -0.052917525 0.11886977
0.04553942 -0.054530516 0.11548677
-0.015896201 -0.054096576 0.12599578
0.027123496 -0.050387666 0.12007792
0.020743839 -0.049689937 0.12135006
-0.0056078113 -0.063430458 0.13195421
0.011819481 -0.057526112 0.13372314
0.030298516 -0.056752011 0.13245825
0.0082714641 -0.047962978 0.13982952
0.0011624098 -0.055550154 0.14617699
0.0055908309 -0.047351196 0.14725143
-0.024444608 -0.051643532 0.15246898
-0.0015246398 -0.054593667 0.15468097
0.0068206089 -0.05456676 0.15485176
0.011208883 -0.05417994 0.15753077
-0.014373186 -0.053423293 0.16362131
0.0011697281 -0.053263605 0.16645029
0.012362853 -0.053369753 0.16383429
0.023750445 -0.052358672 0.16773906
-0.012418954 -0.04661122 0.165327
0.002897568 -0.046339273 0.16040534
0.013324706 -0.047405913 0.16497084
-0.019453539 -0.045900919 0.1776628
0.020244014 -0.049650371 0.17499804
-0.037841778 -0.052871671 0.18523423
-0.026693247 -0.052655756 0.18521422
-0.0033055004 -0.051274233 0.18384789
-0.021979656 -0.047744446 0.1851076
-0.0023396313 -0.04466724 0.18372567
0.019364785 -0.049883381 0.18186961
-0.036209773 -0.047332078 0.19367808
-0.016574703 -0.043515328 0.19469503
0.013829191 -0.048950866 0.19596356
-0.044567779 -0.047605038 0.20992604
-0.030317644 -0.04903844 0.20201632
-0.015932834 -0.042417228 0.20715737
0.001969371 -0.045554265 0.20717928
-0.043705635 -0.046791553 0.21919635
-0.015134104 -0.042006806 0.21656084
-0.0099027231 -0.042827237 0.21019734
-0.043020606 -0.046227224 0.22544621
-0.025567599 -0.047211878 0.22014186
-0.016049553 -0.043796904 0.2254108
-0.042222053 -0.04118596 0.23661207
-0.036954671 -0.040935922 0.23198693
-0.014856521 -0.041794177 0.23332642
-0.056336652 -0.043205649 0.24839281
-0.046947926 -0.040148817 0.24935541
-0.021347817 -0.040437385 0.24232095
-0.055639833 -0.041543964 0.2550669
-0.024227545 -0.042292319 0.25577605
-0.046052057 -0.038614642 0.25847435
-0.035678368 -0.038069554 0.25952637
-0.058794104 -0.041943923 0.26209074
-0.038272735 -0.042548612 0.26145554
-0.033734996 -0.03797885 0.26809096
-0.028372454 -0.039032243 0.26153398
-0.056447256 -0.04115767 0.27154818
-0.049065046 -0.041110206 0.27394545
-0.052493893 -0.037814751 0.27131087
-0.057523843 -0.037441544 0.28232929
-0.063428134 -0.024921989 0.28294611
-0.064007036 -0.014550606 0.28565031
