# .PCD v0.7 - Point Cloud Data file format
VERSION 0.7
FIELDS x y z
SIZE 4 4 4
TYPE F F F
COUNT 1 1 1
WIDTH 882
HEIGHT 1
VIEWPOINT 0 0 0 1 0 0 0
POINTS 882
DATA ascii
0.061074834 0.014879016 -0.24192598
0.042251345 0.0046623554 -0.2320665
0.055905625 0.0073963599 -0.23124813
0.054334491 0.0107749 -0.23709255
0.075710602 0.011091424 -0.23735905
0.045198862 0.007646881 -0.22664869
0.054342732 0.004261537 -0.22632468
0.060053974 0.0043880325 -0.22813675
0.075238705 0.0045034816 -0.22979057
0.083974287 0.0085102022 -0.2263723
0.090341099 0.0084715728 -0.22664541
0.033048902 -0.0024066465 -0.21026251
0.064378604 0.0073963599 -0.21473062
0.087140314 0.0080802348 -0.2135033
0.10811947 0.0079897456 -0.21624821
0.11508302 0.0045239897 -0.21682942
0.065888703 0.010267895 -0.21394408
0.041498408 -0.0012807306 -0.20415455
0.063156463 -0.0035971624 -0.20570815
0.10426049 0.0030902103 -0.20954517
0.12716156 0.0034789788 -0.20527442
0.0259136 -0.0080984738 -0.19859438
0.043470487 -0.0068466943 -0.19379373
0.060610685 0.0086047612 -0.19759232
0.076825105 0.0060984995 -0.19547474
0.080252096 0.0073963599 -0.192734
0.096286491 0.0019155714 -0.19271819
0.14226383 0.0029927623 -0.19451477
0.1058434 0.010423502 -0.19983302
0.13695154 0.013038289 -0.19435528
0.13846439 0.0089790039 -0.18624
0.073194355 0.011169459 -0.1856555
0.099962577 0.012392036 -0.18545933
0.10753303 0.01096999 -0.18584079
0.026312614 -0.015410416 -0.17635483
0.033617832 -0.012751248 -0.17521268
0.13691273 0.0073963599 -0.17611542
0.15498413 0.00073727383 -0.17583883
0.16433591 0.0094032474 -0.17337102
0.068291947 0.013388141 -0.17687406
0.075269409 0.0156535 -0.17586376
0.12995213 0.013933453 -0.17532779
0.15398583 0.011266276 -0.17184231
0.079539321 0.0096586291 -0.16562423
0.10796416 0.0096378988 -0.16625305
0.11789043 0.009799066 -0.1613642
0.12285057 0.0073963599 -0.16663167
0.14220233 0.00023090956 -0.16858503
0.18436255 0.0046379282 -0.16584453
0.11430453 0.016603673 -0.16914532
0.12308098 0.015097532 -0.16649799
0.13320073 0.011497496 -0.16894993
0.16544749 0.013363268 -0.16668709
0.040060062 -0.014277127 -0.15974805
0.051755477 -0.018505037 -0.15512836
0.14452313 -0.013965424 -0.15404165
0.092886329 -0.00066685304 -0.15572439
0.13582397 -0.0010254958 -0.15058675
0.17732076 0.0073963599 -0.15619947
0.17818931 0.017107584 -0.15392485
0.044949509 -0.020160645 -0.14951116
0.1002779 -0.022404984 -0.14189634
0.088000156 -0.0012389759 -0.14869657
0.14270245 -0.0010830346 -0.14976251
0.18155649 -0.0053438572 -0.14595914
0.14808761 0.0073963599 -0.14955138
0.17201716 0.0073963599 -0.14744121
0.15285939 0.010365326 -0.14418726
0.1619422 0.012433251 -0.14135037
0.18183899 0.012205877 -0.14427108
0.023800168 -0.025647264 -0.13883655
0.10172139 -0.0024441688 -0.13026395
0.14380203 -0.0018147537 -0.13928045
0.19171432 -0.0076871519 -0.13387255
0.096481539 0.0058743712 -0.13559869
0.11064667 0.0073963599 -0.13702281
0.14628708 0.0073963599 -0.13828094
0.17815113 0.0073963599 -0.13875842
0.21895352 0.0016136388 -0.1322722
0.15077874 0.012812721 -0.13337174
0.188456 0.012464274 -0.13683566
0.20828596 0.010755205 -0.13236065
0.22116624 0.012476929 -0.13191056
0.040923066 -0.026465228 -0.123297
0.075714849 -0.0116989 -0.1224723
0.13027824 -0.015422429 -0.123297
0.14577371 -0.017855398 -0.12329701
0.177333 -0.016116973 -0.123297
0.18636099 -0.012154476 -0.12329699
0.14142722 -0.0038414362 -0.12329699
0.19792202 -0.0073228246 -0.12329701
0.10095192 0.0081492104 -0.12849221
0.11770677 0.0064111617 -0.123297
0.13462321 0.0073963599 -0.12753804
0.15323648 0.0075222803 -0.12329701
0.23117363 0.003465533 -0.12519491
0.10351519 0.014008204 -0.12014885
0.12485182 0.013335747 -0.12385904
0.16594049 0.012979612 -0.12703606
0.18138757 0.012856636 -0.12795579
0.19812404 0.013257153 -0.12112403
0.20669727 0.011035591 -0.12385538
0.13131256 0.020115107 -0.12994954
0.17784564 0.022307184 -0.12881719
0.18376526 0.021070123 -0.12502442
0.19614895 0.022383114 -0.12828028
0.017043035 -0.023639275 -0.11474558
0.069439031 -0.029296808 -0.11613728
0.07528092 -0.022732973 -0.11642146
0.10434631 -0.023004666 -0.11244578
0.14472313 -0.028863166 -0.11381667
-0.041649014 -0.016875511 -0.11121145
-0.011675137 -0.016695272 -0.11398733
0.0049055414 -0.01376518 -0.11473076
0.043153148 -0.012732436 -0.11804821
0.13714284 -0.014330917 -0.11698456
0.14630075 -0.015557898 -0.11717977
0.18061247 -0.015596475 -0.11785067
0.19788739 -0.013567846 -0.11798397
0.027401678 -0.0070307916 -0.11246309
0.088925987 -0.0029305101 -0.11425454
0.101152 -0.0029305103 -0.11494263
0.11670653 -0.007968259 -0.11371357
0.15898177 -0.0077201687 -0.1128792
0.16076863 -0.0077116247 -0.11236279
0.17161544 -0.0050805379 -0.11400414
0.20867833 -0.0072973035 -0.11110885
0.12667969 0.018511493 -0.11707892
0.19288187 0.018857908 -0.11560001
0.15436324 0.021913992 -0.1125858
0.17101863 0.023928205 -0.11735533
0.20215251 0.024354547 -0.11434078
0.2190595 0.022457123 -0.11205011
0.13616383 -0.030081268 -0.10570368
0.16136675 -0.028565537 -0.10686357
-0.060131837 -0.019846126 -0.10539465
-0.031678677 -0.012385564 -0.10530563
-0.016638311 -0.012481851 -0.10420022
-0.008869282 -0.010462329 -0.10809524
0.11904614 -0.014021172 -0.10298273
0.13512346 -0.015739499 -0.10019732
0.16141053 -0.010276223 -0.10035086
0.21423189 -0.010175232 -0.10115157
-0.044889629 -0.0090746088 -0.10227716
0.16446853 -0.0053704637 -0.106977
0.19742906 -0.0071925963 -0.10678016
0.23634404 0.0250386 -0.10099851
-0.00053869188 -0.025366981 -0.099524625
0.16811761 -0.023417301 -0.099834792
-0.089083299 -0.017289378 -0.093352102
-0.043208487 -0.016422043 -0.098289073
0.0033359604 -0.0045998995 -0.091391303
0.11526969 -0.0073825102 -0.095786765
0.2072873 -0.0029305101 -0.099012047
0.22230017 -0.0029305101 -0.09469793
0.23333548 -0.0051484834 -0.092017099
0.25515643 -0.0071547702 -0.092258468
0.2844426 0.0065427413 -0.096106082
0.096486941 0.026015775 -0.093398228
0.13262874 0.028881263 -0.093044549
0.17754357 0.025617667 -0.096926205
0.051933572 -0.03517478 -0.086288147
0.13708073 -0.031562597 -0.088883296
0.18918507 -0.020358456 -0.085666329
-0.085128762 -0.013668906 -0.085030645
0.1945971 -0.014824237 -0.085826367
-0.070619985 -0.0073212357 -0.085202314
-0.06430807 -0.0072024083 -0.085116394
-0.025384581 -0.0052426271 -0.082473449
0.065523192 -0.0029305101 -0.083906218
0.10458771 -0.0051851845 -0.084915884
0.14622261 -0.0029305101 -0.089308016
0.16528055 -0.0076777143 -0.084008694
0.1848951 -0.0060197529 -0.083501242
0.22477049 -0.0072013196 -0.087169223
0.23577385 -0.0029305101 -0.087331682
0.25413105 -0.0085370038 -0.085232481
0.28367627 -0.0023396215 -0.084929258
-0.0023152865 0.0055542481 -0.087863579
0.30758181 0.0076438091 -0.083658814
0.0047710426 0.017730029 -0.083690122
0.017031666 0.023866178 -0.084124908
0.06065952 0.026126701 -0.082675368
0.24480927 0.0250386 -0.087848186
0.20473069 0.033001579 -0.086953871
0.022305274 -0.036296353 -0.071247183
0.053287871 -0.037151001 -0.076252602
-0.02516659 -0.023603518 -0.079130366
0.14819834 -0.022522271 -0.072670817
0.21097696 -0.023391431 -0.071853608
0.22171381 -0.023588929 -0.077966698
-0.10922055 -0.010863531 -0.076938145
-0.057721943 -0.017559998 -0.071023613
0.15425891 -0.017636828 -0.070266947
0.16971587 -0.012088881 -0.070281602
-0.13036455 -0.0087877838 -0.075217158
-0.064840786 -0.0066825468 -0.075378865
-0.053249329 -0.004731745 -0.07475587
0.014973409 -0.0029305101 -0.075204067
0.032609373 -0.0029305101 -0.078784503
0.081698783 -0.0029305101 -0.071478866
0.11840685 -0.0074387202 -0.075684212
0.19069466 -0.0072956644 -0.077572562
0.26218414 -0.0071541406 -0.079461962
0.27308869 -0.0071617728 -0.070296735
0.28799221 -0.0029305099 -0.070889376
0.29869387 -0.005434636 -0.070907824
-0.031003203 0.022706512 -0.070307396
0.2573247 0.027284741 -0.074624307
0.28677315 0.023613647 -0.077128373
0.29094461 0.024444066 -0.073240384
0.30404264 0.020522589 -0.07146208
0.036395375 0.030448951 -0.070064113
0.083299696 0.034903549 -0.078308843
0.1555905 0.040959299 -0.078618094
0.20732287 0.040959299 -0.071631186
0.22769621 0.040959299 -0.070278883
-0.0036073583 -0.031653993 -0.063941345
0.087885112 -0.036822155 -0.061367325
0.15635099 -0.032885484 -0.062532321
-0.0099403718 -0.029626455 -0.066690326
0.21386088 -0.023350544 -0.067452155
0.23514722 -0.025949959 -0.066576108
0.16984752 -0.015352578 -0.067069009
0.20822692 -0.01082499 -0.067449413
0.24812798 -0.013804987 -0.068192884
0.25994897 -0.019228188 -0.068663225
0.28114924 -0.012245887 -0.068625949
-0.13946545 -0.0074633877 -0.064918473
-0.10090329 -0.0070143547 -0.062330034
0.0044867843 -0.0029305103 -0.068774715
0.016142152 -0.0029305099 -0.065025009
0.035729852 -0.0029305101 -0.061329115
0.11634429 -0.0029305101 -0.060120922
0.14334294 -0.0074171 -0.067369029
0.17643872 -0.0029305101 -0.068008296
0.18100399 -0.0029305101 -0.061728045
0.19728145 -0.0029305101 -0.069556281
0.27427316 -0.0071811769 -0.06329231
0.29991737 -0.0071658143 -0.064023428
0.30555916 -0.0029305101 -0.067904577
0.32762587 0.017845115 -0.061258294
-0.024680294 0.0250386 -0.06660749
0.00756913 0.0250386 -0.069870666
0.033932619 0.035279803 -0.063252255
0.2506673 0.03336177 -0.068925783
0.059294119 0.040959299 -0.061864778
0.10057049 0.040959299 -0.064912356
0.1591361 0.040959299 -0.060704827
0.19729176 0.040959299 -0.062518857
0.044117067 -0.039393581 -0.051069312
0.052168634 -0.039028749 -0.05375541
0.060041107 -0.038672056 -0.057981528
0.15316074 -0.033303168 -0.059907217
0.16731381 -0.032584254 -0.059106901
-0.057699252 -0.020987861 -0.053643461
0.19493401 -0.022052692 -0.05346179
0.22412188 -0.023295574 -0.057615079
0.25239253 -0.028397581 -0.05281499
0.22649477 -0.014067031 -0.053347602
0.30408823 -0.010735814 -0.052087139
-0.10499515 -0.0073751938 -0.058100261
-0.023794673 -0.0029305101 -0.052640747
0.1058 -0.0029305101 -0.059331603
0.11808537 -0.0075117401 -0.052268721
0.14958255 -0.0029305101 -0.056319252
0.16242166 -0.0074059498 -0.059263837
0.20274687 -0.0073378449 -0.056534536
0.33703071 -0.0017989409 -0.053052105
-0.10441975 0.0097198049 -0.05390384
0.35330743 0.0084535256 -0.056947872
0.33208665 0.016950956 -0.059894595
0.35625356 0.012881947 -0.051240999
0.30685997 0.0250386 -0.056186505
0.2625145 0.039570831 -0.053722031
0.022022787 0.040431283 -0.053245991
0.062178314 0.040959299 -0.052460276
0.10888878 0.040959299 -0.055768453
0.14621376 0.040959299 -0.05845869
0.057241529 -0.038798798 -0.048410267
0.066694766 -0.031936772 -0.04547881
0.10481057 -0.036643103 -0.047250107
0.13769819 -0.035152771 -0.048833914
0.22207153 -0.031160442 -0.041110002
0.069855571 -0.029449053 -0.046657108
0.28518936 -0.023608118 -0.040224928
-0.085244074 -0.015712103 -0.047609016
-0.076914087 -0.017485514 -0.04328192
0.064539626 -0.018185046 -0.04721655
0.076579124 -0.015286774 -0.042645346
-0.1331763 -0.0046746479 -0.046061251
-0.10416538 -0.0029305101 -0.046793111
-0.071569517 -0.0029305103 -0.04123085
0.1434415 -0.0029305101 -0.041756995
0.15810746 -0.0029305101 -0.047021654
0.18714511 -0.0029305099 -0.042755298
0.19396031 -0.0029305101 -0.043894909
0.27324784 -0.0029305101 -0.040629618
0.28195083 -0.0076305638 -0.043463141
0.29086679 -0.0029305101 -0.045180082
0.31673801 -0.0051420182 -0.041956935
0.32380107 -0.0029305101 -0.041745309
0.3350862 -0.0071220016 -0.045097098
-0.11800726 0.014031964 -0.047387138
-0.095578812 0.0250386 -0.042642899
0.065690041 0.040959299 -0.047974929
0.17287503 0.040959299 -0.043645933
0.18575567 0.040959299 -0.048794433
0.23372826 0.040959299 -0.041465331
-0.011001979 -0.031362515 -0.035709314
-0.00033123512 -0.033609159 -0.033275295
0.039976839 -0.030660411 -0.031928807
0.077148661 -0.036705378 -0.036491338
0.087225914 -0.036248721 -0.032062754
0.10079256 -0.035633937 -0.037667237
0.13101289 -0.034264479 -0.035046957
0.24758692 -0.030172788 -0.033246532
0.13876712 -0.023949262 -0.03860537
0.14974423 -0.028173383 -0.032219466
0.16783701 -0.02735351 -0.034302056
0.30608749 -0.024218675 -0.032134004
0.13132356 -0.012805915 -0.032853305
0.14469515 -0.017808802 -0.037882816
0.15098432 -0.017723745 -0.037150186
0.20320371 -0.017205793 -0.031068042
0.23098969 -0.014590953 -0.037235402
0.25829351 -0.01551882 -0.036798671
0.2974937 -0.014215399 -0.036285318
-0.10570134 -0.009081414 -0.032768015
-0.011444382 -0.0029305101 -0.037602667
-0.0013318807 -0.0029305101 -0.036206994
0.030025663 -0.0029305101 -0.032424878
0.074894845 -0.0029305101 -0.036351617
0.090539813 -0.0029305101 -0.030051354
0.11874408 -0.0052423822 -0.035076238
0.1733616 -0.0029305101 -0.03052309
0.22984901 -0.0029305101 -0.03882239
0.27372479 -0.0029305101 -0.032291111
-0.18988749 0.00145649 -0.030471917
-0.17441672 0.0025116194 -0.034569908
0.38976547 0.01077465 -0.034090512
-0.15939501 0.020955108 -0.033732563
-0.14305452 0.023739612 -0.035279829
-0.09663485 0.026717173 -0.035468176
-0.062036581 0.033180937 -0.030345785
-0.053103533 0.030950699 -0.030756127
0.28675935 0.038890757 -0.039648637
0.11976475 0.040959299 -0.038093239
0.12640581 0.040959299 -0.039039336
0.21683295 0.040959299 -0.030926773
0.27725226 0.040959299 -0.035166252
0.064674824 -0.032028306 -0.028224155
0.087191641 -0.031007957 -0.024795186
0.10814467 -0.032679617 -0.023406897
0.12247456 -0.035842635 -0.025658382
0.13443126 -0.035300791 -0.028965617
0.1442003 -0.033666879 -0.024730522
0.171376 -0.032435391 -0.02404708
0.18522415 -0.031807851 -0.023514912
0.20790435 -0.030780081 -0.020370301
0.1038541 -0.026681349 -0.023150332
0.15481138 -0.020537568 -0.022628784
0.22958255 -0.021025991 -0.028017163
0.25453454 -0.025639305 -0.023396559
0.28077865 -0.023693679 -0.02207097
-0.098824739 -0.0128721 -0.026372643
-0.084264286 -0.015937693 -0.027765352
0.072570324 -0.015468441 -0.024139807
0.080800481 -0.015095475 -0.02383526
0.10865486 -0.019438108 -0.023098122
0.14365587 -0.014094569 -0.022739366
0.16810858 -0.011138925 -0.025991222
0.25827381 -0.014925824 -0.024644723
0.28054178 -0.015865928 -0.021346774
-0.1528168 -0.0012526 -0.022535671
-0.13078624 -0.0061428463 -0.028276429
-0.06502448 -0.0029305099 -0.026900414
0.0097556086 -0.0029305101 -0.020830486
0.020509832 -0.0029305099 -0.021628775
0.21262366 -0.0091216303 -0.025079224
0.23074105 -0.0029305103 -0.020369213
0.24983038 -0.0029305101 -0.027460851
0.25352582 -0.007488464 -0.025158234
0.26662821 -0.0077323625 -0.023634136
0.30161873 -0.0029305101 -0.029775588
0.37473816 -0.0024320681 -0.028811874
-0.21648961 0.013523716 -0.024156023
-0.20401801 0.012719307 -0.025112173
-0.18480772 0.022812236 -0.028515369
-0.15556806 0.02918864 -0.020997185
-0.068591744 0.0250386 -0.029586228
0.3599844 0.0250386 -0.020461842
-0.077139109 0.03843319 -0.025595684
0.31593174 0.035164811 -0.024899352
-0.053755905 0.040748905 -0.024992978
-0.015483582 0.040959299 -0.02533827
0.219519 0.040959299 -0.025993403
0.04033586 -0.038581245 -0.019429538
0.14287481 -0.033726946 -0.013880635
0.22611745 -0.031145845 -0.013521632
0.26685065 -0.029299937 -0.01649324
0.04844486 -0.017875904 -0.01785229
0.07843779 -0.016712885 -0.017294619
0.088954076 -0.015788943 -0.019199179
0.094645537 -0.014468057 -0.014337943
0.23327032 -0.010107903 -0.010678893
-0.16519988 -0.00061942829 -0.011994582
-0.13340463 -0.0049791131 -0.012844915
-0.12181272 -0.0029305103 -0.01226143
-0.014232963 -0.0029305103 -0.010884916
0.17772245 -0.0029305099 -0.011879311
0.18798871 -0.0029305101 -0.019249979
0.26804513 -0.0066100918 -0.019804941
0.35743999 -0.0029305101 -0.012643483
0.37280136 -0.0027981382 -0.013937826
-0.27889031 0.0049796789 -0.013910973
-0.22678067 0.00145524 -0.01712662
-0.28704101 0.01169472 -0.010453993
-0.24211493 0.021943999 -0.014715945
-0.23002811 0.02376557 -0.013599026
-0.22547655 0.026805688 -0.012689637
-0.14775212 0.028446954 -0.01321179
-0.12705006 0.0250386 -0.015708776
-0.051632501 0.031222697 -0.017806543
-0.004148528 0.040959299 -0.011752708
0.085918091 0.040959299 -0.016352708
0.11198462 0.040959299 -0.015544605
0.12138633 0.040959299 -0.012509346
0.15883921 0.040959299 -0.011676393
0.22703142 0.040959299 -0.016089007
0.2888107 0.040959299 -0.011776187
-0.014996089 -0.030521587 -0.0036952451
0.025525998 -0.039053813 -0.00074385741
0.084005482 -0.037555501 -0.0015559928
0.12665752 -0.034461848 -0.0074170725
0.18293938 -0.03310255 -0.0070615835
0.2409908 -0.030471828 -0.0052222768
-0.053325549 -0.022451609 -0.0035891912
0.23651931 -0.029483372 -0.0003694621
0.26022786 -0.028409 -0.0074321791
0.27192909 -0.028474275 -0.0060567595
0.31577525 -0.021907568 -0.0071147233
0.053049941 -0.018244853 -0.00058484531
0.075512886 -0.017516287 -0.0047281901
0.098714225 -0.017805802 -0.0057777157
0.11357654 -0.015957633 -0.001562189
0.16553041 -0.012858395 -0.0053909323
0.18669984 -0.010296424 -0.0041139624
-0.17762855 -0.0012559131 -0.0025904384
-0.10159969 -0.0029305099 -0.0052627251
0.026132472 -0.0029305101 -0.0090574138
0.038023762 -0.0029305101 -0.0016623102
0.26000941 -0.0069742482 -0.0057761027
0.27407989 -0.0050195619 -0.0024545414
-0.38716328 0.0058720321 -0.0022144665
-0.36426556 0.0062130271 -0.0037280205
-0.31098035 0.00145524 -0.0061236708
-0.28009886 0.000164085 -0.0068526897
-0.19288191 0.0012529893 -0.0064345896
0.38956651 0.00037056295 -0.0062642074
0.39965832 0.002277974 -0.0046049934
0.42091772 0.006296122 -0.0097507555
0.43067837 0.0081409328 -0.0054376456
-0.38013226 0.012296475 -0.0026574791
-0.36320901 0.013824647 -0.0041932976
0.423675 0.012103433 -0.0084944759
-0.37935087 0.02167074 -0.0017114988
-0.33702943 0.020702068 -0.0062074619
-0.32202771 0.024967091 -0.0042758221
-0.22806466 0.028514851 -0.0049199988
-0.10459959 0.0250386 -0.0022399975
-0.10523516 0.036288932 -0.0074925278
-0.051632501 0.039804392 -0.0063984608
0.029563747 0.040959299 -0.00028256141
0.20118034 0.040959299 -0.006075182
0.26721394 0.040959299 -0.00060628518
0.27816501 0.040959299 -0.0052602598
0.089658245 -0.037329774 0.0068694162
0.1571943 -0.034269236 0.0076903575
0.20246913 -0.031026382 0.0020407257
-0.018662659 -0.029749617 0.0032002761
0.039622679 -0.022847762 0.0019328985
0.26419145 -0.028229387 0.0070500867
0.28364325 -0.028538946 0.0066485303
-0.094199181 -0.013845975 0.0028021177
0.047356315 -0.016611068 0.0069662537
0.07749746 -0.018991329 0.0017372752
0.08087977 -0.015091881 0.0067863241
0.12116045 -0.016832642 0.0090865996
0.15296048 -0.012852225 0.0071684523
0.1961689 -0.011949225 0.0077727516
-0.15617947 -0.0017210728 0.0060650744
-0.12444139 -0.0074787098 0.0059463736
-0.072986618 -0.0029305101 0.00049260794
-0.048183315 -0.0029305101 0.0006878525
-0.03245936 -0.0029305101 0.0093959309
0.017313574 -0.0029305101 0.0031938981
0.11922345 -0.0029305101 0.0088401791
0.1535648 -0.0029305099 0.0068591274
0.24704796 -0.005243212 0.0022778525
0.33552858 -0.0029305101 0.0085292524
0.37599277 -0.0021949499 0.0045844084
0.38526699 -0.00044206827 0.0087833535
-0.37491742 0.0050372845 0.0030235364
-0.36709964 0.0067228898 0.0035401559
-0.35678154 0.00145524 0.0021521591
-0.33479521 0.00080966245 0.0045293365
-0.32589623 0.0033829566 0.0024755853
-0.25327379 0.00145524 0.0084590316
0.40297318 0.0029044962 0.0037959469
-0.37254938 0.013414907 0.0033750192
-0.30824056 0.012049475 0.0097951964
-0.204018 0.01375947 0.0026377162
0.39815724 0.018017508 0.0030332974
-0.37844065 0.025372522 0.0015420502
-0.36333299 0.029160099 0.00093825907
-0.33869982 0.029160099 0.0014272386
-0.31584287 0.029160099 0.0037904396
-0.29896834 0.02324787 0.0061903177
-0.23622063 0.029160099 0.0063521201
-0.18885608 0.029700914 0.0019664189
-0.15476328 0.029041704 0.005232987
-0.051632501 0.037665613 0.0034848377
0.058672693 0.040959299 0.00087354891
0.060882278 0.040959299 0.0011100289
0.15775236 0.040959299 0.0012140088
0.11667179 -0.034914356 0.010812251
0.14614257 -0.034770068 0.011433193
0.16682869 -0.033832636 0.017716229
0.18473175 -0.03302132 0.016800428
-0.053054754 -0.022508623 0.013781586
0.25666755 -0.029761404 0.017011624
0.066422299 -0.018951343 0.019100195
0.074194007 -0.016429855 0.017854061
0.10609844 -0.014449669 0.017934592
0.13683859 -0.015028246 0.013279004
0.14684424 -0.013146782 0.017798321
0.15350999 -0.013181263 0.015793856
-0.14641772 -0.0012526 0.019917857
0.049630214 -0.0029305103 0.018376976
0.18231207 -0.0029305101 0.018362602
0.28096634 -0.0029305101 0.015950818
0.3629418 -0.0060163978 0.013770476
-0.2961331 0.0050704516 0.010636952
-0.27011317 0.0054853735 0.015415655
-0.26850367 0.0022937586 0.01488579
-0.21632007 0.00145524 0.012630717
-0.146044 0.0075591132 0.017377118
-0.27223206 0.012475226 0.014878293
-0.26861981 0.018622 0.014580869
-0.24895698 0.018151345 0.01738729
-0.146044 0.01036999 0.017898256
-0.24334002 0.020881623 0.014225083
-0.22642617 0.0245085 0.012982585
-0.11800376 0.0250386 0.017553387
0.34319326 0.027992632 0.017990317
0.31091642 0.036953185 0.010501006
0.046391435 0.040959299 0.015367933
0.1282777 0.040959299 0.01544118
0.29817358 0.040490795 0.014774969
0.0038468074 -0.034488816 0.027802598
0.020811379 -0.038061183 0.024298808
0.040589575 -0.036996607 0.02530822
0.091529176 -0.037244987 0.022325851
0.178212 -0.032125615 0.029686853
-0.061980076 -0.020629462 0.029018691
0.074087068 -0.028863847 0.023454349
0.10716352 -0.026435463 0.023116533
0.13645911 -0.023159085 0.022816809
0.1489467 -0.028209526 0.027669329
0.22592765 -0.02298478 0.027556531
0.23892662 -0.029965207 0.026976503
0.25036466 -0.021416128 0.021656517
0.27784467 -0.028801721 0.02091484
0.28555655 -0.020623462 0.021498524
0.039470471 -0.019490024 0.027309107
0.063065551 -0.018927276 0.023561958
0.15691914 -0.011645999 0.020204663
0.16115779 -0.011453915 0.024223987
0.18146642 -0.010533588 0.029834025
0.22441787 -0.010510918 0.026435465
0.23975602 -0.013389859 0.026792465
0.25540474 -0.010840446 0.024957176
0.28040451 -0.015350553 0.022070497
-0.064258531 -0.0029305103 0.0223841
0.07178355 -0.0029305101 0.02771559
0.10173165 -0.0029305099 0.02682969
0.11201847 -0.0029305101 0.027083253
0.20685004 -0.0029305101 0.02266708
0.23344949 -0.0029305101 0.022769343
0.24625012 -0.0029305101 0.028696895
-0.20916787 0.00145524 0.02171392
-0.22593527 0.013492544 0.022587039
-0.14741638 0.026156887 0.025461908
-0.093788542 0.0250386 0.022572838
-0.054344852 0.0250386 0.028308155
-0.1228451 0.033906914 0.021796606
0.24828266 0.040959299 0.024576247
0.2903336 0.040959299 0.02279749
0.040322065 -0.038276065 0.031702831
0.12673487 -0.035649568 0.034483068
0.13586794 -0.034980249 0.039001111
0.17987792 -0.032464463 0.03386417
-0.03355673 -0.026613785 0.038185868
0.17778608 -0.022945952 0.034057468
0.046965353 -0.016628783 0.037542172
0.05859321 -0.016101845 0.039685585
0.095780298 -0.014416633 0.035574637
0.18490066 -0.014770148 0.033186037
0.19904192 -0.012434838 0.031527381
0.30102426 -0.016595358 0.036131386
-0.155839 -0.0015861082 0.037005145
-0.11789918 -0.0081948424 0.03131438
-0.087405831 -0.0029305101 0.03237015
-0.063671306 -0.0029305101 0.033389114
-0.049454603 -0.0029305101 0.03664396
-0.027365347 -0.0029305101 0.036994424
0.092284977 -0.0029305101 0.036798052
0.10100723 -0.0075907516 0.037201479
0.1347494 -0.0029305101 0.03982196
0.15327008 -0.0052126125 0.03488864
0.19310504 -0.0074120448 0.038457356
0.21334513 -0.0029305101 0.037738942
0.29533294 -0.0029305103 0.039003614
0.3307128 -0.0029305099 0.03736937
0.35394979 -0.0044200663 0.038351167
0.36889881 -0.00034561916 0.035842359
-0.17697619 0.0026203743 0.033195898
-0.19134733 0.010276608 0.030163828
-0.13466299 0.0250386 0.032895681
-0.064343311 0.031922404 0.038450927
0.049251933 0.040959299 0.034882028
0.064108498 0.040959299 0.032081611
0.23074783 0.040959299 0.035755649
0.040104661 -0.033480134 0.046693143
0.065490305 -0.030641248 0.047171608
0.084896691 -0.031111952 0.044209808
0.19662197 -0.032482427 0.040848862
0.23699042 -0.030305082 0.041336834
-0.050335579 -0.022615915 0.04148072
-0.023901964 -0.028646521 0.041746452
0.039884493 -0.028624063 0.04877742
0.06654954 -0.015741287 0.043439504
0.090447247 -0.016882144 0.044193499
0.11281366 -0.015046429 0.041579898
0.12464827 -0.015217004 0.040203009
0.022582848 -0.0029305099 0.040688463
0.080569893 -0.0029305101 0.044499785
0.09432175 -0.0075813746 0.044337943
0.11689455 -0.0075341091 0.045768429
0.15471402 -0.00747348 0.042157978
0.17913151 -0.0074242242 0.043097593
0.26804155 -0.0077656331 0.042822141
0.27696449 -0.0029305101 0.045125559
0.28439331 -0.007447205 0.044558212
0.30481446 -0.0071886517 0.0421254
-0.12794438 0.011866702 0.045428686
-0.087389849 0.0250386 0.045294326
-0.057953209 0.029087991 0.043908332
0.34169906 0.02335985 0.043807384
0.092155442 0.040959299 0.042084038
0.14138111 0.040959299 0.049487468
0.22945566 0.040959299 0.049617793
0.25582939 0.040959299 0.04947624
0.0026651174 -0.034240551 0.057403047
0.040651161 -0.023863541 0.050027624
0.26088196 -0.02357275 0.052875236
0.21661139 -0.012222871 0.050820284
0.24107921 -0.017141733 0.051416107
-0.086923823 -0.0029305101 0.053653248
0.11648704 -0.0074934284 0.059174202
0.21920303 -0.0080251675 0.055168226
0.31798273 -0.0029305103 0.059870776
-0.094868839 0.013236232 0.055297144
-0.090966091 0.022603458 0.05262769
-0.035953745 0.0250386 0.059000347
0.31405059 0.0250386 0.05243976
0.26000619 0.039509166 0.055352591
0.27190951 0.031367328 0.058811437
0.10499622 0.040959299 0.053215928
0.13534659 0.040959299 0.056027561
0.17201872 0.040959299 0.0563033
0.030620003 -0.04000308 0.06161898
0.095741391 -0.036037661 0.065152913
0.14243487 -0.033332355 0.066172414
0.19486539 -0.030869229 0.061011337
0.16846955 -0.022177111 0.06986481
0.22540778 -0.02082162 0.068163998
0.2414273 -0.023620943 0.067921646
0.17468828 -0.017356869 0.069982283
0.1938462 -0.015245007 0.067430176
-0.15052696 -0.008908907 0.067932919
-0.12411267 -0.0079562301 0.066831738
-0.09054336 -0.0066648014 0.066503331
-0.074987024 -0.00072876853 0.063692674
0.036570162 -0.0029305101 0.06604138
0.054320734 -0.0029305103 0.065170154
0.077970877 -0.0029305101 0.064656533
0.095102087 -0.0029305101 0.060829118
0.17308633 -0.0073784208 0.061625645
0.18587467 -0.0029305101 0.069082871
0.2445583 -0.008783265 0.069337055
0.30875942 -0.0029305099 0.067845441
-0.06271445 0.015331827 0.063555323
0.016140977 0.030599635 0.063891158
0.19722173 0.040959299 0.061300755
0.23160499 0.040959299 0.066422336
0.053190876 -0.03657876 0.079158515
0.07824479 -0.036493573 0.070892744
0.11755845 -0.034206878 0.071849398
0.17256708 -0.031123884 0.071908325
0.18061155 -0.030141722 0.077747956
0.0001822263 -0.029561067 0.079085484
0.21477941 -0.028538287 0.074365571
-0.092736781 -0.012245585 0.078238562
-0.12166651 -0.0078419838 0.077800512
0.10933343 -0.0029305099 0.07879582
0.12543929 -0.0029305103 0.075919867
0.1947117 -0.0079375878 0.076160297
0.24292755 -0.0029305101 0.074859917
0.25463086 -0.0050491202 0.078245148
-0.054498445 0.0044842502 0.070507184
-0.015520494 0.0250386 0.07153146
0.047361001 0.032817103 0.070320375
0.19223513 0.040959299 0.078547977
0.21542218 0.040389705 0.079356894
0.026833743 -0.034502309 0.085754216
0.037995499 -0.036193598 0.081114411
0.058651261 -0.03574099 0.083412841
0.091865636 -0.034446757 0.084992856
0.13342348 -0.031907305 0.087345585
-0.029516608 -0.021847656 0.08286272
0.17403589 -0.023267301 0.08655028
0.18060352 -0.023367245 0.08894749
-0.09429235 -0.014771424 0.085625961
0.16941991 -0.014151705 0.083828211
0.176442 -0.018025354 0.084988445
0.080499507 -0.0029305101 0.084838092
0.14736822 -0.0029305101 0.087518111
0.1666722 -0.0073051658 0.089253843
0.20434825 -0.0029305103 0.087369241
0.24948779 -0.0091169812 0.085274935
0.0051882602 0.024590395 0.08039432
0.025700927 0.023755804 0.085532695
0.03244837 0.023674658 0.088740222
0.092721209 0.028408885 0.089271665
0.18175812 0.030582905 0.089830294
0.13570206 -0.023100004 0.099325545
0.14055315 -0.0230706 0.09445525
-0.060786381 -0.015947787 0.095213436
-0.043044295 -0.011885084 0.093556702
-0.065598309 -0.0093085151 0.094272934
0.079456665 -0.0029305101 0.097135313
0.085361943 -0.0029305101 0.092643157
0.12766132 -0.0073469356 0.099688247
0.13517565 -0.00733227 0.099818975
0.14779784 -0.007315564 0.097474918
0.16187419 -0.0079806503 0.093396105
0.19770709 -0.0029305101 0.097875543
0.21697152 -0.0058315955 0.098279171
0.23703095 -0.0073065311 0.093071833
0.265526 -0.00021861651 0.099134013
0.0055429377 0.011350243 0.090184793
0.29197347 0.012618907 0.090410255
0.19327615 0.029525856 0.091087393
0.21511088 0.028048703 0.093086354
0.071104169 -0.032367676 0.10054298
-0.016479064 -0.021276191 0.10902673
0.13345975 -0.023167081 0.10501801
0.15736116 -0.02340552 0.10568166
-0.054910921 -0.017628862 0.10960884
0.18477084 -0.017585276 0.10187414
0.035986155 -0.0065020723 0.10559416
0.1035949 -0.0029305101 0.10562019
0.14849761 -0.00728596 0.1066186
0.1551777 -0.0072728442 0.10676007
0.17952867 -0.0029305099 0.10423676
0.2705462 0.0095237633 0.1059503
0.052845351 0.012691854 0.10459436
0.10551542 0.0250386 0.10200655
0.14903045 0.0250386 0.10404323
0.00064283423 -0.02279141 0.11685427
0.023019835 -0.024450986 0.11753412
0.098360822 -0.029418791 0.11551784
0.11200104 -0.029123776 0.11701597
0.13569169 -0.029693048 0.11025423
0.15946531 -0.02550232 0.11982527
-0.046891242 -0.01969314 0.11150558
0.072043218 -0.014655471 0.11757451
0.10251966 -0.011730064 0.11762855
0.19281852 -0.011802118 0.11771917
0.032099146 -0.0070848735 0.11501953
0.068287425 -0.0057367678 0.11411589
0.11713508 -0.0080873342 0.11361574
0.13139236 -0.0029305101 0.11502384
0.14466672 -0.0085193291 0.1140421
0.089225642 0.00094022579 0.11830987
0.15260489 0.017687568 0.11675432
0.22946426 0.015053893 0.11935191
0.12230082 0.022402296 0.11210418
0.21316102 0.024472939 0.11350361
0.03211312 -0.026772995 0.12489978
0.055198479 -0.023694908 0.12471144
0.13176662 -0.021069812 0.123297
0.05154255 -0.018748853 0.12139187
0.064509101 -0.015101709 0.12758483
0.11184034 -0.016686767 0.123297
0.13313496 -0.01973086 0.12329701
0.13260654 -0.006721762 0.123297
0.19905415 -0.0077121789 0.12863603
0.10575086 0.0073963599 0.12877987
0.12347015 0.010858457 0.12922856
0.16514204 0.010346079 0.12329699
0.14924738 0.023058206 0.12350678
0.19516662 0.022672191 0.12623617
0.046500716 -0.025212821 0.13236925
0.09812595 -0.023647811 0.13025661
0.18599106 -0.0023395391 0.13176271
0.19982213 -0.0023111869 0.13941571
0.096215412 0.0073963599 0.13656011
0.10575183 0.010753868 0.13240114
0.12409876 0.010529301 0.13921309
0.17041127 0.010600315 0.13705896
0.074593514 -0.022750165 0.14072467
0.085372448 -0.020229792 0.14927605
0.12264854 -0.020752724 0.14750201
0.11711593 -0.0015651135 0.14285643
0.12247917 0.010214923 0.14874938
0.14431995 0.019810246 0.14647213
0.20138262 0.01023048 0.14827749
0.13704243 0.020644832 0.14057101
0.056263227 -0.010285151 0.15454018
0.1495488 -0.011462993 0.15573768
0.15546124 -0.00038973684 0.15969381
0.083913028 0.0079658106 0.15557832
0.10744867 0.0073963599 0.15235776
0.17211196 0.0099682966 0.15623045
0.14277698 0.01827009 0.1573621
0.050901722 -0.010203529 0.1612411
0.13286567 -0.014478798 0.16119856
0.088146433 0.0073963599 0.16341054
0.097430721 0.0037088934 0.16477519
0.10383204 0.0084908307 0.16455576
0.11301465 0.0098313894 0.1603834
0.14843166 0.0097863283 0.16175027
0.16268167 0.0073963599 0.16546825
0.17543551 0.0097994488 0.16135225
0.10608765 0.015331207 0.16410214
0.16323882 0.016796537 0.16778117
0.063890897 -0.011887519 0.17758007
0.10158494 -0.012556612 0.1753099
0.051645681 -0.0058960118 0.17563975
0.089785084 0.0073963599 0.17053308
0.11939567 0.0073963599 0.17480659
0.12686849 0.002966671 0.17625298
0.15910599 0.0073963599 0.17156598
0.1647944 0.0073963599 0.17615506
0.071532451 0.016123854 0.17253751
0.13303889 0.015086167 0.17987467
0.16255689 0.01552554 0.176768
0.042940069 -0.0088417977 0.18360785
0.073729694 0.0058506387 0.1819429
0.11310115 0.0073963599 0.18852398
0.13727397 0.0042601591 0.18510693
0.15560871 0.0021058372 0.18295094
0.12166782 0.012812059 0.18323877
0.14163795 0.014531896 0.18379375
0.10383441 -0.0075784652 0.19219966
0.073334791 0.0073963599 0.19662839
0.11226436 0.0022772278 0.19789833
0.14562923 0.0073963599 0.19918799
0.061830774 0.013305395 0.19246599
0.1260746 0.01096048 0.19702306
0.049470887 0.0093103172 0.20921952
0.063933663 0.0082698958 0.20774937
0.063264757 -0.0017291314 0.21204567
0.043171089 0.0053279959 0.22795716
0.050522342 0.0040022917 0.22261003
0.08352834 0.0089036729 0.22358924
0.045543239 0.0067609465 0.23280689
0.048039284 0.011055043 0.23950166
0.068910599 0.012848327 0.24018219
