# .PCD v0.7 - Point Cloud Data file format
VERSION 0.7
FIELDS x y z
SIZE 4 4 4
TYPE F F F
COUNT 1 1 1
WIDTH 853
HEIGHT 1
VIEWPOINT 0 0 0 1 0 0 0
POINTS 853
DATA ascii
-0.15168741 -0.047851007 -0.30217111
-0.15308747 -0.032961443 -0.30843633
-0.12666519 -0.046969905 -0.29827514
-0.1371578 -0.048484992 -0.28553778
-0.11153442 -0.048433635 -0.28284237
-0.12587816 -0.049226306 -0.26713112
-0.11459799 -0.047317311 -0.25308692
-0.10805987 -0.046835512 -0.25243676
-0.093319505 -0.047837511 -0.25554007
-0.11867094 -0.050142009 -0.24203525
-0.12258742 -0.048856843 -0.2448428
-0.11757947 -0.048453018 -0.2410171
-0.10488981 -0.047097981 -0.24540198
-0.088342577 -0.047667056 -0.2472191
-0.082988068 -0.050364122 -0.23715883
-0.10089669 -0.05092958 -0.22793084
-0.06697046 -0.049444329 -0.22438049
-0.11596933 -0.050994825 -0.21988912
-0.09733589 -0.048440211 -0.21851082
-0.099330939 -0.05013974 -0.19534491
-0.085254923 -0.05310354 -0.19400133
-0.049010824 -0.051788762 -0.19667393
-0.10612367 -0.05303476 -0.18937196
-0.034618277 -0.050569575 -0.180145
-0.073314831 -0.048820235 -0.1861214
-0.10231487 -0.052029934 -0.17908388
-0.086597383 -0.053971838 -0.17883962
-0.066634782 -0.054365758 -0.17093799
-0.060122862 -0.048944224 -0.17123096
-0.038536303 -0.047768343 -0.17017728
-0.051927738 -0.054296963 -0.16658622
-0.027921917 -0.052912392 -0.1675069
-0.014410097 -0.051165216 -0.15206109
-0.041505929 -0.048903875 -0.15384781
-0.062125847 -0.051119521 -0.14284158
-0.034975447 -0.055415459 -0.14252268
-0.08132185 -0.0560265 -0.13636795
-0.0044036559 -0.05192386 -0.13622198
0.0039542271 -0.052510746 -0.13115534
-0.024269039 -0.049157158 -0.13600901
-0.013766011 -0.048840094 -0.13617593
-0.076148055 -0.053138006 -0.12679201
-0.050289772 -0.051467098 -0.12685797
-0.044701219 -0.051459417 -0.12167697
-0.023818992 -0.056839518 -0.12749103
-0.015054409 -0.057273123 -0.12324873
-0.0040498991 -0.050066542 -0.12951209
-0.01260955 -0.04902352 -0.12990357
-0.35134679 -0.036862455 -0.12800449
-0.34846389 -0.039812565 -0.12836881
-0.34307954 -0.028543204 -0.1273337
-0.32123786 -0.023594599 -0.12657906
-0.35017157 -0.011056799 -0.12819217
-0.32310963 -0.018382695 -0.12682807
-0.34923434 -0.0016371608 -0.12837806
-0.33553809 -0.0059772292 -0.12697777
-0.35138822 0.0060645044 -0.12738372
0.074802563 -0.077951737 -0.11730134
0.048394028 -0.060774412 -0.11167102
0.067506872 -0.064452395 -0.11557312
0.016751785 -0.055791698 -0.11428061
0.033401355 -0.085442722 -0.10669382
0.0481258 -0.088617913 -0.10987369
0.061666965 -0.085582733 -0.10212116
0.016594753 -0.065286972 -0.10454075
0.073040009 -0.06668029 -0.10121483
-0.011481005 -0.058496278 -0.10355118
-0.009874003 -0.055241268 -0.10370085
0.005440867 -0.057151936 -0.10197596
0.022081926 -0.052233219 -0.10121134
0.040621996 -0.059104692 -0.10491431
0.036740419 -0.085957587 -0.092593908
0.041593522 -0.089537345 -0.096461594
0.051536594 -0.061469804 -0.090997964
0.083159477 -0.061200775 -0.09902066
-0.017452488 -0.05191765 -0.093346432
0.061091144 -0.057005808 -0.099972814
0.045962844 -0.081030987 -0.086827397
0.071827106 -0.076951087 -0.086612299
-0.035215579 -0.060940314 -0.088959701
0.022455676 -0.060192749 -0.082754947
-0.066311456 -0.059632327 -0.087119922
-0.045162614 -0.054091621 -0.085864127
-0.03889427 -0.054048046 -0.080534369
0.016931832 -0.05110243 -0.081140772
0.036405157 0.039538328 -0.083952397
0.039626997 0.042593684 -0.080525368
-0.050510187 -0.060952902 -0.079045162
-0.068344861 -0.058545042 -0.078904584
-0.052973844 -0.055522844 -0.074338675
-0.042203188 -0.054854814 -0.072554216
-0.022714492 -0.053150769 -0.079951145
0.044374421 -0.059178285 -0.071415372
-0.029110672 0.037516348 -0.071183749
-0.0016551369 0.032352202 -0.071178764
0.0044403011 0.033705357 -0.079145133
0.027753003 0.039577298 -0.07560429
-0.035692055 -0.06250982 -0.065278627
0.024959372 -0.062475666 -0.066863164
0.036108993 -0.062764242 -0.060380377
-0.024138328 -0.054636996 -0.06045413
0.018137027 -0.052268755 -0.064256907
0.055336386 -0.054822989 -0.063661151
-0.032130707 0.033732262 -0.063997611
-0.020124525 0.039577302 -0.063626274
-0.0032078307 0.039577305 -0.063439392
-0.0039693723 0.047943 -0.062089197
0.02738576 0.047305699 -0.068475261
0.034690041 0.047849111 -0.063574836
-0.043640621 -0.062580734 -0.055042021
0.030546777 -0.05209253 -0.058226787
0.054896817 -0.053804681 -0.055134207
0.071104169 -0.056676533 -0.050384704
0.00739678 0.033906769 -0.054658592
0.024278633 0.031071499 -0.058767848
0.056480184 0.031219879 -0.05376495
0.070055015 0.039577302 -0.058595646
-0.02835797 0.047450103 -0.052364998
-0.014811764 0.047935948 -0.058729406
-0.0020869686 0.047943003 -0.054297209
0.019262318 0.047943 -0.057139862
0.065961152 0.046174776 -0.056912675
-0.051237099 -0.062842853 -0.041482057
-0.046706989 -0.057887971 -0.046578601
-0.038430102 -0.056424327 -0.047369119
0.023095293 -0.05360521 -0.042472422
0.040919188 -0.052865677 -0.040510304
-0.03297697 0.039577302 -0.048287373
0.019553661 0.031071499 -0.042231541
0.025315242 0.039577302 -0.046783544
0.042741783 0.039577302 -0.045318633
0.059675507 0.039577298 -0.041417867
0.062545657 0.039577302 -0.0488756
0.077142268 0.032311399 -0.040688746
-0.043351788 0.045996834 -0.047617123
0.015950374 0.047942996 -0.04307837
0.036747381 0.047943003 -0.042793047
0.044026431 0.047943 -0.049377836
0.08394374 0.045182392 -0.044375468
-0.13416779 -0.060966458 -0.030284455
-0.089881442 -0.065663278 -0.032203145
-0.029696904 -0.061577044 -0.030272396
0.013599745 -0.064236179 -0.037178516
0.022861743 -0.064209178 -0.036128737
0.038767174 -0.064946845 -0.035736687
0.063561417 -0.06336166 -0.037498273
-0.14430508 -0.059099734 -0.030482996
-0.1388751 -0.050691061 -0.033657506
-0.044958197 -0.053617064 -0.037046313
-0.0091744792 -0.056008045 -0.031374186
0.00036005583 -0.055305943 -0.038413506
0.015360457 -0.05932422 -0.031035002
0.073649131 -0.055902377 -0.039802771
0.094130851 -0.059615694 -0.036106348
0.13007057 -0.050555423 -0.035855081
0.20392706 -0.051728915 -0.034497458
-0.15227529 -0.045917459 -0.033563338
-0.11705986 -0.04747206 -0.035223078
-0.10704495 -0.047135558 -0.035570957
-0.089948826 -0.042718112 -0.035683867
-0.061247535 -0.041900303 -0.035578303
0.025069378 -0.045534305 -0.036724571
0.03877217 -0.046093181 -0.036864728
0.051493935 -0.047575019 -0.037531585
0.085021555 -0.042125553 -0.035607375
0.12207584 -0.048259586 -0.036190275
0.15553951 -0.046002027 -0.035810776
0.17495227 -0.043186363 -0.03578094
0.1896607 -0.040159199 -0.035353556
0.1921061 -0.041556038 -0.035533864
0.20221744 -0.045585152 -0.035318106
0.24239267 -0.041374978 -0.034285706
-0.16526052 -0.037152007 -0.032399569
-0.15548161 -0.034202866 -0.032085206
-0.14263271 -0.037181426 -0.033597149
-0.12403071 -0.033194438 -0.033678599
-0.11780281 -0.037991785 -0.035022765
-0.021546135 -0.036516353 -0.034883324
-0.01447395 -0.031959284 -0.033765025
0.069832116 -0.034695812 -0.034648322
0.083182372 -0.037594773 -0.035022531
0.10666507 -0.039441284 -0.035260886
0.123028 -0.033858292 -0.034536168
0.138466 -0.032543622 -0.034002312
0.24753228 -0.036787197 -0.033227101
0.258481 -0.035073973 -0.032012239
-0.15538341 -0.028421227 -0.030163536
-0.059514344 -0.024511475 -0.030558337
-0.037479021 -0.023796923 -0.030020811
0.04435524 -0.024970613 -0.030903732
0.17854904 -0.026944565 -0.03172867
0.2076007 -0.024613533 -0.030326623
-0.059255809 0.039577302 -0.035257276
-0.028412338 0.039577302 -0.034953043
-0.0048398226 0.031071501 -0.032870118
0.056657612 0.039577302 -0.031309776
0.066036358 0.039577302 -0.034669869
0.072578967 0.039577302 -0.034038384
0.085415699 0.032803915 -0.031609971
0.095753089 0.039901998 -0.033832032
0.031638242 0.047943 -0.033987239
0.04387144 0.047943003 -0.036241431
0.052689653 0.047943003 -0.031807877
0.063245758 0.047942996 -0.039938338
0.085088678 0.046205647 -0.031801689
-0.099432856 -0.073996231 -0.023063108
0.039445508 -0.078303158 -0.02028018
0.050375596 -0.075739883 -0.02768489
0.077003546 -0.075878367 -0.023811018
0.13796422 -0.071299411 -0.024025667
0.24247417 -0.071354561 -0.020761877
-0.18920165 -0.066044308 -0.023155447
-0.17919502 -0.066103801 -0.02373426
-0.10722104 -0.067071363 -0.029604187
0.043585945 -0.063066684 -0.029158177
0.17054868 -0.069790088 -0.025148124
0.21078563 -0.063159175 -0.02946211
0.22798668 -0.064437076 -0.028153777
0.28301486 -0.067844853 -0.020697471
0.31657147 -0.052385747 -0.022873048
-0.26215073 -0.040452134 -0.020573422
-0.25040781 -0.042604282 -0.022656122
-0.22493784 -0.038531575 -0.027154652
0.26539573 -0.030870691 -0.029729083
0.28883439 -0.03142019 -0.02745405
0.2937322 -0.036990065 -0.028325051
-0.24874437 -0.02705588 -0.020550547
-0.19981712 -0.024709135 -0.025414027
-0.13674895 -0.023435215 -0.028463304
-0.078598514 -0.023763705 -0.02999582
0.20113458 -0.022319619 -0.028731434
0.25797671 -0.026898976 -0.028867522
0.27216282 -0.02406498 -0.025356753
0.29767951 -0.029567825 -0.024735712
-0.15852076 -0.018883269 -0.023639638
-0.1362434 -0.019944496 -0.025870012
-0.10620093 -0.015569012 -0.022842363
-0.097102851 -0.015886474 -0.023247985
-0.070018023 -0.014585236 -0.021585381
-0.036888156 -0.016670112 -0.024249248
-0.025164813 -0.018788707 -0.026253309
0.015392717 -0.01409296 -0.020956391
0.025787525 -0.019792546 -0.027008459
0.092114694 -0.014753046 -0.021799792
0.13810508 -0.017901309 -0.025585754
0.16770063 -0.018204104 -0.025813533
0.17927952 -0.017227275 -0.024961142
-0.26961812 0.0066929283 -0.020175191
-0.0069741299 0.0084263459 -0.02174731
0.018967051 0.011953959 -0.022583375
0.036706388 0.011569502 -0.022028772
0.028451705 0.026833965 -0.024572888
-0.035851806 0.039577302 -0.024682228
0.005771026 0.038663715 -0.026074296
0.035358407 0.036632191 -0.025604472
0.049121153 0.039577302 -0.022419253
0.075345024 0.039577305 -0.026541848
0.090471312 0.033069674 -0.022820432
-0.038143128 0.047943 -0.024684861
-0.010569313 0.047943 -0.029589456
-0.0026129149 0.047943 -0.021258794
-0.11448339 -0.090034395 -0.010390661
-0.0699334 -0.091187432 -0.011405495
-0.0070151691 -0.090735458 -0.011999992
-0.035450239 -0.088073865 -0.015216568
-0.0062575191 -0.083921678 -0.019089729
0.037644044 -0.085989684 -0.01750287
0.085365459 -0.086650275 -0.016995983
0.12584859 -0.087160945 -0.015340624
0.1396028 -0.084614322 -0.015343813
0.1445846 -0.086803459 -0.01127528
-0.19637825 -0.070606679 -0.017160967
-0.18171021 -0.072414927 -0.015558375
-0.14729831 -0.075357914 -0.013168582
-0.079654172 -0.076423198 -0.01731348
-0.034500688 -0.078621373 -0.011617766
0.0072367806 -0.078968287 -0.015714969
0.154054 -0.076324902 -0.016362632
0.17621116 -0.077448547 -0.012504391
0.24489592 -0.076789923 -0.010604184
0.30150536 -0.070198789 -0.012531688
-0.23458713 -0.060849056 -0.017708287
-0.21969017 -0.069253594 -0.011285938
-0.15068209 -0.067019925 -0.010399446
0.32691032 -0.063613974 -0.010714833
-0.26590508 -0.051320646 -0.016043946
-0.26365662 -0.044837639 -0.019540746
0.3405388 -0.046050929 -0.012232991
-0.28596324 -0.039722867 -0.015724197
0.32714915 -0.036827523 -0.014876119
-0.29914999 -0.022650531 -0.010567357
-0.27192888 -0.027248483 -0.01698073
0.31923842 -0.024776729 -0.01334266
-0.24502426 -0.016194748 -0.010707662
-0.21274978 -0.0182977 -0.018119056
-0.15758497 -0.011914241 -0.013157269
-0.13320433 -0.010984204 -0.014142836
-0.082182221 -0.011600742 -0.017740726
0.012803016 -0.012873329 -0.019263869
0.031896301 -0.011712374 -0.017914688
0.040029101 -0.011942854 -0.01864177
0.23877427 -0.013735252 -0.019049533
0.25098991 -0.014736909 -0.018596962
0.26988104 -0.013592774 -0.013444534
-0.30472326 -0.0068319486 -0.012194847
-0.27744752 -0.00047560318 -0.01145489
-0.21361256 -0.0022740089 -0.010512557
-0.0024754889 -0.0076409155 -0.018956926
0.0014656971 -0.0075386064 -0.019977141
0.03459315 -0.00016291486 -0.01995682
0.074106127 -0.008635154 -0.010721238
0.1287673 -0.0094364081 -0.012617791
0.22959185 -0.0096823722 -0.011641014
-0.32479659 0.0037727058 -0.015281723
-0.28695163 0.0027516028 -0.014226814
-0.22267385 0.0024240101 -0.016217299
-0.33984151 0.013926271 -0.010110548
-0.32441244 0.01425212 -0.01411174
-0.30462655 0.015715308 -0.015331709
-0.26271719 0.010118082 -0.015349776
-0.25147223 0.017767571 -0.013001531
-0.24657767 0.018783472 -0.015188484
-0.21555984 0.014055951 -0.017714974
-0.20617485 0.011407491 -0.016438317
-0.27987662 0.020144731 -0.016656628
-0.025949849 0.031071501 -0.017829565
0.0062095956 0.035324402 -0.013286633
0.074196637 0.035324402 -0.015168699
0.10095549 0.039577302 -0.01747784
-0.025766311 0.047943 -0.016399724
-0.042257033 -0.092909053 -0.0072487164
-0.011893835 -0.093714669 -0.0049518747
0.12215596 -0.093610868 -0.0024192273
-0.14562827 -0.081216842 -0.0073000588
0.14296602 -0.088536002 -0.0093604391
-0.17131118 -0.075659707 -0.0094811115
-0.15801564 -0.075501807 -0.0022594761
-0.12543406 -0.079362154 -0.0011248123
-0.06069681 -0.079495184 -0.0035147627
-0.028497286 -0.079044722 -0.006869222
0.018690381 -0.079325251 -0.0047801915
0.0330134 -0.079903953 -0.00047073807
0.058986045 -0.079451397 -0.003840809
0.10532795 -0.079770818 -0.0014621989
0.13752457 -0.07959076 -0.0028030456
0.14727616 -0.079436861 -0.0039490825
0.29105294 -0.073809959 -0.0091049336
0.30466512 -0.073047802 -4.4585973e-05
-0.26123229 -0.060453344 -0.0070282854
-0.23704481 -0.066822246 -0.0066651031
0.34520105 -0.064586878 -0.00090148044
-0.31654656 -0.041345172 -0.0037954284
-0.32164925 -0.034635901 -0.0063276086
-0.31284949 -0.033918556 -0.0095530292
0.31898999 -0.0373572 -0.0031839092
0.3286345 -0.035671592 -0.0073684519
0.33925223 -0.036995314 -0.0031899337
0.34930769 -0.039451629 -0.0057854722
-0.27998555 -0.026447851 -0.0027319863
-0.26561129 -0.020776931 -0.0036060621
-0.23348053 -0.026216915 -0.00029099217
0.29346296 -0.022038426 -0.0012561417
0.32400918 -0.028353799 -0.0018454143
0.33084908 -0.029599188 -0.0085220039
-0.30442959 -0.018663023 -0.0014695126
-0.28063053 -0.019513305 -0.0028300495
-0.24195775 -0.014196362 -0.0066455351
-0.23508793 -0.016545333 -0.002290593
-0.20640521 -0.012383159 -0.0068611703
0.31481183 -0.015340842 -0.00024840335
-0.36203435 -0.00051354279 -0.0025413255
-0.32729089 -0.0036310721 -0.0099959671
-0.28546953 -0.0050162794 -0.0022254952
-0.25277862 -0.0038942592 -0.00056179368
-0.24240181 -0.0083377678 -0.0016891407
-0.23170885 -0.0073180506 -0.0032494315
-0.15792139 -0.0096027683 -0.0052919826
-0.13896461 -0.0089378469 -0.0077062431
-0.12203175 -0.0078823809 -0.0064730155
-0.080479346 -0.0079579838 -0.0090578366
-0.058485523 -0.0075861895 -0.0062900069
-0.019559726 -0.0074474448 -0.0052571287
0.045531038 -0.0082644718 -0.0098438412
0.071991295 -0.0072044199 -0.0034479245
0.097657561 -0.0074280133 -0.0051124631
0.12013373 -0.0071288683 -0.0028854797
0.18382303 -0.0076612136 -0.0068485267
0.22016186 -0.008411888 -0.0090233395
0.25377524 -0.0098316949 -0.0073498376
-0.27608961 0.0055341371 -0.0029762343
-0.36290026 0.013373334 -0.0038799574
-0.34118909 0.016172556 -0.0014494852
-0.27704388 0.013793485 -0.00088794646
-0.3736451 0.028231399 -0.001417487
-0.36640128 0.020793291 -0.0010250936
-0.33375895 0.023894185 -0.0036010176
-0.32500517 0.020027079 -0.0080198497
-0.31761491 0.02708032 -0.00074350834
-0.30667132 0.024689578 -0.002518174
-0.28857014 0.021514248 -0.0076697753
-0.27480316 0.023339452 -0.0035840299
-0.26356131 0.02128238 -0.0092233643
-0.25648701 0.029132938 -0.0027318236
-0.23143391 0.026579522 -0.0099524613
-0.22795853 0.026178882 -0.0056734001
-0.21809451 0.026520932 -0.0089981528
-0.20686129 0.023388915 -0.0085514989
-0.32385373 0.03593858 -0.0016033009
-0.25252661 0.031254392 -0.00044976783
-0.067867354 0.039577302 -0.0049955379
-0.03767395 0.039577298 -0.0050923312
-0.024051726 0.039577302 -0.0087609366
0.016984042 0.031071501 -0.007100381
0.057403401 0.031071501 -0.0042461446
-0.324249 0.049353853 -0.00020987159
-0.31075868 0.043080397 -0.0027890888
-0.051465534 0.047741666 -0.0046274364
-0.015097939 0.047943 -0.0040706233
0.0026868526 0.047942996 -0.0036449616
0.073722988 0.047943 -0.0031920858
0.09134762 0.046381868 -0.0043045571
0.10227031 0.040107723 -0.0086392956
-0.33135086 0.052784953 -0.0016280184
-0.33623725 0.061495941 -0.0014057354
-0.28513974 0.062927589 -0.002758651
-0.33504054 0.073097132 -0.0012856997
-0.32778165 0.076890007 -0.0026022
-0.30424309 0.076035 -0.0033589844
-0.32205337 0.094937354 -0.0031165327
-0.099786133 -0.093465425 0.0073003755
-0.073042281 -0.093940124 0.0050737681
-0.068608336 -0.094247401 0.0027391929
-0.023101766 -0.093683697 0.0070220223
-0.0088866018 -0.092978753 0.0089152008
0.019330248 -0.094006047 0.0045729089
0.064837709 -0.093585044 0.0074514551
-0.22183779 -0.070641935 0.0027045971
-0.15139307 -0.077402301 0.0048383479
-0.11184818 -0.079888552 0.00088233943
-0.083404459 -0.07970456 0.0022525599
-0.076611824 -0.079981945 0.00011006432
-0.054211095 -0.078874007 0.0084376754
-0.028450433 -0.079919055 0.00065513782
0.18202017 -0.075591683 0.002987551
0.29420388 -0.075026043 0.0017382223
-0.23796669 -0.066059008 0.0060743606
-0.15583442 -0.068046547 0.0087421434
0.17721246 -0.063854836 0.0078071062
0.33593673 -0.063887902 0.0067471405
-0.28308362 -0.051268339 0.0080147414
-0.2659972 -0.059773181 0.0019871169
0.34671938 -0.057776369 0.0011204602
-0.29660815 -0.046760034 0.0075239204
0.34674913 -0.041405693 0.00052363065
-0.31474909 -0.031600799 0.0069820886
0.34685141 -0.037461724 0.004182782
-0.29830632 -0.022740079 0.0086044101
-0.2606135 -0.014772999 0.0017507402
-0.23430037 -0.014001215 0.0054768324
-0.22901519 -0.012922286 0.00026087102
-0.17176539 -0.01171173 0.0096640615
-0.16880217 -0.010139001 0.0036828611
0.30387372 -0.0154456 3.4810801e-05
0.31345552 -0.017184146 0.0044509526
-0.30678698 -0.0062287915 0.0087182987
-0.29335839 -0.0089495815 0.0045831837
-0.256143 -0.002163016 0.0064851199
-0.24562226 -0.0079051433 0.0029562914
-0.073386431 -0.0070803203 0.0028210559
0.091210015 -0.0071590203 0.003406964
0.14518933 -0.0070424778 0.0025393269
0.17276084 -0.0071574003 0.0033948997
0.18631965 -0.0072008423 0.0037183207
-0.27227646 0.0077321082 0.00075933535
-0.33016512 0.019088591 0.002204498
-0.32462245 0.020009808 0.0027291698
-0.30412376 0.025222238 0.00021396378
-0.29487944 0.020941874 0.0058059515
-0.28791225 0.026575686 0.002004286
-0.2238777 0.024417896 0.0051353667
-0.27098295 0.037616827 0.00029168639
-0.05847377 0.032512631 0.0029559482
-0.010996146 0.031071503 0.0011345267
0.0032826215 0.031071499 0.00086623069
0.027390622 0.031071499 0.0026847455
0.030348413 0.039577298 0.0028069215
0.064635411 0.031071499 0.0052531124
0.079548553 0.039577302 1.8414459e-05
0.092192084 0.032638699 0.0027309358
-0.27370989 0.043487959 0.00027478841
-0.053616382 0.047348816 0.0049779788
0.049765468 0.047943 4.190809e-05
0.079389475 0.047943 0.004488708
0.095150739 0.045697514 0.0051023709
-0.29502577 0.053710237 0.00095701346
-0.31133968 0.064652555 0.00074039615
-0.31105548 0.078210324 0.00090415688
-0.32097003 0.087870598 0.0007181199
-0.10359842 -0.090871938 0.01269063
-0.043357562 -0.090789929 0.01376351
-0.13754193 -0.082575947 0.012800177
-0.11798891 -0.086386353 0.016611215
-0.097006835 -0.089485608 0.015463306
-0.040348891 -0.08729542 0.018317584
0.024263106 -0.08547765 0.019730275
0.054050304 -0.08771015 0.017521255
0.065682039 -0.086176954 0.019193679
0.074561372 -0.087173462 0.018429017
0.13304447 -0.087104052 0.016069511
0.14630336 -0.082687646 0.016514765
0.15178083 -0.080334172 0.017349506
-0.15376005 -0.074417658 0.013795186
-0.1440848 -0.078459524 0.01278721
-0.13785301 -0.073477946 0.017812137
0.037262052 -0.078147002 0.012495926
0.046197325 -0.078351155 0.017420661
0.052230407 -0.078009516 0.01864877
0.095751777 -0.074931473 0.018949803
0.12541744 -0.075682819 0.017696954
0.15367657 -0.07765273 0.015964402
0.16457348 -0.076196052 0.014464051
0.18648887 -0.077289671 0.012960816
0.20794459 -0.073470563 0.019750493
0.21393001 -0.075481713 0.016029747
0.23579316 -0.076232292 0.013485576
0.27576941 -0.074380428 0.012687871
-0.15411302 -0.069908053 0.010175457
0.32686687 -0.064180747 0.012042698
-0.2570169 -0.051266417 0.01650214
0.32967612 -0.053108383 0.015352208
-0.26597998 -0.044178657 0.016960001
-0.27343762 -0.038097881 0.01626958
-0.24639602 -0.030371718 0.019911166
0.3358407 -0.037847608 0.013966229
-0.26451802 -0.026094586 0.015606907
-0.22195762 -0.020974668 0.017954182
0.31473321 -0.025049966 0.013274724
-0.20622736 -0.014839873 0.011561703
-0.16895244 -0.014008572 0.015441467
-0.12378518 -0.012264122 0.018151356
-0.045553636 -0.010201234 0.01472535
0.0062206127 -0.013079334 0.019958396
0.012734577 -0.012282981 0.018940927
0.14203726 -0.011555774 0.017931491
0.19150898 -0.012213707 0.01885242
0.24277483 -0.01312658 0.018153841
0.25467229 -0.012825242 0.015667086
0.29717568 -0.018430321 0.016099092
-0.30119011 -0.00534567 0.010360952
-0.28176248 -4.4468616e-05 0.0155201
-0.27636081 -0.0015382969 0.014808577
-0.055171918 -0.0094393911 0.012922094
-0.31656405 0.0073104687 0.013517589
-0.29638121 0.0056199445 0.016532475
-0.23486426 0.0038137906 0.012186579
-0.30486482 0.0129187 0.015133914
-0.27277309 0.011866344 0.013452371
-0.24752799 0.015645547 0.012917165
-0.26503032 0.021307543 0.014387231
-0.23429653 0.023940936 0.012499614
-0.22321618 0.020655699 0.015141761
-0.21663752 0.024712674 0.0110841
-0.041396923 0.039577302 0.012789616
-0.039469842 0.039577302 0.010651588
-0.0048242472 0.031071503 0.017450981
0.0032798226 0.039577302 0.014137832
0.069741912 0.031071501 0.018987829
0.091182671 0.032879248 0.01891611
-0.033432644 0.047943 0.019199533
0.0051930947 0.047943 0.015658123
0.051195569 0.047943 0.011672974
0.075488403 0.047942996 0.010209089
-0.10069278 -0.081082948 0.022456659
-0.077541843 -0.074307345 0.023139706
-0.066740923 -0.076231264 0.021956451
-0.023834392 -0.077054493 0.025012776
-0.0010792591 -0.075040996 0.025555929
0.0014298984 -0.07627064 0.02639701
0.025547057 -0.075769454 0.025660332
0.047141813 -0.07228978 0.025261093
0.063917935 -0.070808701 0.02545616
0.07973446 -0.075625777 0.02220016
0.094050102 -0.071045093 0.025425024
0.21768779 -0.070533827 0.023246424
0.25980553 -0.070475265 0.020819295
-0.19173798 -0.066769131 0.020413464
-0.18045847 -0.067366071 0.020902339
-0.17291026 -0.06007874 0.027205652
0.036419671 -0.067133561 0.026271123
0.055691503 -0.063215651 0.029046811
0.14396077 -0.065747641 0.028314542
0.17942563 -0.063444041 0.029948873
0.21926849 -0.067622833 0.026230007
0.2359665 -0.067763843 0.025787104
0.2635875 -0.061484385 0.028626055
0.2839672 -0.06446965 0.024996933
0.32003385 -0.051464994 0.024061255
-0.23728079 -0.048608683 0.021855175
-0.21822515 -0.046605852 0.025941724
-0.22825482 -0.033949535 0.023872942
-0.19023857 -0.039031476 0.02953222
-0.19928122 -0.024835011 0.023500366
-0.17733145 -0.024847724 0.025534287
-0.1625915 -0.026115527 0.027809557
0.0046168864 -0.020935791 0.028165381
0.12323432 -0.022168225 0.029092496
0.29732594 -0.02190049 0.02058449
-0.13708583 -0.015409339 0.020689344
-0.12936786 -0.015041284 0.021075472
-0.11051951 -0.014571145 0.021864422
-0.10578321 -0.016206712 0.023954123
-0.081045747 -0.013963653 0.021088256
-0.070987374 -0.014120973 0.021289255
0.0034634259 -0.01410993 0.020669766
0.023744747 -0.014517047 0.021795304
0.030912979 -0.019994605 0.027457364
0.04671767 -0.016162284 0.023897359
0.062226236 -0.014769793 0.022118229
0.12342864 -0.019994441 0.027457241
0.13011536 -0.014557608 0.021847129
0.16272345 -0.015848808 0.023496844
0.17316495 -0.015724093 0.023337498
0.21542965 -0.016414098 0.023611199
0.228597 -0.018657273 0.025719292
0.28883404 -0.01972755 0.0208214
-0.0034301006 0.0047994228 0.023461398
0.0055168197 0.021902556 0.024741855
-0.026741417 0.033906769 0.026467279
0.0036115376 0.031657714 0.027052615
0.047176644 0.035324402 0.024548708
0.07012029 0.039577302 0.021078978
0.087940067 0.039577302 0.023737391
-0.034766 0.047943 0.026121216
0.0041872067 0.047943 0.028280869
0.015010585 0.047943 0.023587458
0.080720142 0.047420584 0.027713776
0.096777484 0.041692514 0.028852612
-0.09126243 -0.064037964 0.031510495
-0.082216524 -0.063044816 0.032541275
-0.051285703 -0.063333251 0.031888999
-0.032164749 -0.064354271 0.033339009
-0.026086746 -0.064590774 0.035512764
-0.018474182 -0.064890631 0.033104915
-0.0039206911 -0.060231183 0.030795474
0.0042267884 -0.065713905 0.034462366
0.027040876 -0.065421551 0.033861566
0.046729729 -0.061249219 0.030517999
0.052425537 -0.064658999 0.039712213
0.18386123 -0.061856247 0.031132497
-0.047823373 -0.058278635 0.035707865
-0.015352246 -0.058833547 0.032787487
0.0044290964 -0.055098377 0.035627041
0.026561737 -0.056785587 0.035622288
0.035572797 -0.053469475 0.035838559
0.084483355 -0.056442566 0.034281585
0.11201511 -0.058819097 0.032892037
0.17046744 -0.055395737 0.033795662
0.26128384 -0.055100583 0.031605978
-0.18850122 -0.04221195 0.030068148
-0.16576666 -0.047303706 0.031556994
-0.13351564 -0.043884404 0.034632981
-0.12281876 -0.042075243 0.035413019
-0.010217555 -0.047970243 0.03545922
0.051782314 -0.048571743 0.036531229
0.090966746 -0.047899529 0.035403438
0.12034562 -0.046973459 0.035546564
0.18240678 -0.045723051 0.035750695
0.20318282 -0.047142528 0.035398804
0.27027673 -0.045837183 0.032931395
0.29608914 -0.046937078 0.030059353
-0.12582508 -0.035229899 0.034267925
-0.096579462 -0.034802351 0.034959286
-0.050235074 -0.031327818 0.033805717
0.0064753518 -0.038518757 0.035439048
0.10214444 -0.034845613 0.034964867
0.1435394 -0.035642207 0.035067704
0.19322982 -0.037090607 0.035239819
0.22748438 -0.034163147 0.033972003
0.24299274 -0.033596288 0.033502318
0.25785401 -0.034851827 0.032872122
-0.13984704 -0.029271606 0.031046022
-0.11155571 -0.028552109 0.032678477
-0.096776269 -0.027677417 0.032323252
-0.0026922151 -0.028967764 0.032847274
0.0054657459 -0.024507742 0.030852433
0.059314184 -0.028799519 0.032778949
0.078629896 -0.023699667 0.030244546
0.11856575 -0.029215867 0.032948032
0.17135343 -0.027746174 0.032351177
-0.060126029 0.039577302 0.036008306
-0.053405784 0.039577305 0.034801915
-0.0047954768 0.031071499 0.032239929
0.0020065289 0.039577302 0.037697878
0.038142063 0.039577302 0.034872014
0.057313211 0.031071499 0.03233178
0.076105185 0.031635776 0.038169056
0.086541384 0.039577302 0.031579416
-0.0021974449 0.047943003 0.033707242
-0.030862391 -0.064019725 0.041296706
0.019397959 -0.06589742 0.040519334
-0.032850929 -0.056476761 0.041369095
0.014461349 -0.053515252 0.049596123
0.06425336 -0.054662295 0.045751177
0.015993519 0.031071503 0.042184088
0.052634377 0.031071499 0.047928184
-0.01173418 0.047943 0.049318481
-0.0070341732 0.047943 0.041101217
0.0286454 0.047943003 0.042269263
0.033716597 0.047943 0.040194221
-0.048637003 -0.062338427 0.054186843
-0.029501567 -0.063571967 0.05152142
0.024845256 -0.064352214 0.053043973
0.044059798 -0.061890867 0.059045907
0.050204515 -0.061647605 0.05579615
-0.054857709 -0.058552876 0.053572252
0.0026262794 -0.053755198 0.054357655
0.023147389 -0.052809689 0.053392991
-0.044689722 0.039577302 0.056848183
-0.038729839 0.039577302 0.057166178
0.019160461 0.035324402 0.055214457
0.021184469 0.039577302 0.052037802
0.07409887 0.039577302 0.053062476
0.05999497 0.047943 0.050893694
-0.028779663 -0.06303402 0.062787995
-0.011354902 -0.063308962 0.067693263
0.0047634565 -0.063904062 0.060767755
0.027722966 -0.062480044 0.066237368
-0.041662015 -0.055106025 0.068580903
-0.026942987 -0.054761238 0.060655262
-0.002431659 -0.053037573 0.067687519
-0.040312603 0.038066491 0.065076292
0.0019268236 0.039577302 0.062081631
0.014886316 0.031071503 0.06393642
0.026472639 0.035324402 0.060855769
-0.011849863 0.047021218 0.066817328
0.0088313967 0.047943 0.062252082
0.076012038 0.040195461 0.064075291
0.026208792 -0.060501561 0.078569561
0.0051837931 -0.052127749 0.075026989
0.011470084 -0.051747553 0.075978562
0.037724733 -0.056101732 0.073488146
-0.023473583 0.039577302 0.075760007
0.02201082 0.039577302 0.072904631
0.041762609 0.044588923 0.079255342
0.053048816 -0.077942841 0.086174116
-0.055469252 -0.060455158 0.083199136
-0.043025583 -0.06129428 0.080747195
-0.0055602826 -0.061495751 0.084086634
0.011030167 -0.060791872 0.084429964
-0.061728604 -0.056043893 0.082647875
0.024452526 -0.050679371 0.081841901
0.019733405 0.034829561 0.083676457
0.033015713 0.039577302 0.085996419
0.023740601 -0.080776334 0.09918277
0.065337367 -0.087195143 0.091972053
0.0758202 -0.083897278 0.093344331
0.081175476 -0.08626882 0.095549807
0.045347128 -0.076093152 0.091731854
0.06018297 -0.078193754 0.091718927
-0.031760626 -0.060109247 0.099201739
-0.016114891 -0.060496092 0.097598113
-0.04515028 -0.05325599 0.097359054
-0.034141712 -0.052714515 0.094401829
-0.020307405 -0.052130193 0.092366293
-0.016070217 -0.051772401 0.094405852
0.0098709017 -0.050142869 0.099167779
0.012485992 -0.059216201 0.094623916
0.035632771 -0.084217183 0.10386696
0.066524446 -0.085125506 0.10617948
0.023846522 -0.073171832 0.10929176
0.0073741833 -0.065591022 0.10272586
0.016340161 -0.065837696 0.10201474
0.065716803 -0.061877958 0.10167162
0.080543958 -0.063088246 0.10904627
-0.072359391 -0.054935697 0.10668734
-0.014324051 -0.056725938 0.10228769
0.015994865 -0.057232108 0.10481187
0.046335768 -0.057827432 0.10026815
0.063934892 -0.057253052 0.101074
0.0096179573 -0.049934134 0.10311042
0.07644397 -0.086454555 0.11133825
0.034993105 -0.072565436 0.11355215
0.053930115 -0.076871857 0.11287779
0.036840469 -0.067670673 0.11060349
0.046027906 -0.062301502 0.11263554
0.081418827 -0.068980351 0.11390611
-0.060692027 -0.053249121 0.11215641
-0.04741624 -0.058244113 0.11322736
-0.026965164 -0.050669193 0.11702386
0.0069653206 -0.05595322 0.11777191
-0.065175608 -0.057343483 0.12304537
0.0059909434 -0.053538408 0.12913942
-0.35098749 -0.021057781 0.12991458
-0.32448956 -0.028307989 0.12839511
-0.33335698 -0.012429193 0.12891449
-0.34908432 -5.1730312e-05 0.12921546
-0.3275739 0.0072086141 0.12965707
-0.34718928 0.013633342 0.1287314
-0.34514093 0.025675301 0.12936862
-0.055017337 -0.053882703 0.1345734
-0.034008112 -0.055592515 0.13934885
-0.33351368 -0.041228142 0.13136487
-0.34121874 -0.031560071 0.13072205
-0.35095251 -0.0083660064 0.13003534
-0.35451102 0.0036051171 0.13007215
-0.059198983 -0.050869409 0.14351673
-0.040042825 -0.055667996 0.14038309
-0.019575667 -0.054239489 0.14792879
-0.089703374 -0.054127023 0.15161687
-0.068365492 -0.055638842 0.15133402
-0.057975393 -0.050103515 0.15290689
-0.032307308 -0.048370712 0.15248819
-0.093980655 -0.051855028 0.16745767
-0.081576474 -0.050789945 0.16578063
-0.055181779 -0.054500967 0.16454706
-0.023429506 -0.05064648 0.16314438
-0.032837249 -0.048909668 0.16784284
-0.085150421 -0.050080221 0.1794371
-0.074478254 -0.053997293 0.17970166
-0.07810571 -0.053927608 0.18182302
-0.065274708 -0.053236485 0.18839227
-0.071645021 -0.049093571 0.1804706
-0.10752389 -0.05283574 0.19236867
-0.096274637 -0.050042052 0.19295026
-0.072150856 -0.05320888 0.19137734
-0.061867099 -0.052826453 0.19365086
-0.040436596 -0.051522769 0.19146153
-0.073970094 -0.048536044 0.19092509
-0.06335073 -0.047338307 0.19790506
-0.090679526 -0.048828728 0.2042055
-0.068003044 -0.047451265 0.20086612
-0.11893304 -0.051151596 0.21770869
-0.097860686 -0.051658928 0.21354152
-0.093807146 -0.051065952 0.22807157
-0.086997613 -0.051335249 0.22373202
-0.088246971 -0.047008712 0.22863863
-0.11355796 -0.048939198 0.23009965
-0.084596097 -0.050122418 0.24138245
-0.10354593 -0.047039997 0.24482857
-0.080026716 -0.049664848 0.24358486
-0.122147 -0.048573375 0.25606081
-0.11989686 -0.047506593 0.25628728
-0.10087721 -0.049855042 0.25707734
-0.092582971 -0.047080524 0.2504825
-0.13042936 -0.047994576 0.26121199
-0.12570636 -0.048032284 0.2689423
-0.1334897 -0.048745532 0.27869949
-0.12177935 -0.046426564 0.27195096
-0.11690453 -0.047665954 0.27288994
-0.12970974 -0.048688997 0.28191674
-0.13044865 -0.048083179 0.29601428
-0.12837501 -0.045228865 0.29350069
-0.16496669 -0.034739576 0.30793005
