# .PCD v0.7 - Point Cloud Data file format
VERSION 0.7
FIELDS x y z
SIZE 4 4 4
TYPE F F F
COUNT 1 1 1
WIDTH 877
HEIGHT 1
VIEWPOINT 0 0 0 1 0 0 0
POINTS 877
DATA ascii
-0.26262644 -0.0023013798 -0.34993652
-0.24320091 -0.00230138 -0.34498984
-0.23770592 -0.00230138 -0.34586126
-0.25192085 -0.00230138 -0.33688366
-0.24714571 -0.00230138 -0.3302269
-0.1807909 -0.00230138 -0.33521688
-0.17473894 -0.00230138 -0.33394173
-0.20380831 -0.00230138 -0.32102218
-0.17132179 -0.00230138 -0.32467633
-0.15573044 -0.0023013798 -0.32751107
-0.2471841 -0.00230138 -0.31273383
-0.21843627 -0.00230138 -0.31220227
-0.17044267 -0.00230138 -0.31508082
-0.2597326 -0.00230138 -0.30558601
-0.24566282 -0.00230138 -0.30068174
-0.1692438 -0.00230138 -0.30932933
-0.26153538 -0.00230138 -0.29052582
-0.18674538 -0.00230138 -0.2994197
-0.17586723 -0.00230138 -0.29204261
-0.21550062 -0.00230138 -0.28338474
-0.23231243 -0.00230138 -0.27183914
-0.22478902 -0.00230138 -0.27985108
-0.21736604 -0.00230138 -0.27760905
-0.20690405 -0.00230138 -0.27472454
-0.15771344 -0.00230138 -0.27330539
-0.1298124 -0.00230138 -0.27620929
-0.11930226 -0.00230138 -0.27525356
-0.17900991 -0.00230138 -0.26252067
-0.10919814 -0.00230138 -0.26454809
-0.23219454 -0.00230138 -0.25064087
-0.21536852 -0.00230138 -0.25006828
-0.17086661 -0.00230138 -0.25322604
-0.14604226 -0.00230138 -0.25505114
-0.1225957 -0.00230138 -0.25269169
-0.10413559 -0.00230138 -0.25995314
-0.24361667 -0.00230138 -0.24478078
-0.2126414 -0.00230138 -0.24706168
-0.19226453 -0.00230138 -0.24723166
-0.1733658 -0.00230138 -0.24838409
-0.1205548 -0.00230138 -0.24837016
-0.11223949 -0.00230138 -0.24318492
-0.25225765 -0.00230138 -0.234531
-0.23836356 -0.00230138 -0.23511705
-0.2108168 -0.00230138 -0.23836242
-0.19025351 -0.00230138 -0.23735432
-0.10225397 -0.00230138 -0.23521031
-0.20118298 -0.00230138 -0.22801471
-0.19202714 -0.00230138 -0.22962347
-0.13120541 -0.00230138 -0.22531292
-0.21657272 -0.00230138 -0.21745393
-0.20376208 -0.00230138 -0.21474339
-0.16186279 -0.00230138 -0.21107194
-0.13266125 -0.00230138 -0.21591061
-0.081459582 -0.00230138 -0.21570918
-0.23675507 -0.00230138 -0.2029351
-0.22211203 -0.00230138 -0.20445877
-0.15300363 -0.00230138 -0.20630392
-0.23567784 -0.00230138 -0.19363058
-0.21518579 -0.00230138 -0.19888131
-0.20937663 -0.00230138 -0.19075096
-0.18847847 -0.00230138 -0.19212002
-0.17891699 -0.00230138 -0.19624484
-0.11436184 -0.00230138 -0.19319001
-0.23845717 -0.00230138 -0.18469438
-0.22190343 -0.00230138 -0.18724154
-0.095575616 -0.00230138 -0.18687543
-0.15447615 -0.00230138 -0.17765331
-0.096545272 -0.00230138 -0.17695765
-0.22420987 -0.00230138 -0.16963094
-0.14194921 -0.00230138 -0.16702381
-0.17106068 -0.00230138 -0.15179299
-0.16960971 -0.00230138 -0.15105075
-0.098837242 -0.00230138 -0.15850335
-0.049877927 -0.00230138 -0.15663436
-0.037105095 -0.00230138 -0.15499151
-0.33464313 -0.00411392 -0.14903867
-0.24034971 -0.00230138 -0.1479602
-0.22086462 -0.00230138 -0.14438134
-0.1835383 -0.00230138 -0.14180477
-0.056767952 -0.00230138 -0.14883736
-0.33993232 -0.0036486858 -0.13216162
-0.3116447 -0.0031519891 -0.13307013
-0.19189098 -0.00230138 -0.13704675
-0.15775438 -0.00230138 -0.1387333
-0.11219978 -0.00230138 -0.13100171
-0.082803071 -0.00230138 -0.13512306
-0.010314481 -0.00230138 -0.13255452
-0.0092609841 -0.00230138 -0.13790968
-0.33385578 -0.00411392 -0.12877415
-0.32894576 -0.00411392 -0.12231364
-0.30549729 -0.0009073292 -0.12286143
-0.15759107 -0.00230138 -0.12473409
-0.13660628 -0.00230138 -0.12289818
-0.1232927 -0.00230138 -0.12439422
-0.063753545 -0.00230138 -0.12219489
-0.053424254 -0.00230138 -0.12639378
-0.023119695 -0.00230138 -0.12747625
-0.3269347 0.000211643 -0.12608671
-0.31193295 -0.00411392 -0.1173521
-0.22527264 -0.00230138 -0.11418849
-0.17480451 -0.00230138 -0.11359772
-0.14074786 -0.00230138 -0.11685326
-0.13964923 -0.00230138 -0.11702525
-0.062321223 -0.00230138 -0.11956587
-0.056845449 -0.00230138 -0.11082882
-0.021174071 -0.00230138 -0.11086685
-0.33276019 0.0017369032 -0.11803633
-0.32546911 -0.00411392 -0.10674585
-0.14403218 -0.00230138 -0.10561869
-0.094679184 -0.00230138 -0.10778377
-0.046517842 -0.00230138 -0.1007358
-0.11215734 -0.010741769 -0.090396993
-0.32182407 -0.00411392 -0.095840849
-0.30739713 -0.00411392 -0.099192306
-0.21421388 -0.00230138 -0.090610377
-0.18534566 -0.00230138 -0.094753459
-0.17348626 -0.00230138 -0.090668231
-0.14232284 -0.00230138 -0.092553958
-0.10953339 -0.0099226711 -0.090298206
-0.063294843 -0.00230138 -0.090010971
-0.32140324 0.0024235025 -0.092466101
-0.12265271 -0.024451382 -0.083963059
-0.13194907 -0.019879036 -0.08734452
-0.094407745 -0.018705428 -0.086709306
-0.038287167 -0.016482465 -0.086070374
-0.021969844 -0.012290858 -0.087001711
-0.019342501 -0.011056755 -0.086902797
0.004306443 -0.018286433 -0.083270818
0.018998478 -0.015425785 -0.084614322
-0.33774883 -0.00411392 -0.083220586
-0.20986837 -0.00230138 -0.08640033
-0.14605221 -0.00230138 -0.088162608
-0.11629936 -0.00230138 -0.083312184
-0.083570719 -0.0059216195 -0.085881591
-0.063797824 -0.0040346906 -0.08642298
-0.025680784 -0.0043699634 -0.08714141
-0.019127686 -0.004608938 -0.086894713
-0.0066885427 -0.00230138 -0.080363274
0.019388709 -0.00230138 -0.080549203
0.025065418 -0.0099076014 -0.085230976
0.036868636 -0.0060399612 -0.084786624
-0.32570392 0.003083121 -0.086446792
-0.13508776 -0.031621858 -0.07967715
-0.081799269 -0.034634352 -0.075673714
-0.019143783 -0.033914547 -0.07379216
0.0012983019 -0.034307588 -0.07276199
0.031424165 -0.033864133 -0.071921855
0.045328256 -0.035651438 -0.070213422
0.00066401996 -0.0236171 -0.079873696
0.045625411 -0.022641316 -0.078827985
0.085395001 -0.024840795 -0.070556968
-0.28794789 -0.0021637008 -0.073452443
-0.090339392 -0.00230138 -0.07608936
-0.059148774 -0.00230138 -0.070666716
-0.00076190475 -0.00230138 -0.071172334
-0.34599599 0.0035311463 -0.078567266
-0.29453105 0.0047859778 -0.070907459
0.03669579 -0.036962863 -0.069668934
-0.3071 -0.023656769 -0.06229433
-0.26251894 -0.02071612 -0.065234989
-0.24971949 -0.023962799 -0.061088607
-0.20844012 -0.023962799 -0.061549772
-0.14374363 -0.021894945 -0.064056158
-0.33274201 -0.012056379 -0.062755376
-0.31474799 -0.012197105 -0.067107603
-0.26733017 -0.016465345 -0.067107603
-0.16854045 -0.017607532 -0.067107603
-0.15125449 -0.011216572 -0.067107603
-0.33057594 -0.0091624316 -0.067107603
-0.24404839 -0.0093226433 -0.067107603
-0.21429279 -0.007790939 -0.067107603
-0.19033727 -0.00230138 -0.069363989
-0.18547034 -0.00230138 -0.068194173
-0.1744827 -0.00230138 -0.060232386
-0.15464908 -0.00230138 -0.06619259
-0.13369367 -0.0001862864 -0.067107603
-0.053716622 -0.00230138 -0.069098748
-0.03941327 -0.00230138 -0.067521818
-0.021286171 -0.00230138 -0.063996695
0.016191136 -0.00230138 -0.065867297
-0.2451911 0.0072016977 -0.064004913
-0.23681687 0.009515129 -0.060414754
-0.21383336 0.0064443718 -0.065180182
-0.31361404 0.053892467 -0.060936902
-0.25893098 0.067717195 -0.060873508
-0.313449 0.075877219 -0.065345339
-0.30396762 0.075807095 -0.065295279
-0.29348719 0.074121438 -0.065031804
-0.25547406 0.074511483 -0.064370349
-0.30404288 -0.023962798 -0.051456947
-0.2279461 -0.023962799 -0.052125037
-0.18563095 -0.023962799 -0.054800499
-0.17270295 -0.023962799 -0.058927894
-0.13336401 -0.022100292 -0.052117512
0.084739171 -0.020664481 -0.053136013
-0.33274201 -0.019037109 -0.054956764
-0.13756755 -0.00230138 -0.058921859
-0.12729031 -0.00230138 -0.05515366
-0.08341819 -0.00230138 -0.058229022
-0.035673954 -0.00230138 -0.056980416
-0.0014021993 -0.00230138 -0.056796327
-0.30321079 0.0095774103 -0.059111148
-0.20320314 0.0095774103 -0.057388037
-0.17025937 0.0095774103 -0.055894397
-0.1562614 0.0095774103 -0.058198083
-0.2826845 0.012287109 -0.053757899
-0.2586444 0.017822981 -0.053757899
-0.30378497 0.02477606 -0.055042941
-0.27632028 0.028964721 -0.055890843
-0.26470834 0.025823137 -0.055254899
-0.23635267 0.020203752 -0.054117378
-0.31551912 0.035786882 -0.056618765
-0.29623926 0.033739723 -0.056857433
-0.31322408 0.054562055 -0.056239091
-0.31056067 -0.023962799 -0.045767989
-0.2782799 -0.023962799 -0.047544472
-0.26884833 -0.023962799 -0.042199954
-0.15000236 -0.023962799 -0.042342611
-0.28771958 -0.016393196 -0.044728614
-0.27591002 -0.014332298 -0.046725225
-0.063129395 -0.011330045 -0.04050222
-0.32143292 -0.0012740212 -0.04868909
-0.14815342 -0.00230138 -0.040835574
-0.13580179 -0.0063341977 -0.045445122
-0.10598461 -0.00230138 -0.048423439
-0.054798614 -0.0069346079 -0.040188596
-0.029041322 -0.00230138 -0.049651824
0.017166883 -0.00230138 -0.043102592
0.084545389 -0.0082589192 -0.047987781
-0.32656807 0.0043545645 -0.041899946
-0.29683289 0.0095774103 -0.040555589
-0.18225068 0.0095774103 -0.048226435
-0.28656799 0.013021888 -0.043509401
-0.2566269 0.012972957 -0.043509401
-0.30650395 0.023396999 -0.045259964
-0.27186227 0.021605298 -0.044628765
-0.26583108 0.029996207 -0.047584794
-0.28290775 0.030860545 -0.047889292
0.0388395 -0.072314017 -0.034326084
0.052954167 -0.074881822 -0.031701345
0.068117604 -0.071633622 -0.033772435
-0.023421532 -0.062656514 -0.034961201
0.01140238 -0.069634855 -0.034961201
0.049093459 -0.063513629 -0.034961201
0.056001026 -0.061008088 -0.034961201
0.20732613 -0.060907148 -0.034263153
-0.082591057 -0.051532466 -0.034961201
-0.016051536 -0.056709509 -0.034961201
0.0029630328 -0.056658283 -0.034961201
0.071389601 -0.055601634 -0.03449519
0.13708125 -0.055549465 -0.030934032
0.14609717 -0.052335553 -0.030254813
0.1868694 -0.059620101 -0.033371128
0.24654782 -0.058435045 -0.032332484
0.25649914 -0.05395529 -0.034318149
-0.10843134 -0.043177623 -0.034961201
-0.021021886 -0.042247102 -0.030416047
-0.012992 -0.042247102 -0.033419885
0.056311309 -0.040173978 -0.034961201
0.066266268 -0.043125603 -0.034961201
0.24181429 -0.043928076 -0.031634353
0.048258401 -0.031592496 -0.036308829
0.061579406 -0.038792629 -0.034961201
-0.30600888 -0.023962799 -0.031684935
-0.25974405 -0.023962799 -0.037250526
-0.22381425 -0.023962799 -0.034878042
-0.13429829 -0.023962799 -0.033634022
0.013515845 -0.026481533 -0.032431163
0.032432809 -0.026395239 -0.036904611
0.05421789 -0.029564764 -0.034961201
-0.034052476 -0.015340248 -0.03940757
-0.0052885916 -0.01225614 -0.038324699
0.051083967 -0.017467972 -0.034961201
0.077122599 -0.017042004 -0.035222184
-0.18566695 -0.00230138 -0.031207362
-0.17216201 -0.00230138 -0.034863465
-0.16943052 -0.00230138 -0.033336177
-0.14635424 -0.00230138 -0.03737437
-0.13663232 -0.00230138 -0.037098482
-0.10694887 -0.00230138 -0.036461823
-0.084666848 -0.00230138 -0.039612111
-0.046463206 -0.0065325052 -0.039874792
-0.031957224 -0.0053852582 -0.039328687
-0.013032222 -0.00230138 -0.030699559
0.0028483421 -0.00230138 -0.038027167
0.034655903 -0.00230138 -0.035553779
0.044677723 -0.00230138 -0.034253117
0.05087927 -0.00230138 -0.035396211
0.075119145 -0.0047592437 -0.03529761
0.083358258 -0.0023049316 -0.032270819
-0.31637949 0.0095774103 -0.037110891
-0.28714302 0.004948095 -0.038137235
-0.2450127 0.0095774103 -0.035892613
-0.19154501 0.0095774103 -0.030043028
-0.0070537422 -0.070107795 -0.024376255
0.027054407 -0.072821319 -0.025977317
-0.050553899 -0.06281805 -0.025976725
-0.041012455 -0.064492077 -0.025170835
0.14800115 -0.068757378 -0.021184321
0.16440931 -0.067266911 -0.021990612
0.23010084 -0.060971312 -0.023046052
-0.10173936 -0.054243814 -0.021657966
0.10324837 -0.0524823 -0.029202607
0.11074859 -0.051161814 -0.02901352
0.2383596 -0.05969774 -0.020679908
-0.13235781 -0.042276703 -0.026450409
-0.094162099 -0.042247102 -0.025859207
-0.033534728 -0.042075567 -0.022057636
-0.010072894 -0.042247102 -0.029437959
0.10198704 -0.042251937 -0.026264502
0.13119148 -0.045868792 -0.028036799
0.14408508 -0.041413631 -0.027105449
0.16016312 -0.042965282 -0.027959708
0.17671329 -0.044342242 -0.028776586
0.28057462 -0.041134462 -0.024806634
-0.012046439 -0.030122008 -0.026795289
0.0018767174 -0.034671474 -0.02986501
0.082878701 -0.030128501 -0.022345655
0.1135475 -0.032795195 -0.023874495
0.12466573 -0.030142225 -0.023408525
0.28299654 -0.032805212 -0.020952959
-0.30450639 -0.023962799 -0.021028815
-0.24287412 -0.023962799 -0.023775479
-0.22586592 -0.023962799 -0.029612828
0.1385192 -0.023100883 -0.021664832
0.14862084 -0.028895652 -0.023657342
0.15837653 -0.029069304 -0.023717051
0.161055 -0.026071085 -0.022686124
0.23780489 -0.027549105 -0.029048245
0.25750655 -0.025479365 -0.026743669
-0.33274201 -0.014278316 -0.023181267
-0.13336401 -0.012034248 -0.020816425
-0.3181242 -0.0098044723 -0.026094748
-0.18183003 -0.00230138 -0.024415579
-0.13336401 -0.0078383004 -0.025717888
-0.12174466 -0.00230138 -0.020782623
-0.11709314 -0.00230138 -0.026190676
-0.075144425 -0.00230138 -0.022998765
-0.028525107 -0.00230138 -0.02757749
0.021321099 -0.00230138 -0.029749788
0.087916784 -0.00230138 -0.022869855
0.12191284 -0.00230138 -0.026528686
0.13239154 -0.00230138 -0.024287401
-0.33274201 0.0090562012 -0.028074952
-0.29440552 0.0095774103 -0.025685836
-0.26397648 0.0095774103 -0.023018863
-0.24497741 0.0095774103 -0.023400869
-0.18104915 0.0095774103 -0.0206932
-0.1613377 0.0095774103 -0.029762041
0.0519922 -0.07480529 -0.016026298
0.065715894 -0.07589709 -0.012903684
-0.05703178 -0.061681509 -0.011651911
0.1883252 -0.065094471 -0.014901842
0.21316434 -0.062838152 -0.018914279
-0.11501203 -0.05095112 -0.013649642
-0.095958009 -0.055022903 -0.015568804
-0.1246013 -0.046155643 -0.019038484
-0.085083537 -0.031190876 -0.010692352
-0.05061309 -0.037406936 -0.018292263
-0.04817082 -0.0329559 -0.018830724
0.28916401 -0.038283069 -0.013617338
-0.33212543 -0.023962799 -0.01831382
-0.32549617 -0.023962799 -0.016513199
-0.27345449 -0.023962799 -0.015817102
-0.20125917 -0.023055838 -0.014072593
-0.17628622 -0.021209162 -0.010874427
-0.052327216 -0.025357565 -0.01791434
-0.13336401 -0.010078779 -0.012858444
-0.071027905 -0.017199049 -0.013791285
-0.049516141 -0.013966026 -0.018534115
0.15394364 -0.014041188 -0.01854969
-0.13336401 -0.0075156973 -0.01498308
-0.024375439 -0.00230138 -0.010374906
0.027362222 -0.00230138 -0.015558542
0.071822636 -0.00230138 -0.019655015
0.090189047 -0.00230138 -0.016314736
0.13969094 -0.00230138 -0.018117867
0.15229964 -0.0096547967 -0.017041445
0.18013389 -0.00230138 -0.018136784
0.20607987 -0.0016040249 -0.014229313
-0.20432582 0.0068883365 -0.010523674
-0.17709932 0.0095774103 -0.016529478
-0.15542077 0.0072013428 -0.013969051
0.1720469 0.00095653255 -0.013187671
0.069378942 -0.075707272 -0.00095807761
0.12214628 -0.071099013 -0.0046958681
-0.03343568 -0.065821417 -0.0088017704
0.22773378 -0.061336331 -0.0063263476
-0.10766584 -0.05344516 -0.0079660947
-0.1244089 -0.046251856 -0.00136225
-0.11845677 -0.049228448 -0.00062766857
0.28885543 -0.047537666 -0.0015501026
-0.11619476 -0.032787945 -0.0038330711
0.26874536 -0.020487051 -0.0032236776
-0.31473801 -0.01690094 -0.0057510203
-0.30299097 -0.017265236 -0.0061842469
-0.29926997 -0.015936838 -0.0046044951
-0.13348117 -0.01732716 -0.0013377819
-0.12827946 -0.015093718 -0.0011686864
-0.11906829 -0.012301111 -0.0031995259
-0.10214394 -0.010684242 -0.006930944
-0.33274201 -0.0097456463 -0.0010826075
-0.15169188 -0.00230138 -0.0013586384
-0.1461945 -0.00230138 -0.0059633125
-0.12992691 -0.00230138 -0.0098961024
0.0061283931 -0.00230138 -0.0023693906
-0.32379091 0.00400618 -0.0066379337
-0.2832565 0.0042330893 -0.0069438531
-0.27585578 0.0037893408 -0.0012698062
-0.26186565 0.0054459986 -0.0085791051
-0.22121456 0.0034016557 -0.0016749211
0.16980106 0.0091343792 -0.0098608984
0.13477556 0.011436094 -0.0088894898
0.014562527 -0.071827509 0.0081748776
0.060375385 -0.075472221 0.0018499317
0.11789694 -0.071470119 0.0052411351
0.12347367 -0.070983097 0.0076573631
-0.060798682 -0.061020605 0.0094119031
-0.010503275 -0.069833361 0.0077230623
0.17246625 -0.066535041 0.0038931826
-0.066979237 -0.059936237 0.0071411966
0.24147442 -0.059217401 0.00052238116
-0.13227721 -0.042247102 0.0067564533
-0.17118016 -0.023962799 0.0048125046
-0.12282214 -0.026927926 0.0018590086
-0.10625852 -0.025665585 0.0055109444
-0.18964681 -0.018825628 4.339969e-05
-0.11844875 -0.011699063 0.0028232506
-0.097098701 -0.011289765 0.0075304955
-0.14040995 -0.0022506625 0.0056134653
-0.13336401 -0.0030548554 0.0035506955
-0.11854567 -0.0016733727 0.0072960048
-0.080621243 -0.0075718518 0.008445112
-0.066737443 -0.0046528913 0.0092820982
-0.032413937 -0.00230138 0.0016324082
-0.011603825 -0.00230138 0.0069958866
0.028407015 -0.00230138 0.0045739845
0.033299621 -0.00230138 0.0068754591
0.063130572 -0.00230138 0.0084643895
0.080771789 -0.00230138 0.0012358982
0.11651585 -0.00230138 0.0051136562
0.23445147 -0.00230138 0.0044474173
-0.27181154 0.009568016 0.0047686636
-0.24919477 0.0095774103 0.0070058266
-0.19772275 0.0095774103 0.0075554461
0.12940034 0.0040987581 0.0018414026
0.22107285 0.0055251732 0.0025869566
0.1411536 0.0114407 0.009280649
0.020056648 -0.072264604 0.018126853
0.10094642 -0.07295043 0.010203375
-0.010925274 -0.069770843 0.010772533
0.19334128 -0.064638816 0.016125176
0.22810167 -0.061279599 0.010071338
-0.1004044 -0.054423716 0.016370159
-0.0990282 -0.054609165 0.015524369
0.27233806 -0.052963708 0.014963275
-0.1315732 -0.042669069 0.01217696
-0.12116036 -0.04787641 0.019365935
-0.080499262 -0.042247102 0.018647296
-0.074358836 -0.042247102 0.018573266
-0.06635651 -0.041310873 0.014308515
-0.059516322 -0.042247102 0.019186951
0.28916401 -0.042361204 0.010336129
-0.053907178 -0.033545449 0.017053336
-0.31448081 -0.023962799 0.016351741
-0.30083069 -0.023962799 0.015665667
-0.29292405 -0.023962799 0.018542998
-0.24496187 -0.023962799 0.018376403
-0.23716517 -0.023962799 0.015665289
-0.21564938 -0.023962799 0.019139461
0.27257603 -0.023169607 0.015372006
-0.072554141 -0.014496455 0.011907595
-0.049563337 -0.017259412 0.015916215
0.26166204 -0.016255638 0.012004809
-0.26076099 -0.0044416985 0.019509237
-0.17854708 -0.0016081049 0.019774966
-0.13438967 -0.0016206371 0.017376039
-0.12345679 -0.0016155888 0.018339915
-0.060095165 -0.0016168896 0.018085856
-0.05705633 -0.0045610154 0.010536691
-0.022607002 -0.0071011656 0.015990868
-0.015109888 -0.0071288715 0.016996561
0.0054002516 -0.00230138 0.014300294
0.087440655 -0.00230138 0.015175879
0.10202921 -0.00230138 0.017531579
0.12483506 -0.00230138 0.015523571
-0.2903941 0.0095774103 0.013446797
-0.25034901 0.0095774103 0.012578519
-0.24695553 0.0095774103 0.017846109
-0.22539623 0.0095774103 0.01461218
-0.17065844 0.0095774103 0.010832191
-0.16489355 0.0095774103 0.011609813
0.14523986 0.0037453989 0.017173411
0.15452579 0.0074781082 0.015022296
0.17274193 0.0030710562 0.017562028
0.21488291 0.0094131399 0.01390716
0.1726674 0.010952189 0.013020223
0.063519388 -0.075722352 0.02442055
0.11630366 -0.071609266 0.029127164
-0.061017714 -0.060982179 0.027955633
0.21129164 -0.063008264 0.021275528
-0.11540402 -0.050755091 0.029882599
-0.12481897 -0.046046786 0.027559994
-0.067826226 -0.042247102 0.02477878
-0.056023143 -0.042247102 0.026894279
0.076766402 -0.031757861 0.026726443
0.10106175 -0.036778767 0.028010443
0.14695019 -0.030784564 0.027263269
0.1563077 -0.033260696 0.027837478
0.18163997 -0.0361435 0.028505992
0.2020859 -0.036329478 0.02854912
0.26200503 -0.034167517 0.026284924
-0.28173515 -0.023962799 0.021362463
-0.27077127 -0.023962799 0.026747201
-0.25447801 -0.023962799 0.023077097
-0.22034395 -0.023962799 0.020209104
-0.1889509 -0.023962799 0.020758254
-0.13336401 -0.022297412 0.026426787
0.0044505335 -0.028151918 0.026853433
0.047768943 -0.023269705 0.024754774
0.14159811 -0.021995908 0.025225205
0.16787185 -0.026118459 0.026181214
0.20871907 -0.023892764 0.02566508
0.21135002 -0.025909845 0.026132837
0.2523483 -0.025738964 0.027189603
-0.32752156 -0.018501956 0.026376124
-0.25501093 -0.016693151 0.023528092
-0.023336433 -0.019739397 0.020257119
0.0034787301 -0.01033197 0.020572223
0.077728912 -0.010828091 0.022635421
0.098911978 -0.016910739 0.02404597
0.10337623 -0.017769158 0.024245035
0.1141819 -0.018158201 0.02433525
0.15926649 -0.0177618 0.024243329
0.18194711 -0.014830679 0.023563609
0.20581594 -0.017623458 0.024211247
-0.25098801 -0.00027004097 0.023871738
-0.1615407 -0.0015634329 0.028311068
-0.15819824 -0.0015598668 0.02899234
0.014724718 -0.0055798311 0.020425849
0.022941073 -0.0087936828 0.02262708
0.15913272 -0.0089261653 0.022194369
0.1817746 -0.0050549833 0.021296654
-0.32656407 0.0053330935 0.025745299
-0.31439954 0.004723087 0.029573694
-0.29486474 0.0095774103 0.022016739
-0.25821942 0.0036991874 0.023487518
0.022527643 -0.072461188 0.032629676
0.041104615 -0.073939107 0.031088237
0.052661832 -0.071056776 0.034448799
-0.062896252 -0.060192481 0.034448799
-0.025801154 -0.064602837 0.034448799
-0.017288508 -0.060486451 0.034448799
0.013370828 -0.066951111 0.034448799
0.076214358 -0.062678225 0.032230347
0.14637128 -0.067212403 0.034148037
0.16928175 -0.061335824 0.033473786
-0.051494565 -0.058644615 0.034448799
-0.026339846 -0.057617784 0.034448799
0.0779882 -0.056198124 0.031101642
0.19309001 -0.053892866 0.032535758
0.24554223 -0.058590114 0.034366526
-0.10825678 -0.042247102 0.033541482
-0.098718911 -0.0411245 0.039482098
-0.074447662 -0.0411245 0.039894477
-0.061041608 -0.04235135 0.036800783
-0.051130995 -0.04003828 0.0349648
-0.040445685 -0.042247102 0.030919919
0.0025322735 -0.042705785 0.034448799
0.036660865 -0.0411245 0.035969865
0.046309769 -0.0411245 0.039397154
0.058047146 -0.040822938 0.0349648
0.13629735 -0.049084648 0.030765137
0.14857881 -0.044402491 0.030131549
0.20154995 -0.045756795 0.030735288
0.26166737 -0.04319879 0.030407345
-0.15295839 -0.035394993 0.0349648
-0.14964263 -0.030893825 0.0349648
-0.13702881 -0.032533985 0.0349648
-0.094200276 -0.03216191 0.0349648
-0.080095984 -0.039073147 0.0349648
-0.018650096 -0.032798879 0.0349648
0.0075628981 -0.030150659 0.0349648
0.023059132 -0.032773197 0.033207081
-0.32857037 -0.023962799 0.034225076
-0.25856408 -0.023962799 0.031335808
-0.24934149 -0.023962799 0.030546574
-0.22485131 -0.023962799 0.034794688
-0.21306732 -0.023962799 0.038486969
-0.15305103 -0.023239238 0.035336792
-0.012885816 -0.029724795 0.0349648
-0.0013855919 -0.028200245 0.0349648
0.00424009 -0.023594068 0.0349648
0.071363017 -0.025819756 0.0349648
-0.33274201 -0.01964776 0.033036608
-0.31675979 -0.019675946 0.031512856
-0.30136666 -0.016665567 0.03946545
-0.28346658 -0.019626077 0.031055475
-0.27772313 -0.017207054 0.038791198
-0.26993111 -0.018565319 0.03643287
-0.25373971 -0.015628513 0.032653764
-0.13511181 -0.015258589 0.034634762
-0.11998563 -0.013768344 0.0349648
-0.10432151 -0.015236028 0.0349648
0.013756894 -0.011670929 0.0349648
0.040850788 -0.011162775 0.0349648
-0.15168922 -0.0099386768 0.0349648
-0.14376749 -0.0015184188 0.03692041
-0.12366599 -0.0015362035 0.033511855
-0.11393583 -0.0018711609 0.035149682
-0.074746653 -0.0015415752 0.03248097
-0.059781175 -0.0015292019 0.034858659
-0.035568982 -0.0037981006 0.036654372
-0.021296512 -0.0025966757 0.0349648
0.021093527 -0.0015024343 0.039975759
0.036815263 -0.0041444474 0.034957811
0.043462679 -0.0017979658 0.036628794
0.058712743 -0.0056035607 0.0349648
0.067591913 -0.0015286501 0.037084755
0.074894652 -0.0056317248 0.03731022
-0.26515648 0.0017708939 0.039743707
-0.25079358 0.0095774103 0.03002063
-0.22155549 0.0095774103 0.036879621
-0.17777562 0.0095774103 0.039691832
-0.14361352 0.0095774103 0.035684951
-0.31625021 0.015061321 0.0384776
-0.30154389 0.012430809 0.0384776
-0.29699349 0.013578475 0.0384776
-0.28800303 0.021122809 0.039298303
-0.13024516 -0.0411245 0.042964544
0.077530801 -0.0411245 0.04766234
-0.24057473 -0.023962799 0.040324833
-0.22079194 -0.023962799 0.048362754
-0.21843535 -0.023962799 0.04796198
-0.16394088 -0.023962799 0.047295455
-0.33274201 -0.013037902 0.045425322
-0.29273888 -0.010868272 0.043270782
-0.25902581 -0.011740539 0.042931892
0.078470401 -0.012996171 0.049274266
-0.31131557 -0.0068722372 0.043810304
-0.3089017 -0.0059067681 0.043661412
-0.21547762 -0.0014616988 0.04775387
-0.14239101 -0.0014989774 0.040636498
-0.068064868 -0.0014514131 0.049728028
-0.054988008 -0.0014854276 0.043226406
-0.034620717 -0.0015286501 0.040760539
0.015873525 -0.0014528902 0.049445674
0.03840268 -0.0015286501 0.041549936
-0.33274201 0.0019003107 0.048654906
-0.32139093 0.0095774103 0.043387771
-0.28523463 0.0011627597 0.04035227
-0.2192729 0.0095774103 0.040283244
-0.20629857 0.0095774103 0.041716862
-0.31582633 0.017379401 0.048726
-0.29674122 0.019071829 0.04882507
-0.27768108 0.018246841 0.048726
-0.2634711 0.019985333 0.048965607
-0.25655174 0.014904783 0.048726
-0.24527261 0.0147183 0.048726
-0.29623643 0.02378672 0.049550436
-0.27564174 0.023810089 0.044971287
-0.28486446 0.036222775 0.043896835
-0.27593517 0.030042697 0.042014759
-0.26976418 0.034426138 0.043349691
-0.27542469 0.051901244 0.048671547
-0.092470631 -0.0411245 0.053469129
-0.058764439 -0.0411245 0.050811779
-0.045439392 -0.0411245 0.051931262
-0.003719708 -0.0411245 0.053009074
-0.31419656 -0.020295046 0.05992347
-0.26648989 -0.023380077 0.057143167
-0.24441467 -0.023962799 0.055348091
-0.2199764 -0.023962799 0.056051619
-0.16367565 -0.023962799 0.05021001
-0.15648752 -0.026167318 0.053345054
-0.15864 -0.014668297 0.056461558
-0.18396395 -0.0014157855 0.056527235
-0.12315207 -0.0014266808 0.054455396
-0.10598716 -0.0015286501 0.05961708
-0.072288089 -0.0015286501 0.059368085
-0.035248391 -0.0014080618 0.058014292
0.025403488 -0.0014263464 0.054519337
0.032316465 -0.001421219 0.055499386
0.042440049 -0.0014280025 0.054202773
0.060094714 -0.0015286501 0.055302955
-0.30377656 0.0095029622 0.056730378
-0.24071407 0.029006131 0.05035343
-0.30056694 0.034486111 0.051196508
-0.25030437 0.034614459 0.051216252
-0.31847 0.044239338 0.052014329
-0.29830471 0.046812542 0.053092889
-0.28841254 0.049690489 0.053535655
-0.23934002 0.047869228 0.053255461
-0.31581667 0.058660202 0.054915622
-0.28449073 0.055003282 0.054353014
-0.27567792 0.052311815 0.053938936
-0.31500152 0.067907549 0.056338295
-0.29036283 0.068750992 0.053802952
-0.28372148 0.066834517 0.054166559
-0.26486278 0.065669857 0.055994026
-0.075993091 -0.0411245 0.064249903
0.046639755 -0.036552124 0.067472689
-0.32267022 -0.013249178 0.062161699
-0.30732533 -0.014488564 0.062161699
-0.26736185 -0.014013978 0.062161699
-0.24541879 -0.015026796 0.062161699
-0.23151228 -0.01874321 0.061322019
-0.21208268 -0.014481009 0.062161699
-0.20366523 -0.010558198 0.062161703
-0.16010834 -0.019402403 0.060727939
-0.13548356 -0.012127289 0.062161699
0.078470401 -0.011197618 0.06691099
-0.31570762 -0.0066764741 0.062161699
-0.22025919 -0.0013462011 0.069811195
-0.21752396 -0.00032348116 0.062161699
-0.17497854 -0.0013736176 0.064581916
-0.16960713 -0.0031630408 0.062161699
-0.15864 -0.0083072279 0.06608738
-0.13151519 -0.001381164 0.063147202
-0.12506709 -0.0015286501 0.062390648
-0.094162881 -0.0013552528 0.068101361
-0.063856997 -0.0014423993 0.067735754
-0.057001844 -0.0013509248 0.068933502
0.055727407 -0.0015286501 0.067197353
-0.32872528 0.0010058971 0.062161699
-0.2559469 0.0060743829 0.061905604
-0.2132602 0.0010302109 0.062161699
-0.20505983 0.0035248946 0.062161699
-0.19560441 0.0020570112 0.062161695
-0.16763738 0.006618632 0.061084092
-0.13947132 -0.032318611 0.070158862
-0.14205258 -0.028468374 0.072601855
0.010839183 -0.023600103 0.075690791
-0.15864 -0.017922813 0.07188344
-0.086955704 -0.018026073 0.079227529
-0.078663282 -0.017793078 0.079375356
-0.064566709 -0.017787023 0.079379201
-0.050896365 -0.018432476 0.078969657
-0.011451038 -0.019653071 0.078195184
0.0050403886 -0.0199049 0.078035399
0.032173257 -0.019627871 0.078211173
0.051066343 -0.017796427 0.079373233
0.078470409 -0.01456015 0.071287155
-0.22579746 -0.0013395658 0.071077704
-0.1348756 -0.0012974181 0.079140648
-0.12051255 -0.0015286499 0.07114327
-0.095197052 -0.0015286501 0.075459599
-0.074414983 -0.0013338402 0.072193734
-0.046579637 -0.0015286501 0.076341532
-0.026617652 -0.0015286501 0.073413283
-0.0015167161 -0.0014201482 0.077955157
0.024295148 -0.0013130517 0.076174721
0.053940907 -0.0015286501 0.077064753
0.0673379 -0.0013312831 0.07268995
0.078470401 -0.0064011132 0.070403017
-0.29341346 0.003296718 0.079551697
-0.12783657 -0.011483564 0.082713403
-0.10304814 -0.016316375 0.080312334
-0.07431905 -0.015502406 0.080828801
-0.049268454 -0.014925796 0.081194654
-0.025182586 -0.015966607 0.080534264
-0.31901902 -0.00411392 0.087987907
-0.29629564 -0.004012526 0.083197229
-0.15119092 -0.0015286502 0.08079309
-0.095714234 -0.0061242739 0.082713403
-0.043956883 -0.0015286501 0.081014901
-0.022603417 -0.0015286501 0.082584269
0.01391333 -0.0015286501 0.080540277
0.03332977 -0.0015286501 0.080042705
-0.32386532 0.00520238 0.085986495
-0.19846846 -0.0011946632 0.098755479
-0.11437844 -0.0012256302 0.092853978
0.0083180293 -0.0012166201 0.0945931
-0.17338204 -0.0011737765 0.10274823
-0.13369814 -0.0011752226 0.10247801
-0.061449528 -0.0011775829 0.10203808
-0.04225523 -0.001141035 0.10902093
-0.019013692 -0.0011476536 0.10776043
-0.0043952521 -0.0011366348 0.10986699
-0.31119001 0.00085299392 0.10729347
-0.23582824 -0.0011031071 0.11623882
-0.13983057 -0.0010876197 0.11920768
-0.065789461 -0.0011066576 0.1155829
-0.04065476 -0.0010857161 0.11958612
-0.038905025 -0.0011310594 0.11092663
-0.3423138 0.004482036 0.11150009
-0.14627989 -0.0010564319 0.12516305
-0.064999133 -0.0010727696 0.12205499
-0.057731807 -0.001064652 0.12360643
-0.04473722 -0.0010575452 0.12496563
-0.031413406 -0.0010505869 0.12629655
-0.021094915 -0.0010640221 0.12373222
-0.22688717 -0.00099939364 0.13604684
-0.14742672 -0.00098309852 0.13916823
-0.064802177 -0.001008046 0.1344161
-0.05629731 -0.0010311046 0.13001359
-0.026535181 -0.00098788331 0.13827255
-0.016986372 -0.00099466741 0.13697836
-0.24628931 -0.00093649968 0.14805914
-0.21492977 -0.0009451959 0.14639789
-0.20825765 -0.00094233989 0.14694329
-0.16045757 -0.00093725009 0.14792252
-0.024739303 -0.00096013799 0.14357167
-0.1951112 -0.00087786058 0.15925965
-0.15860751 -0.00092372554 0.15050575
-0.23322785 -0.00083697622 0.16706689
-0.11347319 -0.00085223169 0.16416655
-0.070118859 -0.00085249904 0.16412202
-0.064484842 -0.00086232839 0.16224563
-0.22832763 -0.0007887035 0.17628634
-0.093308836 -0.00081482355 0.17131388
-0.07283818 -0.00081768195 0.17077106
-0.044196069 -0.00080157077 0.17385228
-0.25555301 -0.00071808754 0.18977356
-0.23577392 -0.00075826299 0.18210024
-0.13517557 -0.00075298082 0.18311846
-0.11678451 -0.00075578998 0.18258472
-0.10294843 -0.00076488196 0.18085039
-0.22547251 -0.00070773397 0.19175062
-0.17430849 -0.00068071374 0.19691433
-0.13854416 -0.00071505591 0.19036093
-0.11777814 -0.00069594139 0.19401459
-0.19612461 -0.00063702615 0.20525464
-0.11470704 -0.00065167388 0.20246935
-0.095229313 -0.00065506331 0.20182493
-0.25604367 -0.0005928207 0.21369815
-0.22848879 -0.0005914325 0.21396294
-0.19675642 -0.00059756037 0.21279217
-0.084511623 -0.00056511699 0.21900472
-0.074741587 -0.00059844251 0.21264163
-0.1944495 -0.00055476103 0.22096638
-0.16690274 -0.0005097434 0.22956772
-0.11863973 -0.00055869191 0.22022669
-0.25532424 -0.00049458526 0.23246002
-0.18976325 -0.00050015218 0.23139605
-0.13836697 -0.00048165192 0.23493697
-0.11533805 -0.00050452101 0.23057285
-0.10480613 -0.00047727005 0.23577888
-0.096163623 -0.00048874976 0.23358774
-0.21519247 -0.00043105322 0.24459344
-0.20291403 -0.00042345276 0.2460449
-0.19180405 -0.00043548571 0.24374659
-0.17980501 -0.00041745871 0.24719055
-0.16646034 -0.00042185682 0.24635257
-0.15801185 -0.00044471544 0.24198826
-0.1148206 -0.00042029089 0.2466594
-0.25850165 -0.00035798486 0.25854924
-0.2136904 -0.00038928827 0.25257006
-0.18282512 -0.00035358049 0.2593897
-0.16040637 -0.00036703024 0.25682437
-0.13576795 -0.00036153861 0.25787687
-0.2219902 -0.00031316603 0.26710871
-0.18902636 -0.00031695815 0.26638401
-0.16166537 -0.0003187074 0.26605302
-0.23649761 -0.00026513461 0.27628234
-0.17623706 -0.00027701104 0.27401412
-0.15331116 -0.00025502895 0.27821571
-0.13292032 -0.00029714132 0.27017605
-0.25221387 -0.00019927109 0.28886175
-0.22613636 -0.00014424966 0.29936987
-0.18413691 -0.00015049281 0.29817697
-0.16780008 -0.00017781052 0.29296088
-0.15961123 -0.00017233932 0.294007
-0.25221336 -0.00010055955 0.30771455
-0.23774254 -0.00013250003 0.30161411
-0.22055888 -0.00012219755 0.30358154
-0.20250003 -0.00010603522 0.30666813
-0.16812745 -9.0426627e-05 0.30964959
-0.14644973 -0.00013252615 0.30161259
-0.16606015 -5.8624631e-05 0.31572354
-0.20484027 -1.7484203e-05 0.32358044
-0.19294411 -1.2455894e-06 0.3266817
-0.18476312 -1.6611753e-05 0.32374683
-0.1954563 2.0806347e-06 0.32731697
-0.27675602 2.9812625e-05 0.33261448
-0.2267046 3.6732177e-05 0.33393541
-0.17896599 2.0460146e-05 0.33082706
