# .PCD v0.7 - Point Cloud Data file format
VERSION 0.7
FIELDS x y z
SIZE 4 4 4
TYPE F F F
COUNT 1 1 1
WIDTH 852
HEIGHT 1
VIEWPOINT 0 0 0 1 0 0 0
POINTS 852
DATA ascii
-0.12518179 0.0067228312 -0.33192101
-0.11240035 0.00092835253 -0.33192101
-0.12120415 0.010057541 -0.33174857
-0.12223261 -0.0012945064 -0.32005483
-0.14579171 0.0012378612 -0.32896987
-0.1064281 7.9534017e-05 -0.32214829
-0.127545 -0.0012098751 -0.31554899
-0.14855453 0.0045817988 -0.31488726
-0.12339072 0.010532415 -0.31095299
-0.11077593 -0.0012991951 -0.30719027
-0.14540896 0.0029571243 -0.30255228
-0.094678715 0.0049833609 -0.30325133
-0.099205285 -0.00093194877 -0.29467189
-0.13772674 0.0088214353 -0.29604945
-0.09446682 0.00482842 -0.29656723
-0.12444855 -0.001375258 -0.28654554
-0.11730988 -0.0017704323 -0.28866845
-0.14455797 0.0043682824 -0.28807384
-0.11221598 0.011104376 -0.2834571
-0.12218623 -0.0015141568 -0.277022
-0.084656671 0.0096923541 -0.27349788
-0.093926422 0.0105198 -0.27872527
-0.099461682 -0.0020500193 -0.26956981
-0.14009121 0.0052451668 -0.26040319
-0.071857974 0.0076570949 -0.26484919
-0.069215983 0.0073389322 -0.26124802
-0.12658088 0.010101423 -0.26278469
-0.12613775 -0.00077603548 -0.25419307
-0.1080751 -0.0023199026 -0.25573927
-0.1022253 0.011660599 -0.25510785
-0.089488775 -0.002273031 -0.24943924
-0.1350138 0.0073848455 -0.24120127
-0.058488842 0.004758779 -0.24569766
-0.10136786 -0.002690034 -0.23475373
-0.09775389 -0.0027646497 -0.2343055
-0.064522274 -0.00053470826 -0.23398304
-0.07411167 0.010896796 -0.23762082
-0.11312558 -0.0019772444 -0.22392197
-0.1015037 -0.0027619656 -0.22375892
-0.11617011 -0.0015252018 -0.21658002
-0.10816898 -0.0023448649 -0.21155357
-0.06576775 0.01120272 -0.21803419
-0.097589873 -0.0030227145 -0.20328066
-0.042919386 0.008012481 -0.20568159
-0.09726052 0.012346804 -0.20925434
-0.11532719 -0.0013006942 -0.19367486
-0.10412093 -0.0025570637 -0.19495994
-0.035647493 0.0010927332 -0.1902878
-0.083269238 0.012801494 -0.19505787
-0.076320902 0.012686429 -0.19779783
-0.11360256 -0.0014531813 -0.18721214
-0.089710981 -0.0034632001 -0.18162167
-0.053607397 -0.0026717666 -0.18265963
-0.033887677 0.00093254639 -0.18569246
-0.097121522 0.012464625 -0.18777254
-0.083012506 -0.0037315581 -0.17448738
-0.064739414 -0.0035895992 -0.17639764
-0.025608962 0.0060543991 -0.17714429
-0.11162599 0.010972723 -0.17702137
-0.059009925 0.012960857 -0.17012912
-0.10329812 -0.0024659946 -0.1644399
-0.021794556 0.0079276292 -0.16516554
-0.041297723 0.011717013 -0.16682385
-0.061432369 -0.0040469733 -0.15615784
-0.057851303 -0.0038672932 -0.15882596
-0.042212881 -0.003162093 -0.15345693
-0.030433629 -0.0019426356 -0.15231013
-0.023160461 0.0094174119 -0.15852794
-0.013710756 0.0053860852 -0.15528536
-0.037095062 0.012182422 -0.15230751
-0.075437337 -0.004213619 -0.14431959
-0.059812307 -0.0042360602 -0.14702113
-0.04233316 -0.0033521559 -0.14964451
-0.016295608 0.0097390153 -0.14279157
-0.10416818 0.01152692 -0.14175454
-0.094686992 0.012592021 -0.14061795
-0.07760454 0.013573148 -0.14790148
-0.058510207 0.013659058 -0.14690401
-0.10738032 -0.0014433312 -0.13426398
-0.045044791 -0.004060897 -0.13609993
-0.12000529 0.007246417 -0.13682613
-0.10324015 0.011512907 -0.13195847
-0.039825413 0.013254597 -0.13561518
-0.10329282 -0.0019227902 -0.1263673
-0.054630816 -0.0046560406 -0.12487724
-0.043829072 -0.0043590432 -0.12550557
-0.10674503 0.010821119 -0.12475356
-0.070557952 0.014074551 -0.12033094
-0.02342671 0.012475934 -0.12380856
-0.019113807 0.01172532 -0.12707962
-0.087222338 -0.0036475351 -0.11560015
-0.076351441 -0.0043723797 -0.1118653
-0.056239307 -0.0049103154 -0.11195917
-0.0028472622 -0.00024777855 -0.11657514
-0.11736499 0.0066970894 -0.11485565
-0.0012442725 0.0002529514 -0.11683062
0.0011766052 0.0014443647 -0.11910271
-0.096620001 0.012192762 -0.11541367
-0.041817576 0.014113646 -0.11492856
-0.022809926 0.012916139 -0.11519241
-0.094924606 -0.0027395638 -0.10572681
-0.03684967 -0.0048652831 -0.10016498
-0.11712454 0.0064889877 -0.10910114
0.0049848817 0.0087883072 -0.10799884
0.013665831 0.003884261 -0.10089375
-0.32936451 0.019164812 -0.10326399
-0.076525845 0.013900328 -0.10758276
-0.043543916 0.014481231 -0.10378693
-0.013719816 0.012418587 -0.10739055
-0.004711316 0.011256302 -0.10624716
-0.34320396 0.0221754 -0.10620439
-0.33469796 0.0221754 -0.10537495
-0.027797284 -0.0044783116 -0.099769831
-0.11517642 0.0062566102 -0.091706529
-0.35115096 0.017181262 -0.098703749
-0.33240971 0.01161 -0.093830884
-0.3235507 0.017658986 -0.093551137
-0.094850421 0.012192789 -0.094463199
-0.032796141 0.014414382 -0.095155217
-0.33613795 0.0221754 -0.099718615
-0.099373676 -0.0017964719 -0.086929604
-0.087905273 -0.0032879133 -0.081508495
-0.0088994484 -0.0039258096 -0.081356034
0.0077469707 -0.0010171083 -0.089495048
-0.11446003 0.0031055524 -0.088250123
-0.32318193 0.015088708 -0.088236734
-0.054842517 0.014862689 -0.085564069
-0.049412917 0.014957873 -0.083699189
-0.02677167 0.014418587 -0.087719731
-0.33131117 0.022175398 -0.084543929
-0.3277126 0.0221754 -0.081115305
-0.05166316 -0.0055015963 -0.072533868
-0.035400964 -0.005500942 -0.073732182
-0.34221458 0.012577256 -0.073357299
-0.07372798 0.014126509 -0.078841917
-0.048588127 0.015067564 -0.077203557
-0.33606452 0.0221754 -0.078653768
-0.091193318 -0.0027182589 -0.066597082
-0.035770364 -0.0057870145 -0.060517028
-0.021127092 -0.0053280923 -0.065269344
0.016953886 -0.0019045525 -0.062559038
-0.10952859 0.0082063535 -0.069393873
0.029170884 0.0021322733 -0.066439755
-0.30960867 0.016119964 -0.069926992
-0.015101862 0.014707141 -0.064638592
-0.00046030898 0.013880629 -0.060486957
-0.33062002 0.0221754 -0.064297616
-0.32683989 0.0221754 -0.062186301
-0.31688499 0.0221754 -0.063671887
-0.051753797 -0.0056606964 -0.058054257
-0.038859613 -0.0059261471 -0.05248845
-0.003856895 -0.0046148286 -0.058112822
-0.10486324 0.0091861822 -0.055054739
0.036855679 0.0048351097 -0.056161426
-0.061303452 0.014938764 -0.053601556
0.0011278829 0.014028942 -0.054819781
-0.091316603 -0.0022988194 -0.0466181
-0.084347814 -0.003250326 -0.042982787
-0.074835122 -0.0043188101 -0.042363107
-0.037434664 -0.0060798223 -0.041986115
0.033581227 -2.7159636e-05 -0.047007784
-0.10342799 0.0091582835 -0.043376431
-0.064045288 0.01480451 -0.046064362
-0.015221504 0.015354493 -0.045390062
-0.029750399 -0.0061707525 -0.038807169
0.035745367 -0.0015227995 -0.030581154
-0.31296912 0.01161 -0.032903597
-0.30395952 0.01161 -0.036501434
-0.041309062 0.015840409 -0.031287633
-0.0098866364 0.015455734 -0.035864159
0.0011295569 0.015051423 -0.032676987
-0.29511201 0.022175401 -0.035052277
-0.070618682 -0.0046301181 -0.028410498
-0.066283412 -0.0049416055 -0.027097348
-0.056269865 -0.0056323186 -0.029452659
-0.024143532 -0.0063132392 -0.028684869
-0.10434537 0.0026962471 -0.027916305
-0.32051337 0.01161 -0.024877168
-0.31763047 0.01161 -0.02886213
-0.29577118 0.01161 -0.02772326
-0.28763467 0.011742547 -0.025625546
-0.092441708 0.011236112 -0.021066984
-0.016525524 0.015945302 -0.026394282
0.0030028978 0.015316665 -0.023984026
-0.29623127 0.022175401 -0.025576206
-0.28866395 0.0221754 -0.027954586
0.31123489 -0.11589568 -0.01265873
0.24608308 -0.090032905 -0.0174721
0.3133117 -0.097588152 -0.0174721
0.29173797 -0.083223343 -0.0174721
0.32722759 -0.084536165 -0.0174721
0.24511288 -0.07423152 -0.0174721
0.35450286 -0.078144923 -0.011225699
0.25041395 -0.063032158 -0.0174721
0.26449794 -0.06366805 -0.0174721
0.34901863 -0.066032812 -0.014316391
0.27292585 -0.056272082 -0.0174721
0.29419386 -0.057335734 -0.0174721
0.30580121 -0.050676387 -0.0174721
0.24282032 -0.049474169 -0.0174721
0.26207778 -0.041382443 -0.0174721
0.28126237 -0.042360216 -0.0174721
0.31421864 -0.048609886 -0.0174721
0.32518488 -0.049212888 -0.0174721
0.33085218 -0.042429149 -0.011418635
0.17411651 -0.037435785 -0.0174721
0.24513818 -0.030032614 -0.0174721
0.2624259 -0.032971449 -0.0174721
0.29999655 -0.030816287 -0.0174721
0.30112946 -0.035103496 -0.0174721
0.16718131 -0.025012571 -0.0174721
0.19070938 -0.024520887 -0.0174721
0.24149327 -0.023963984 -0.0174721
0.25439721 -0.02916605 -0.0174721
-0.2518332 -0.010190275 -0.015115659
-0.19221692 -0.011346444 -0.010715982
-0.18577737 -0.0113471 -0.016730415
-0.10429744 -0.01139464 -0.010447191
-0.093096502 -0.011414072 -0.012740538
-0.031608678 -0.010874843 -0.0174721
-0.012799917 -0.011776028 -0.013773747
0.0067290133 -0.012009318 -0.011081601
0.034648232 -0.012717778 -0.011511875
0.056567609 -0.014124419 -0.011066033
0.063640133 -0.01373191 -0.0174721
0.10062251 -0.011319839 -0.0174721
-0.27374923 -0.0071544354 -0.011651884
-0.26385441 -0.0059319977 -0.0174721
-0.054008767 -0.0057802238 -0.018361995
0.068159483 -0.0079397354 -0.0174721
0.086707108 -0.0015510449 -0.0174721
0.10239864 -0.0031253404 -0.0174721
0.12040031 -0.00029192958 -0.0174721
0.14584556 -0.007688906 -0.0174721
0.18684536 -0.0060570408 -0.0174721
0.19403696 -0.0025338717 -0.0174721
0.20159701 -0.0059621902 -0.0174721
0.21043977 -0.0029062831 -0.0174721
0.27052495 -0.0033415551 -0.013468124
-0.3313154 0.0072057801 -0.017161299
-0.30996946 0.0005824978 -0.014733408
-0.23935476 0.008229007 -0.0174721
-0.18270701 0.0051092319 -0.0174721
-0.17963561 0.009068938 -0.0174721
-0.1398409 0.0029092592 -0.0174721
-0.11016739 0.0047676358 -0.0174721
-0.1063262 0.004657377 -0.019492185
0.053565875 0.0024811053 -0.019724963
0.073826529 0.0097957691 -0.0174721
0.088135794 0.0046981093 -0.0174721
0.097156055 0.0060101892 -0.0174721
0.13933513 0.0051233359 -0.0174721
0.15531003 0.0094200559 -0.0174721
0.18987183 0.0044176765 -0.0174721
0.22018562 0.0038019491 -0.0174721
0.24505055 0.0045494558 -0.01606112
-0.27761805 0.014705319 -0.0174721
-0.26307154 0.01550917 -0.0174721
-0.25574717 0.017161753 -0.0174721
-0.18655798 0.014697814 -0.0174721
-0.15011802 0.017369689 -0.0174721
-0.031328022 0.019939898 -0.017402904
0.045267839 0.013914613 -0.0174721
0.098460451 0.018146634 -0.017393976
0.11369275 0.010040782 -0.0174721
0.12585567 0.013925147 -0.0174721
0.19438738 0.010141786 -0.0174721
-0.34450108 0.026899725 -0.015641244
-0.30323306 0.022175398 -0.017954065
-0.29871184 0.029832659 -0.013266537
-0.26707259 0.02521006 -0.01610126
-0.25296164 0.025660641 -0.014599596
-0.21856955 0.021307699 -0.017284838
-0.095785059 0.023687929 -0.013657264
-0.080291584 0.024919644 -0.011982992
-0.071422428 0.024138186 -0.014848987
-0.068555094 0.023698807 -0.015405548
0.022867395 0.024403956 -0.010491378
0.046890762 0.023815606 -0.013718548
0.072034791 0.023628339 -0.011252677
-0.32554197 0.031902753 -0.015704328
0.22369047 -0.11192805 -0.0049875621
0.23921359 -0.11382417 -0.002706615
0.25601193 -0.11543012 -0.00052745844
0.31425998 -0.11547339 -0.0080739819
0.32216763 -0.11379962 -0.0093639642
0.33277953 -0.11045665 -0.0060357479
0.19880407 -0.10286351 -0.0085797003
0.23587491 -0.10106798 -0.0085797003
0.345382 -0.10212822 -0.0086856624
0.026187137 -0.090252876 -0.0072035831
0.08272472 -0.092547238 -0.0059636482
0.22780618 -0.09529832 -0.0085797003
-0.064383902 -0.081319153 -0.0048323181
-0.043972552 -0.080873497 -0.0080823544
0.0063943076 -0.089948967 -0.0021131355
0.061428219 -0.088579848 -0.0085797003
0.073585525 -0.082904831 -0.0085797003
0.17315081 -0.08060129 -0.0085797003
0.2155115 -0.080482759 -0.0085797003
-0.14346319 -0.070505604 -0.0018444101
-0.11634331 -0.074615002 -0.0020871444
-0.017798284 -0.071679577 -0.0085797003
0.017988864 -0.078232646 -0.0085797003
0.026220778 -0.070431709 -0.0085797003
0.047362614 -0.077867329 -0.0085797003
-0.17590442 -0.064338215 -0.0057655089
-0.16515262 -0.061294392 -0.0085797003
-0.15587914 -0.065383285 -0.0079983193
-0.14769737 -0.067995906 -0.0071700951
-0.059357278 -0.065928429 -0.0085797003
-0.01795648 -0.062275887 -0.0085797003
0.012823034 -0.060869575 -0.0085797003
0.039848819 -0.067027643 -0.0085797003
0.041692961 -0.060289711 -0.0085797003
0.086203948 -0.064408049 -0.0085797003
0.091484398 -0.06341213 -0.0085797012
0.15201314 -0.067384951 -0.0085797003
0.16589212 -0.067088813 -0.0085797003
0.17013887 -0.063477278 -0.0085797003
0.18788745 -0.06972304 -0.0085797003
0.19682892 -0.062969282 -0.0085797003
-0.20975858 -0.058109853 -0.0051953634
-0.1664968 -0.054139588 -0.0085797003
-0.10301951 -0.053458788 -0.0085797003
-0.099902332 -0.053298999 -0.0085797003
-0.044980094 -0.054283008 -0.0085797003
-0.027943568 -0.056635879 -0.0085797003
-0.0010440676 -0.056239165 -0.0085797003
0.045879278 -0.059589691 -0.0085797003
0.073542051 -0.058466069 -0.0085796993
0.085077152 -0.05532841 -0.0085797003
0.092269942 -0.053319365 -0.0085797003
0.10801131 -0.051912546 -0.0085797003
0.12991843 -0.052418176 -0.0085797003
-0.24554597 -0.043772455 -0.0085797003
-0.21719487 -0.043240096 -0.0085797003
-0.15451089 -0.043720845 -0.0085797003
-0.10932489 -0.043844864 -0.0085797003
-0.065036841 -0.041987609 -0.0085797003
-0.059166655 -0.04449793 -0.0085797003
-0.022966472 -0.041387923 -0.0085797003
0.0072062048 -0.045305721 -0.0085797003
0.034780145 -0.04763227 -0.0085797003
0.040091842 -0.043756083 -0.0085797003
0.062311374 -0.048337568 -0.0085797003
0.082289211 -0.047647428 -0.0085797003
0.1224633 -0.04012952 -0.0085797003
0.1764423 -0.04624914 -0.0085797003
0.33272904 -0.044389494 -0.0064414199
-0.32031399 -0.031550679 -0.0031026283
-0.31170017 -0.031964872 -0.0073694214
-0.2837553 -0.037430275 -0.0083116982
-0.26757976 -0.037688632 -0.0085797003
-0.24697256 -0.030033177 -0.0085797003
-0.23458239 -0.037247874 -0.0085797003
-0.17073117 -0.032883879 -0.0085797003
-0.11884955 -0.038183045 -0.0085797003
-0.097176664 -0.032948453 -0.0085797003
-0.081516534 -0.035864387 -0.0085797003
-0.0041864421 -0.036754377 -0.0085797003
0.017206756 -0.034572925 -0.0085797003
0.025955413 -0.03730949 -0.0085797003
0.036291741 -0.037835881 -0.0085797003
0.056151647 -0.033513367 -0.0085797003
0.079362683 -0.031358059 -0.0085797003
0.11245152 -0.035577219 -0.0085797003
-0.32725406 -0.022902749 -0.0085242912
-0.27537325 -0.023997929 -0.0085797003
-0.25809181 -0.02723385 -0.0085797012
-0.24582192 -0.022587532 -0.0085797003
-0.16310567 -0.024388861 -0.0085797003
-0.13547325 -0.026491756 -0.0085797003
-0.086565726 -0.029997546 -0.0085797003
-0.051958922 -0.024048045 -0.0085797003
-0.034985021 -0.023074999 -0.0085797003
-0.021996554 -0.029153721 -0.0085797003
0.049189206 -0.02019912 -0.0085797003
0.060929928 -0.02061489 -0.0085797003
0.11582319 -0.027462821 -0.0085797003
-0.33758211 -0.013099836 -0.0084738107
-0.32083634 -0.012955935 -0.0085797003
-0.30017158 -0.014423801 -0.0085797003
-0.29011762 -0.013470195 -0.0085797003
-0.26694953 -0.012193317 -0.0085797003
-0.2309171 -0.012635503 -0.0085797003
-0.18877995 -0.016624071 -0.0085797003
-0.15410706 -0.018985881 -0.0085797003
-0.10760131 -0.014350904 -0.0085797003
-0.09397018 -0.014986647 -0.0086692739
-0.051469397 -0.017648548 -0.0085797003
-0.032669708 -0.011626696 -0.0093990024
0.005787835 -0.01199461 -0.0098242005
-0.32310677 -0.0064772097 -0.0085797003
-0.2975449 -0.0064771767 -0.0085797003
0.27784628 -0.0065496415 -0.009275917
0.23180372 0.0099617168 -0.0063540996
0.24529929 0.0063506886 -0.0043717776
0.17363311 0.018641379 -0.0046255551
0.21928898 0.012606353 -0.0075211814
-0.3452554 0.025069866 -0.001398275
-0.29091144 0.029461719 -0.0054995902
-0.26408315 0.027054911 -0.0053547304
-0.23980436 0.025911393 -0.0054461099
-0.2268815 0.025510887 -0.0092183063
-0.18143031 0.024963263 -0.00060007349
-0.10580094 0.024939604 -0.0069159232
-0.089275412 0.0249325 -0.0048772525
-0.071252055 0.02490852 -0.00022553396
-0.056874309 0.024876544 -0.0039251153
0.010913807 0.024516281 -0.0044497261
0.046543431 0.024101092 -0.0083974572
0.086672172 0.023271814 -0.0020284113
0.095845945 0.023007156 -0.0085171675
0.14876392 0.020563137 -0.0089505864
-0.32073528 0.032734111 -0.0099333376
-0.30289802 0.034019113 -0.0054995902
-0.28348148 0.039611138 -0.0054995902
-0.29369348 0.054276869 -0.0054995902
-0.28672785 0.054075982 -0.0054995902
-0.3278414 0.067194432 -0.0054995902
-0.33399048 0.076222539 -0.0045361398
-0.31318003 0.074812897 -0.0054995902
-0.33193752 0.084133945 -0.0054995902
-0.29838344 0.087367348 -0.0053117629
-0.32635832 0.10413382 -0.0054995902
-0.31614283 0.11447195 -0.003099534
0.32977986 -0.11162365 0.0012195681
0.33079407 -0.1112341 0.0084372424
0.17913961 -0.10588922 0.0072564683
0.19576685 -0.10525044 0.0084443372
0.33482891 -0.10954788 0.0027340567
0.027193327 -0.092210814 0.0016204412
0.039920907 -0.093573682 0.0013250689
0.055495352 -0.0923177 0.0079318369
0.074505895 -0.092096671 0.0085187647
0.088323966 -0.09097413 0.0074841101
0.15399261 -0.099629223 0.0052223466
0.18747203 -0.092272304 0.0085796798
0.22094497 -0.098732986 0.0085796798
-0.051755168 -0.083187059 0.0006778125
0.030718703 -0.081092037 0.0085796798
0.16869098 -0.089466736 0.0085796798
0.17370684 -0.088013671 0.0085796798
0.3549436 -0.083144933 0.005644097
-0.11872821 -0.074277796 9.360991e-05
-0.099609368 -0.071878545 0.0085360222
-0.032055341 -0.073322117 0.0085796798
-0.0191634 -0.072051853 0.0085796798
0.094618708 -0.074904218 0.0085796798
0.11563773 -0.075203635 0.0079891952
0.15638536 -0.071863435 0.0085796798
0.16503289 -0.073033422 0.0085796798
0.18807271 -0.075533822 0.0085796798
-0.18998104 -0.062437657 0.0019334526
-0.17614242 -0.064987138 0.0017790687
-0.13376586 -0.067676783 0.0084316935
-0.096290663 -0.064974114 0.0085796798
-0.082777306 -0.067077078 0.0085796798
-0.063371576 -0.06785845 0.0085796798
-0.025498675 -0.069336317 0.0085796798
0.056074422 -0.064608827 0.0085796798
0.13672487 -0.069009967 0.0061978553
0.14476633 -0.06688863 0.0085796798
0.20686302 -0.063798316 0.0085796798
-0.21449724 -0.053494819 0.0083907815
-0.19823205 -0.052561499 0.0085796798
-0.17992508 -0.05537679 0.0085796798
-0.1538378 -0.056639481 0.0085796788
-0.12406245 -0.052877266 0.0085796798
-0.11822779 -0.051665634 0.0085796798
-0.074129432 -0.053507723 0.0085796798
-0.0072747236 -0.05219169 0.0085796798
0.023546029 -0.052996006 0.0085796798
0.099716723 -0.059997845 0.0085796798
0.11767825 -0.055395823 0.0085796798
0.12090538 -0.052900616 0.0085796798
0.17604032 -0.056349047 0.0085796788
0.18209307 -0.059530258 0.0085796798
0.19737732 -0.052398346 0.0085796807
-0.2648707 -0.044793617 0.0039500454
-0.20350236 -0.046463542 0.0085796798
-0.19651845 -0.044790231 0.0085796798
-0.17212692 -0.046536651 0.0085796798
-0.16306445 -0.040623937 0.0085796798
-0.14731829 -0.044211801 0.0085796798
-0.078661218 -0.043893576 0.0085796798
-0.019511927 -0.046367448 0.0085796798
0.022561032 -0.044763099 0.0085796798
0.032392479 -0.047718525 0.0085796788
0.075744413 -0.043789826 0.0085796798
0.083513334 -0.045539118 0.0085796798
0.11391568 -0.041455518 0.0085796798
0.13270959 -0.046812296 0.0085796798
0.15580568 -0.040634047 0.0085796798
-0.23506312 -0.035041034 0.0085796798
-0.16059458 -0.037491914 0.0085796798
-0.14316979 -0.034080159 0.0085796798
-0.13002813 -0.036387138 0.0085796798
-0.094577447 -0.038866282 0.0085796798
-0.034230024 -0.034432754 0.0085796798
-0.016998062 -0.03260754 0.0085796798
-0.0043374123 -0.039617028 0.0085796798
0.070651099 -0.039260622 0.0085796798
0.10270569 -0.03932165 0.0085796798
0.11679965 -0.039510887 0.0085796798
0.15919621 -0.035686463 0.0085796798
-0.27700961 -0.020218035 0.0085796798
-0.26153427 -0.027396185 0.0085796798
-0.21777487 -0.020351168 0.0085796798
-0.20217386 -0.021529466 0.0085796798
-0.18924996 -0.028999038 0.0085796798
-0.16598016 -0.027842276 0.0085796798
-0.14866291 -0.023059733 0.0085796798
-0.12064169 -0.025224766 0.0085796798
-0.081525572 -0.020424157 0.0085796798
-0.030053321 -0.026223201 0.0085796807
-0.017534539 -0.021305231 0.0085796798
0.0095983529 -0.024702996 0.0085796798
0.051588587 -0.023878453 0.0085796798
0.086889118 -0.024391476 0.0085796798
0.11303686 -0.026494527 0.0085796798
0.31398907 -0.027690342 0.00098949252
-0.32907408 -0.017809806 0.0085796798
-0.26853633 -0.012806476 0.0085796798
-0.23420607 -0.019506786 0.0085796798
-0.1845731 -0.011430591 0.0085796798
-0.17630561 -0.0186306 0.0085796798
-0.16302936 -0.013487272 0.0085796798
-0.037158575 -0.014895132 0.00923853
0.026726099 -0.019444983 0.0085796798
0.033840433 -0.0167687 0.0085796798
0.076596335 -0.016346831 0.0085796798
-0.29909074 -0.0045285425 0.0085796798
-0.28872186 -0.0097054709 0.0085796798
0.26853079 -0.0021889592 0.0099756736
-0.34705392 0.0068118931 0.00042931095
-0.31279907 0.0012242749 0.0098078363
0.2325709 0.0097891856 0.0030389663
0.18125783 0.017904904 0.0065980973
-0.22436987 0.025452504 0.0052961679
-0.081309073 0.024921834 0.0085628182
-0.055366822 0.0248731 0.0055964715
0.01284615 0.024501391 0.003809256
0.029101692 0.024334745 0.0017602172
0.045930158 0.024109669 0.0029327378
0.06075941 0.023857642 0.0028090049
0.088362008 0.023225635 0.0016597521
0.090366997 0.023169046 0.0089248922
0.10686224 0.022634054 0.0077861985
0.1283868 0.02172167 0.0072973436
0.14892474 0.020552864 0.0074790125
-0.32996342 0.04611662 0.0033215182
-0.31716216 0.046037536 0.0051030898
-0.29370484 0.041482266 0.0051030898
-0.3119193 0.053432308 0.0051030898
-0.29281884 0.055741832 0.0051030898
-0.32571557 0.064476848 0.0051030898
-0.28923687 0.071942568 0.002341588
-0.30618465 0.096745387 0.0051030898
-0.33859462 0.11064866 0.00073276507
0.30143481 -0.11145805 0.0172536
0.26044083 -0.10561366 0.0172536
0.27825266 -0.1078669 0.0172536
0.33070955 -0.10375774 0.0172536
0.2999697 -0.099436499 0.0172536
0.24216554 -0.088126965 0.0172536
0.25725514 -0.086285651 0.0172536
0.26131523 -0.08537779 0.0172536
0.33262035 -0.087621368 0.0172536
0.22838008 -0.077285945 0.013152024
0.26841712 -0.072749041 0.0172536
0.34978899 -0.073292807 0.016680075
0.27509648 -0.063931376 0.0172536
0.31623363 -0.060991839 0.0172536
0.32701033 -0.063720934 0.0172536
0.30288595 -0.058054406 0.0172536
0.33404067 -0.059397314 0.0172536
0.33593345 -0.049194306 0.014850662
0.15797311 -0.032124966 0.0172536
0.23397732 -0.037551358 0.0172536
0.25418231 -0.037738189 0.0172536
0.29720891 -0.030931178 0.0172536
0.30836692 -0.033151358 0.0172536
0.10943613 -0.021855673 0.01237452
0.1277639 -0.024535224 0.0172536
0.17037344 -0.026023272 0.0172536
0.20201951 -0.029274188 0.0172536
0.23683128 -0.025680877 0.0172536
0.26375687 -0.028389964 0.0172536
0.29513654 -0.028906425 0.0172536
-0.24497886 -0.010753438 0.011119161
-0.19860174 -0.0113433 0.01152898
-0.17375895 -0.0113471 0.010681488
-0.14633495 -0.011354082 0.015787851
-0.11202905 -0.011384799 0.015948636
-0.095364168 -0.011409882 0.015083595
-0.04853344 -0.011532467 0.0172536
-0.020754987 -0.011707855 0.012415562
0.075164579 -0.01598862 0.012113072
0.18710326 -0.016842462 0.0172536
0.20875518 -0.018573429 0.0172536
0.23540109 -0.017033583 0.0172536
0.24846122 -0.014282546 0.0172536
0.25035411 -0.018540768 0.0172536
0.28774804 -0.015307838 0.016816903
0.29300281 -0.017001957 0.016228605
-0.30566368 -0.00041683522 0.011774606
-0.26279393 -0.0063694268 0.0172536
-0.2250917 -0.0051015378 0.0172536
-0.19717716 -0.0030051221 0.0172536
-0.17548023 -0.0033870735 0.0172536
-0.15977436 -0.008124698 0.0172536
-0.14830317 -0.0078188442 0.0172536
-0.098075822 -0.00048051268 0.0172536
-0.07396774 -0.0071166167 0.0172536
0.025427986 -0.0039265077 0.019178504
0.068396375 -0.0015837005 0.0172536
0.074202783 -0.0057420442 0.0172536
0.10031712 -0.0085618012 0.0172536
0.12784253 -0.0039930777 0.0172536
0.13411699 -0.0017931014 0.0172536
0.17190142 -0.0049201087 0.0172536
0.2218838 -0.0063691563 0.0172536
0.23334102 -0.0099140592 0.0172536
0.25617474 -0.00791327 0.0172536
0.26138386 -0.0047165975 0.017238265
-0.33394584 0.0068254033 0.013578527
-0.31267983 0.0089519136 0.0172536
-0.2786372 0.0038004837 0.0172536
-0.26567584 0.0091650728 0.0172536
-0.23975009 0.0064871744 0.0172536
-0.12706992 0.0040104613 0.0172536
-0.11113574 0.0073072645 0.0172536
0.083341233 0.0092049902 0.0172536
0.11185692 0.0076939845 0.0172536
0.12478822 0.0067195361 0.0172536
0.17997131 0.006940905 0.0172536
0.18886478 0.0075127617 0.0172536
0.23408048 0.0058631958 0.014974694
0.25497267 0.00077320746 0.01629515
0.26074493 0.00014320872 0.014833529
-0.3147186 0.010840507 0.0172536
-0.25779605 0.017168816 0.0172536
-0.24916236 0.017289123 0.0172536
-0.1728569 0.015828133 0.0172536
-0.13837436 0.018322166 0.0172536
-0.080152877 0.018628489 0.0172536
-0.033251114 0.016164942 0.017737998
0.0094293216 0.015158843 0.0176975
0.048722379 0.012466175 0.0172536
0.087123178 0.012979115 0.017253598
0.11811589 0.017918788 0.017127756
0.172674 0.018435396 0.013657482
0.18516217 0.017493341 0.011784486
0.19417886 0.015865671 0.014387746
-0.26812333 0.027317716 0.011841746
-0.19308785 0.021938534 0.016733879
-0.16262013 0.02492935 0.01204863
-0.10141774 0.024291942 0.014555551
-0.064046621 0.022020502 0.016671758
0.012602647 0.023652662 0.014865958
-0.33440438 0.03461894 0.01097137
-0.087406516 -0.002602977 0.028294461
-0.073113993 -0.0043444233 0.027182238
-0.022700541 -0.006332621 0.02622362
-0.010790545 -0.0060687275 0.027626799
0.034573667 -0.0026118278 0.020530518
-0.10216151 0.00083244382 0.027103249
0.053394165 0.0069747106 0.020864919
-0.33214909 0.011671261 0.028907256
0.035484176 0.011897992 0.024356846
-0.2902478 0.022175398 0.024833858
-0.053547181 -0.0057350099 0.030889869
-0.033349719 -0.006159889 0.037645694
0.016236946 -0.0036776194 0.039599974
-0.33374709 0.019002676 0.034746844
-0.3002713 0.01161 0.031217549
-0.097651184 0.01040034 0.031599533
-0.075252861 0.013855662 0.030828323
-0.060341265 0.015091946 0.036441557
-0.026843857 0.015925506 0.034215238
-0.0030059353 0.015174676 0.035932198
-0.28970507 0.021121241 0.034336638
-0.061085206 -0.0053233812 0.040442955
-0.057501413 -0.0054902742 0.044630624
-0.02646926 -0.0059429258 0.046068128
-0.014516063 -0.0056892652 0.044206731
-0.0044120308 -0.0054053315 0.040396094
0.013542713 -0.003558693 0.046313863
0.032206692 -0.00024944017 0.047956124
-0.10988485 0.0040224087 0.046136871
-0.10111585 0.010060566 0.047765687
-0.078763783 0.013552524 0.040207177
-0.021344343 0.01562227 0.045012556
-0.047893267 -0.0057319226 0.055632811
-0.035072841 -0.0057961028 0.057419479
-0.027141457 -0.0057569603 0.054930568
-0.34048599 0.012059961 0.05935397
-0.3283782 0.01161 0.053936481
-0.31802475 0.01161 0.052342281
-0.077575587 0.013838629 0.054641508
0.0060684881 0.01358872 0.054851018
-0.093334615 -0.0022803301 0.062991813
-0.061637744 -0.0051939804 0.064810447
-0.059589557 -0.0052885967 0.06232661
0.0065212804 -0.002976482 0.068120539
0.017091829 -0.0015838745 0.065235615
0.027111204 0.00095138367 0.065631837
-0.33682919 0.01161 0.061679356
-0.32642514 0.01161 0.066220202
-0.30758271 0.016633678 0.066085406
-0.32174104 0.0221754 0.069742501
-0.094809704 -0.0022149109 0.072501875
-0.087870225 -0.003158913 0.07510417
-0.055526949 -0.0053790677 0.070891693
-0.049842928 -0.0055025928 0.070110708
-0.0028909184 -0.0034060264 0.078236297
0.0071329633 -0.0020233307 0.079378158
0.011884039 -0.0019464418 0.071164444
-0.31355634 0.01304394 0.075279675
-0.031072192 0.015031585 0.075971477
0.012596159 0.011092733 0.075769626
-0.062049292 -0.0050351713 0.08523877
-0.01401336 -0.0042802449 0.080913141
-0.10947976 0.0091193104 0.086937152
-0.34885249 0.012328988 0.089916557
-0.054895923 0.015007133 0.080530964
-0.02022706 0.014073431 0.089064449
-0.062600955 -0.0049291011 0.095820554
-0.051132567 -0.0051734694 0.091535285
-0.024228886 -0.0045554982 0.090534523
0.0073798546 -0.00024631844 0.096167736
-0.34421581 0.01161 0.09394297
-0.034634952 0.01457873 0.09483058
-0.0021458631 0.012056283 0.092924953
0.0056659789 0.010619015 0.093750551
-0.03911525 -0.0045785801 0.10912602
0.005139444 0.0087365974 0.10862312
-0.071959108 0.014259668 0.10232825
-0.34375179 0.0221754 0.10873628
-0.090286084 -0.0032811989 0.11834568
-0.078897968 -0.0041145519 0.11839606
-0.11570118 0.0019888054 0.11089344
-0.072678782 0.014112574 0.11926647
-0.34114966 0.021936499 0.11045654
-0.068195403 -0.0045121554 0.12168565
-0.020197649 -0.002727956 0.12017407
-0.0076713678 0.010048044 0.12472916
-0.093617976 -0.0030874598 0.13844588
-0.066003934 -0.0044203987 0.13189957
-0.038226191 -0.003575797 0.13494806
-0.014264258 -0.0010197051 0.1306199
-0.12037885 0.0065379981 0.1326385
-0.11363701 6.2987092e-06 0.13387486
-0.10559366 0.011252008 0.13077381
-0.041035168 0.01340749 0.13672553
-0.077593617 -0.0040170122 0.14583737
-0.068072014 -0.0042073186 0.14423874
-0.051958565 -0.0039055138 0.14574917
-0.1207754 0.0020680553 0.14445865
-0.015354924 0.0087859351 0.14840689
-0.10432357 0.011630425 0.1421704
-0.022459317 0.010580612 0.14804679
-0.1100708 -0.0012087137 0.15129596
-0.062048294 -0.0038511166 0.15861112
-0.096662387 0.012600881 0.1545604
-0.079876326 0.01354687 0.15834405
-0.081068382 -0.0037321779 0.16467012
-0.056063324 -0.0034945556 0.16254504
-0.045926139 -0.002709832 0.16536427
-0.1183843 0.00016662548 0.16432843
-0.10655272 -0.0020261477 0.17220736
-0.079009876 -0.0037011779 0.17082398
-0.044774093 -0.0019747885 0.17573962
-0.034414299 -0.00062391144 0.17311895
-0.072977148 0.013307325 0.17743966
-0.066042647 0.013294154 0.17256254
-0.046346594 0.012090243 0.17256883
-0.11998891 -0.00015948822 0.18740842
-0.10152926 -0.0026076313 0.18314648
-0.13001633 0.0050840601 0.18698938
-0.11061051 0.011350298 0.18384726
-0.087138757 -0.0031886478 0.19909973
-0.077023 -0.0031362143 0.19908062
-0.044723593 -0.00085610728 0.19019111
-0.13131045 0.0054028644 0.19893019
-0.12771781 0.0079857009 0.19566177
-0.034195714 0.0017140486 0.19005233
-0.095208764 0.012722186 0.19325958
-0.068337195 0.012668797 0.19539541
-0.057285689 0.011963766 0.19378552
-0.093308277 -0.0029548693 0.20831293
-0.045106053 0.0049891034 0.20174311
-0.096804649 0.012561196 0.20807019
-0.057765312 0.011324569 0.20521812
-0.1226554 -0.00035842869 0.21619187
-0.067011409 -0.0019124309 0.21599098
-0.13306345 0.0039119879 0.21365185
-0.044985808 0.0050069857 0.21876611
-0.1190175 0.010707676 0.21761812
-0.10979609 0.011727579 0.21168652
-0.057980932 0.01067641 0.21450137
-0.11654854 -0.0013844293 0.22203986
-0.094458371 -0.0027594818 0.22251016
-0.12315051 0.010107665 0.22247753
-0.087158687 0.012277788 0.22999425
-0.069602862 0.011167271 0.22890739
-0.090224765 -0.0024108228 0.23840085
-0.075320922 -0.0015190087 0.23785627
-0.131992 0.0012837716 0.23670217
-0.11521716 0.011363152 0.23574655
-0.071578532 0.011049533 0.23435542
-0.10592963 -0.0022344112 0.2458905
-0.11058778 0.011742926 0.24554557
-0.074461415 0.010504909 0.24722505
-0.11842012 -0.0014743779 0.2580508
-0.074521214 -0.00015196402 0.25468323
-0.074534617 0.0096185692 0.25721619
-0.062405441 0.0062187356 0.25068069
-0.091788955 -0.0013622169 0.2692073
-0.086271726 -0.00084109197 0.26864353
-0.13650091 0.0080554206 0.26029584
-0.070440777 0.0077819731 0.26275805
-0.12478904 0.010604755 0.26580125
-0.11091356 -0.0018338379 0.27163595
-0.095868006 -0.0015345141 0.27149802
-0.08832781 -0.00032571034 0.27891594
-0.13307619 0.0001829596 0.27623481
-0.073963702 0.005457622 0.27522773
-0.093350723 0.011007674 0.27292269
-0.087153167 0.009286589 0.2845245
-0.11972244 0.011110523 0.28810036
-0.10907002 0.011439438 0.28021291
-0.09135516 0.010115553 0.28376585
-0.097772025 -0.00071337173 0.29146904
-0.11975857 0.011084678 0.29473436
-0.098393582 0.010272799 0.29451492
-0.12040942 -0.0012501588 0.30473921
-0.14611742 0.0042668269 0.30227381
-0.089433253 0.0040113949 0.30591908
-0.13090312 0.010374064 0.30877742
-0.12345235 0.010824112 0.30430108
-0.12383758 -0.0010946756 0.31008896
-0.11106442 0.01042104 0.3146421
-0.14393529 0.0084388042 0.32422453
-0.096661769 0.0039666174 0.32019681
-0.11626256 0.010361981 0.32453945
-0.14970809 0.003413616 0.33139187
-0.13772188 0.0061374921 0.33191651
-0.12554668 0.0075490498 0.33191788
-0.10586412 0.0029468071 0.33191353
