# .PCD v0.7 - Point Cloud Data file format
VERSION 0.7
FIELDS x y z
SIZE 4 4 4
TYPE F F F
COUNT 1 1 1
WIDTH 901
HEIGHT 1
VIEWPOINT 0 0 0 1 0 0 0
POINTS 901
DATA ascii
-0.23987228 -0.05680136 -0.25288552
-0.26468915 -0.056654967 -0.24902181
-0.22886953 -0.057504565 -0.24231604
-0.25242919 -0.055484794 -0.23053217
-0.2737228 -0.054135621 -0.22266074
-0.24871702 -0.055214263 -0.22895381
-0.20484164 -0.053384546 -0.22686046
-0.18966669 -0.050865185 -0.22114307
-0.232346 -0.053190827 -0.21714857
-0.2131682 -0.05309236 -0.21657409
-0.17184421 -0.050187994 -0.21752192
-0.17991926 -0.051616207 -0.20796186
-0.13108204 -0.048124243 -0.20648645
-0.27032357 -0.049112715 -0.19335583
-0.24230272 -0.049575705 -0.19605705
-0.15644039 -0.04879405 -0.19149667
-0.14506894 -0.045850351 -0.19432727
-0.26099032 -0.047646694 -0.18480271
-0.16084057 -0.043857932 -0.1836732
-0.15096508 -0.043829672 -0.18352212
-0.13611767 -0.044983849 -0.18969384
-0.11995854 -0.046875734 -0.18030475
-0.070360921 -0.043415561 -0.18130773
-0.22777633 -0.043144997 -0.17986095
-0.21843487 -0.046590675 -0.17864165
-0.19488394 -0.046198428 -0.17635317
-0.14054129 -0.04279907 -0.17801116
-0.1370296 -0.046468366 -0.17792805
-0.11243621 -0.043158665 -0.17993402
-0.057045773 -0.043409202 -0.17690577
-0.36276203 -0.060688641 -0.16107643
-0.24649462 -0.040384732 -0.16510098
-0.19276321 -0.043598421 -0.16118406
-0.14189021 -0.044106171 -0.16414639
-0.098317415 -0.040319562 -0.16475251
-0.089947902 -0.040177815 -0.16399455
-0.063140608 -0.044741563 -0.16785344
-0.058958862 -0.044057511 -0.1638625
-0.042965699 -0.040835723 -0.16751257
-0.21071336 -0.039873615 -0.16236788
-0.38314357 -0.062277783 -0.15965776
-0.35544464 -0.060095072 -0.15297335
-0.17560117 -0.042929381 -0.15728073
-0.12202269 -0.041720532 -0.15022799
-0.20172346 -0.038303897 -0.15397415
-0.1481103 -0.039072663 -0.15808496
-0.087938309 -0.038435578 -0.15467829
-0.039273866 -0.038729198 -0.15624836
-0.39969561 -0.056668054 -0.14874414
-0.38091201 -0.053469729 -0.14219232
-0.25076717 -0.04060977 -0.14374751
-0.24701345 -0.04063208 -0.14387769
-0.20290512 -0.040136077 -0.14098388
-0.19573021 -0.040364485 -0.14231646
-0.1714416 -0.041666828 -0.14991464
-0.13933641 -0.040964141 -0.145815
-0.11333305 -0.041383374 -0.14826091
-0.0012160316 -0.04035842 -0.14228107
-0.2270395 -0.037345782 -0.14885083
-0.21851195 -0.037193764 -0.14803794
-0.16590321 -0.037331887 -0.14877652
-0.11780719 -0.035954561 -0.14141156
-0.01144132 -0.036947362 -0.14672038
-0.0044487026 -0.037278131 -0.14848906
-0.24121769 -0.039504714 -0.13730034
-0.20551087 -0.034680299 -0.1345977
0.0086570978 -0.034703899 -0.13472389
0.019728277 -0.034703519 -0.13472188
0.031356089 -0.038006235 -0.13140376
-0.3586663 -0.051569283 -0.1268637
-0.39607933 -0.049399976 -0.12022036
-0.38266888 -0.045605332 -0.12001578
-0.33288711 -0.04698775 -0.123914
-0.23535082 -0.037881006 -0.12782721
-0.22345889 -0.0326088 -0.12352079
-0.20917414 -0.03374853 -0.12961528
-0.17888635 -0.03700792 -0.12273341
-0.12107314 -0.033194359 -0.12665194
-0.11016098 -0.037678573 -0.12664618
-0.076317057 -0.031971756 -0.12011433
-0.064252041 -0.037619587 -0.12630205
-0.01164354 -0.034743268 -0.12268127
-0.0024609566 -0.033496678 -0.12826853
0.038609002 -0.036726251 -0.12109008
-0.33064988 -0.043976583 -0.11542292
-0.20335013 -0.030362088 -0.11150696
-0.17376447 -0.035304762 -0.11279675
-0.14438492 -0.035248321 -0.11246746
-0.084153548 -0.030642958 -0.11300886
-0.054285109 -0.035907589 -0.11631382
0.025103793 -0.031754624 -0.11895326
0.037937716 -0.030260039 -0.11096127
0.070107527 -0.031092573 -0.11541307
-0.37576181 -0.044572372 -0.10543615
-0.36364001 -0.040199615 -0.10477239
-0.31621566 -0.042893004 -0.1002932
-0.36631608 -0.035172947 -0.10058407
-0.33818096 -0.036550444 -0.10256637
-0.29573053 -0.039179835 -0.10189675
-0.26758415 -0.031727143 -0.10125306
-0.21773517 -0.034127064 -0.10592576
-0.11314582 -0.034293078 -0.10689432
-0.10824024 -0.033390902 -0.10172787
-0.082841635 -0.033799611 -0.10401533
-0.074280985 -0.032878269 -0.10052693
-0.065603733 -0.033711046 -0.10349862
-0.050209306 -0.034562796 -0.10846796
-0.043060824 -0.034803431 -0.10083873
0.014693823 -0.033895228 -0.1014646
0.055898473 -0.034001 -0.10519026
0.069639698 -0.035630226 -0.10026927
0.079162069 -0.034447018 -0.10779245
0.10238108 -0.032756031 -0.10024057
-0.2164126 -0.029782638 -0.10840848
-0.16932762 -0.029993327 -0.10953508
-0.10472328 -0.029320261 -0.10593601
-0.023296602 -0.028034262 -0.1010702
-0.010248475 -0.029388616 -0.10630151
0.029375684 -0.027952336 -0.10087828
0.042275421 -0.0296544 -0.10772274
0.090183511 -0.029233396 -0.10547152
-0.1737148 -0.050249532 -0.090196848
-0.35833731 -0.048234589 -0.091585226
-0.31487906 -0.042455953 -0.098826073
-0.30923402 -0.046072245 -0.096801169
-0.27378896 -0.048226707 -0.091590658
-0.21310684 -0.045522884 -0.093453266
-0.19321342 -0.047779068 -0.091898866
-0.12983987 -0.048797235 -0.091197431
-0.085528329 -0.040818244 -0.096694708
-0.07111679 -0.04432746 -0.094277009
-0.060359873 -0.04437352 -0.0942453
0.020187657 -0.047251847 -0.092262365
0.058010969 -0.046493255 -0.092785068
0.09324196 -0.042330697 -0.09281823
-0.27336666 -0.031782553 -0.097959988
-0.20859078 -0.036357235 -0.099767976
-0.080611959 -0.031342555 -0.096929207
-0.031841874 -0.035014674 -0.095713049
0.024499975 -0.033624202 -0.090382814
0.07712993 -0.030038588 -0.09387441
0.086559005 -0.031065622 -0.096280441
0.10227773 -0.030103337 -0.094026089
-0.21930668 -0.026513994 -0.097508714
-0.16042128 -0.023716517 -0.090955161
-0.13440192 -0.024837315 -0.09358082
-0.031556886 -0.025673114 -0.095538817
0.0470341 -0.028925246 -0.091266163
0.055224366 -0.029906368 -0.093564652
0.064172268 -0.028503306 -0.090277702
-0.33155695 -0.060065344 -0.083434321
-0.37233067 -0.058922924 -0.0842214
-0.31658062 -0.056508273 -0.085884929
-0.2134008 -0.054506488 -0.087263964
-0.20200036 -0.054415829 -0.087326497
-0.19739456 -0.057764918 -0.085019097
-0.18783447 -0.053942293 -0.087652743
-0.128489 -0.050719995 -0.089872725
-0.0080106407 -0.056267105 -0.086051166
0.022197828 -0.054490134 -0.087275475
0.046242125 -0.051932439 -0.08336845
0.082059495 -0.05017896 -0.084576502
0.017153515 -0.048245933 -0.085908249
0.10574338 -0.032980878 -0.088875763
-0.31583744 -0.027761171 -0.088539094
-0.29987016 -0.026753886 -0.086179323
-0.26443464 -0.026884876 -0.086486198
-0.25001961 -0.027187753 -0.087195754
-0.2482 -0.027674083 -0.088335074
-0.22998062 -0.027492138 -0.087908827
-0.17331564 -0.025893832 -0.08416447
-0.13755436 -0.020504016 -0.083429351
-0.11679168 -0.024146562 -0.080071144
-0.1068224 -0.023098316 -0.089506924
-0.084500767 -0.028349735 -0.089917928
-0.077617429 -0.021135967 -0.084909797
-0.06190563 -0.024897445 -0.081830233
-0.044093877 -0.026968516 -0.086682141
-0.031757765 -0.025105987 -0.08231879
-0.011359595 -0.02584297 -0.084045321
-0.0071412399 -0.025957393 -0.084313385
0.039248105 -0.020231171 -0.082790159
0.043303624 -0.027678203 -0.08834473
0.056890085 -0.024484036 -0.084825598
0.073047519 -0.02613271 -0.084724091
0.082137957 -0.022040302 -0.087028354
0.095666647 -0.024964046 -0.081986263
0.11238885 -0.020891812 -0.084337816
0.043200169 -0.019920582 -0.082062557
-0.35131302 0.074743807 -0.080789596
-0.11836546 -0.074210785 -0.07368882
-0.0025927396 -0.073744997 -0.074009724
-0.36466223 -0.064417303 -0.076096222
-0.31968188 -0.064417303 -0.076964185
-0.18976799 -0.069198191 -0.07714197
-0.17195195 -0.067544736 -0.078281298
-0.10751911 -0.069557652 -0.076894589
-0.094492525 -0.065987304 -0.079354361
-0.089065559 -0.063663043 -0.073150285
-0.010684766 -0.06368506 -0.075271562
0.020019196 -0.069748409 -0.071094245
0.042061143 -0.061007835 -0.077116013
0.075199455 -0.060282018 -0.077616066
-0.40596089 -0.03605159 -0.07252603
-0.40340084 -0.0213548 -0.073530883
-0.34979603 -0.023897935 -0.079488687
-0.26599869 -0.021640584 -0.074200384
-0.16521843 -0.022920735 -0.077199399
-0.13526955 -0.021593979 -0.074091196
-0.081461102 -0.023288649 -0.078061305
-0.024150234 -0.02345605 -0.072508037
-0.0034467429 -0.024130307 -0.074087515
0.018905016 -0.024350554 -0.074603587
0.082003385 -0.025667399 -0.071743086
0.098114423 -0.023327868 -0.078153186
0.11643447 -0.020986602 -0.071990922
-0.30712086 -0.019902857 -0.070347518
-0.24107233 -0.017460436 -0.076299258
-0.20734513 -0.016058931 -0.073016003
-0.085553586 -0.016471954 -0.073983572
-0.05451588 -0.015454236 -0.071599394
-0.022249389 -0.016849961 -0.074869119
0.070044562 -0.015551262 -0.071826696
-0.36522278 0.06287463 -0.073654436
-0.30188948 0.061225675 -0.073670313
-0.34922394 0.072471581 -0.078799717
-0.17834342 -0.072220176 -0.066142872
-0.097951867 -0.075093903 -0.067837343
-0.051912852 -0.0704256 -0.062838659
-0.017102076 -0.075093903 -0.061034691
0.020214785 -0.0704256 -0.063689895
0.038573239 -0.075093903 -0.069392055
0.05265335 -0.0704256 -0.066206135
0.069740988 -0.0704256 -0.060594883
0.071542516 -0.0704256 -0.069939844
-0.3070077 -0.064417303 -0.06435094
-0.41708636 -0.048526198 -0.063251629
-0.39840221 -0.048526201 -0.063264072
-0.41362181 -0.034347728 -0.068429992
0.081620157 -0.032696001 -0.061637133
-0.40474999 -0.022851307 -0.061045729
-0.053354312 -0.02697875 -0.065575957
0.0424213 -0.025716294 -0.066445716
0.11025146 -0.024705529 -0.069489792
0.15680297 -0.021527674 -0.062816486
0.1754809 -0.022444461 -0.061576273
-0.32568076 -0.012798604 -0.063344315
-0.21078736 -0.017409451 -0.069625013
-0.16171418 -0.012051112 -0.061274208
-0.15470032 -0.015359428 -0.069030978
-0.12570804 -0.011748986 -0.060911894
-0.0071190298 -0.013062698 -0.064341813
0.015643075 -0.013999671 -0.067880824
0.085279502 -0.013417118 -0.065680489
0.11136545 -0.011948336 -0.060133226
0.12067499 -0.014031404 -0.067913868
-0.38211036 0.042037629 -0.062667325
-0.37817961 0.046936829 -0.065593012
-0.35528314 0.040309705 -0.060380936
-0.31154388 0.041987795 -0.064382464
-0.32564163 0.052687142 -0.06679447
-0.29878497 0.052114096 -0.066887416
-0.095789909 -0.070410818 -0.055698872
-0.082916833 -0.0704256 -0.051723961
0.0044145221 -0.0704256 -0.05400769
0.015773896 -0.0704256 -0.056285463
0.080867052 -0.0704256 -0.05678425
-0.3460474 -0.064417303 -0.056079172
-0.29459935 -0.064417303 -0.05297856
-0.094775006 -0.065025799 -0.051154204
-0.40560293 -0.055598963 -0.05855988
0.026853088 -0.048371024 -0.05083802
0.094193012 -0.048028201 -0.051074207
-0.38229594 -0.032643002 -0.057368465
-0.069299266 -0.039680734 -0.056825086
-0.040884834 -0.039184947 -0.057166655
0.23509559 -0.021103751 -0.058543693
0.15055124 -0.012418186 -0.059957668
-0.28174105 -0.0031679729 -0.050245915
-0.26791632 -0.0058170552 -0.053797871
-0.12221898 -0.0046779173 -0.052431569
-0.10569024 -0.0091912486 -0.057844352
-0.036772352 -0.0052965852 -0.053173617
0.019967508 -0.0068125078 -0.054991625
-0.38145185 0.024478791 -0.051887617
-0.37512326 0.026806178 -0.054046072
-0.36851925 0.027882466 -0.054830678
-0.29390892 0.025095867 -0.055065759
-0.28842688 0.0234516 -0.054251932
-0.35374138 0.030271977 -0.054547545
-0.19117904 -0.070673853 -0.042866003
-0.13958946 -0.07486853 -0.047288395
-0.067007154 -0.075093903 -0.040341735
-0.048407331 -0.0704256 -0.042642929
-0.039259821 -0.0704256 -0.048326448
-0.0030329898 -0.075093903 -0.044390313
0.034309924 -0.075093903 -0.046275783
0.051805235 -0.0704256 -0.04334303
0.073214382 -0.0704256 -0.042289868
-0.35921067 -0.064417303 -0.047147017
-0.31681484 -0.064417303 -0.0488794
-0.24140471 -0.065275103 -0.046729267
-0.06436412 -0.06119886 -0.042000443
-0.0042234557 -0.062396646 -0.041175246
-0.0066324072 -0.05952011 -0.043157
0.04352513 -0.053425036 -0.047356121
0.058638223 -0.055456441 -0.045956612
0.075754777 -0.052095555 -0.048272051
0.097079031 -0.052900922 -0.042048097
0.16601621 -0.051394984 -0.042031687
0.096458569 -0.04806019 -0.047286414
0.13103409 -0.041558761 -0.049597338
0.15503737 -0.045608088 -0.046266194
0.18459409 -0.045918763 -0.044992805
0.19091304 -0.042700365 -0.046925198
0.25800368 -0.042285226 -0.041820217
-0.39192009 -0.032643002 -0.048330784
0.23172718 -0.011002874 -0.043446414
0.26452422 -0.012969985 -0.040907014
0.27504963 -0.014536031 -0.042227868
0.28074387 -0.015255196 -0.042458784
-0.36205792 -0.006693861 -0.040558983
-0.34803772 -0.0063939574 -0.043100342
-0.29377013 -0.0039573037 -0.049047865
-0.28191426 -0.0011316281 -0.04021978
-0.26130897 -0.0026463016 -0.049995109
-0.24551913 -0.00027648345 -0.042875744
-0.15708627 -0.0015278249 -0.048653882
-0.05002813 -0.0013986961 -0.048498951
0.020636395 -0.00096711644 -0.041255727
0.086494237 -0.0073999958 -0.042954691
0.17135841 -0.0098507768 -0.048702676
0.19408323 -0.0092129158 -0.043458857
-0.39201233 0.0081422385 -0.042716656
-0.37424019 0.0039082346 -0.040847793
-0.3654944 0.0069710249 -0.041385144
-0.34558466 0.0087118307 -0.041898195
-0.29814708 0.002809542 -0.042094033
-0.2803784 0.00024023253 -0.041049778
-0.18596755 0.0013934918 -0.04514996
-0.094130225 0.0026511895 -0.043642003
-0.076263167 0.0029119039 -0.041505992
-0.059700988 0.0029691365 -0.040231436
-0.017951064 0.0028866257 -0.04206894
-0.37824279 0.014382383 -0.045979138
-0.36451784 0.015354318 -0.046673667
-0.33317631 0.022716254 -0.049677033
-0.17170599 -0.072887979 -0.038349472
-0.065789402 -0.075093903 -0.03854499
-0.038217016 -0.070350684 -0.035695415
0.0063577797 -0.075093903 -0.038010869
0.049594879 -0.0704256 -0.038944516
0.067743562 -0.0704256 -0.037958249
0.07508564 -0.075093903 -0.032704692
-0.39536613 -0.064417303 -0.032956023
-0.32538375 -0.064417303 -0.033774808
-0.23245347 -0.06588041 -0.032106142
-0.012594059 -0.064508244 -0.039720487
0.083533831 -0.067419522 -0.035617057
0.15133469 -0.062421318 -0.034766305
0.21544819 -0.064648889 -0.030679915
-0.40921041 -0.05247575 -0.033919379
0.091612622 -0.059726544 -0.03734557
0.10589026 -0.058150269 -0.038431548
0.20505705 -0.054460507 -0.038185239
0.23421642 -0.059438497 -0.032576572
-0.38254035 -0.048526201 -0.030185211
0.25659198 -0.047491603 -0.038392469
-0.41655946 -0.03106283 -0.037460238
0.30207309 -0.03759446 -0.037976142
0.32791904 -0.031731442 -0.036582477
0.34410986 -0.028483791 -0.033917625
0.26532549 -0.012408178 -0.038435448
0.29263079 -0.015855376 -0.039179061
0.321383 -0.018304013 -0.032768071
-0.36097518 -0.002913896 -0.03556639
-0.3393082 -0.0033844772 -0.034759272
-0.30606654 -0.0026812942 -0.038728181
-0.26025134 -0.00067717559 -0.030316573
0.097300947 -0.004316356 -0.031308196
0.15335587 -0.0060947277 -0.035900086
-0.36419773 0.0035200072 -0.039360654
-0.33919528 0.0026185357 -0.038222328
-0.31880349 0.0044993311 -0.038804285
-0.2250354 0.0013018928 -0.032758325
-0.18570967 0.0025412082 -0.037674028
-0.11351405 0.0033870556 -0.030924406
0.026473206 0.00035856059 -0.030776029
0.1443159 0.0068767141 -0.030422248
-0.13485743 -0.074985795 -0.026633678
-0.12586007 -0.074984625 -0.026623707
-0.10027644 -0.072608285 -0.023690388
-0.063647211 -0.0732999 -0.024544191
0.054655179 -0.075093903 -0.02755744
0.082380503 -0.072368331 -0.023394145
0.19000538 -0.0730884 -0.024282862
-0.38712746 -0.064417303 -0.025093596
-0.28703904 -0.064417303 -0.026782928
-0.21786788 -0.067213029 -0.021836735
0.26662576 -0.060985785 -0.027798504
-0.4090865 -0.050886258 -0.020303812
-0.40408719 -0.048017431 -0.022359177
-0.39199239 -0.048454873 -0.022714119
0.36374751 -0.036163215 -0.024030477
-0.40474999 -0.024215605 -0.021977842
0.36945832 -0.029204909 -0.024045475
0.28511932 -0.011194831 -0.025213314
-0.39550924 -0.006544278 -0.025841258
-0.38861543 -0.0065697348 -0.027650066
-0.35196286 -0.0058753057 -0.028722374
-0.33525312 -0.005256976 -0.028494138
0.17133656 -0.0033313425 -0.024082348
0.24918848 -0.0081931185 -0.027843568
0.26553196 -0.0083860811 -0.023152152
-0.19814768 0.0026324114 -0.027658112
-0.16235703 0.0033368452 -0.029432826
-0.07870619 0.0032646195 -0.022844076
-0.035477214 0.0015612879 -0.020801481
-0.01547424 0.0036531 -0.024999615
0.00097436085 0.0036187475 -0.025764646
0.14770144 0.0073469491 -0.029711125
0.079449743 0.020012524 -0.02435001
-0.34537616 -0.064417303 -0.018351149
-0.21877564 -0.06452065 -0.013706828
-0.16868877 -0.064417303 -0.012607924
-0.012669869 -0.066723071 -0.014801329
0.0060700104 -0.064417303 -0.010434769
0.18057992 -0.066314682 -0.015921406
0.2942228 -0.065428451 -0.017224673
-0.40474999 -0.058420084 -0.015172719
0.36197573 -0.043540578 -0.019467294
-0.40474999 -0.026798094 -0.010909834
0.35015249 -0.017900329 -0.011387089
-0.36737001 -0.0057312185 -0.016442528
-0.32400477 -0.0046989061 -0.01329374
-0.088477343 -0.00061739061 -0.017337877
0.22679281 -0.0031942218 -0.015184921
0.25342336 -0.0044177137 -0.012263968
0.27393773 -0.0060023693 -0.010482594
-0.025780898 0.00077005394 -0.012097468
0.078736171 0.00090645516 -0.011582281
0.20590831 0.003853773 -0.01499365
0.16101126 0.021066956 -0.013600219
-0.33899847 -0.064417303 -0.0077007189
-0.27093893 -0.064417303 -0.008030694
-0.26768008 -0.064417303 -0.0068653282
-0.25902858 -0.064417303 -0.0091632903
-0.16278049 -0.064417303 -0.0010654163
-0.077513732 -0.064417303 -0.0017099493
-0.028023802 -0.064417303 -0.0095511526
0.044411935 -0.064417303 -0.0032771926
0.054185115 -0.064417303 -0.0082862843
0.088144027 -0.064417303 -0.0034185718
0.22075829 -0.064417303 -0.0097579462
0.32637042 -0.060669236 -0.0051436038
0.35934904 -0.05440288 -0.0019793161
0.34876299 -0.01546593 -0.0032324407
-0.23738226 -0.0098926397 -0.00035087281
-0.20826483 -0.0075834361 -0.009833701
-0.021898648 0.0016296315 -0.0088509433
0.0038959049 0.0026342515 -0.0050566476
0.02583766 0.0039553237 -6.7161578e-05
0.048139729 0.0013879252 -0.0097638303
0.052410685 0.0021895918 -0.0067360601
0.098348752 0.0017552299 -0.0083765993
0.1148824 0.002297374 -0.0063290177
0.21792069 0.0040028631 -0.0083852001
0.17866664 0.018978916 -0.0088452538
0.0014703067 0.020962747 -0.0052736769
0.035176311 0.025279233 -0.0051321127
0.12363425 0.028217856 -0.0013158272
-0.39401639 -0.064417303 0.0021603294
-0.35816267 -0.064417303 0.0018372368
-0.34395933 -0.064417303 0.0035212636
-0.27684432 -0.064417303 0.0035868508
-0.25965229 -0.064417303 0.0025467165
-0.044794224 -0.064417303 0.0082653025
0.015566785 -0.064417303 0.0045667593
0.026867002 -0.064417303 0.0079664774
0.057358749 -0.064417303 0.0085159708
0.34301609 -0.057649061 0.0026145997
0.35485792 -0.055302944 0.0092703002
0.37193394 -0.051701628 0.0060244985
-0.40474999 -0.039346803 0.0084138801
-0.34224322 -0.0098926406 0.0051365029
-0.29371744 -0.0098926397 0.00036685122
-0.093310371 0.0022692818 0.0064348741
-0.058176368 0.0098590069 0.0078991372
-0.049812391 0.0015921155 0.0089928471
-0.020648846 0.0029436345 0.0038880261
0.083973408 0.0024848443 0.005620461
0.11595458 0.0024066912 0.0059157009
0.1271552 0.0032943764 0.0020720505
0.22538716 0.0058799163 0.0013085904
-0.03112315 0.015390299 0.0055023693
0.043897502 0.025922595 0.0058183572
0.16756836 0.022297705 0.0058418666
-0.30381072 -0.064417303 0.01268961
-0.29252255 -0.064417303 0.019070251
-0.24934907 -0.064877376 0.018252801
0.020210747 -0.065271325 0.014633251
0.039055482 -0.065272398 0.014634562
0.11399312 -0.064417303 0.012098605
0.17008896 -0.064417303 0.012079142
0.19649214 -0.064697817 0.013925357
0.21291736 -0.067424133 0.017290421
0.31556484 -0.062453359 0.014694666
-0.40474999 -0.046220437 0.013191555
0.34877476 -0.049105965 0.019277947
0.35170484 -0.018339932 0.011885475
-0.29924437 -0.0029613897 0.01907818
-0.27499866 -0.0012466651 0.018746482
-0.26578531 -0.0005651986 0.018979453
-0.031365149 -0.00078103895 0.017955603
0.17719461 -0.0019260712 0.018043593
0.18871745 -0.0024368865 0.018535746
0.24164337 -0.0053619798 0.019503009
-0.13491252 0.00034821802 0.019345975
-0.080963135 0.0013951159 0.010427689
0.022658858 0.0223362 0.011001093
0.083580241 0.025122872 0.016665908
-0.1776967 -0.072287455 0.028144468
-0.14646019 -0.070342742 0.020893414
-0.13909733 -0.074571811 0.026113685
-0.050102443 -0.071734443 0.022611037
0.071903452 -0.073834188 0.025202781
0.089273751 -0.074675187 0.026240977
0.21182363 -0.070726492 0.021366641
-0.33475277 -0.064417303 0.02424375
-0.20673546 -0.068521596 0.025443286
0.15234627 -0.069702156 0.02010248
0.20804393 -0.067802042 0.028858528
0.25431404 -0.065175265 0.026465703
0.30540115 -0.055700067 0.024901688
0.33085138 -0.041497964 0.029192146
-0.41013879 -0.031033758 0.020067155
-0.39707762 -0.032643002 0.027349766
-0.38744673 -0.032643002 0.029783566
0.075448878 -0.0018366644 0.021942297
0.15714799 -5.9599995e-05 0.029355809
0.16177666 -0.0031042956 0.024080103
0.22317436 -0.004910023 0.022567712
0.25502512 -0.0069278236 0.021244353
0.27065712 -0.009434592 0.024876982
-0.22153126 0.0016008592 0.029906638
0.0067727538 0.00353248 0.027684323
0.17958459 0.00030739838 0.024152685
-0.18782172 -0.071105994 0.036441132
0.0077209319 -0.075093903 0.034054227
0.044448756 -0.075093903 0.034478821
-0.27415109 -0.064417303 0.034780517
0.10495967 -0.064740412 0.033890761
0.24185701 -0.057720605 0.03300618
0.25155935 -0.055873521 0.033184774
0.31160641 -0.04232619 0.032961421
0.31109068 -0.039998978 0.034681045
0.33125138 -0.037746299 0.031686611
0.33996359 -0.02127042 0.031738795
-0.3931759 -0.0036535591 0.03601402
-0.37267971 -0.004793826 0.035304084
-0.36919418 -0.0064143823 0.030733638
0.062735505 -0.0053335838 0.035149857
0.093847416 -0.0014809044 0.034380116
0.1039508 -0.0022814556 0.034227587
0.12116875 -0.00098625966 0.033749007
0.1363616 -0.0053357948 0.034092613
0.14147225 -0.0067954836 0.039286911
0.19671294 -0.0060592275 0.031219654
-0.39356112 0.00016179727 0.03814736
-0.27586037 0.0069118952 0.039135553
-0.25202307 0.0066785258 0.038411688
-0.23252684 0.0014475336 0.033239283
-0.20747504 0.003926456 0.038777005
0.12631282 0.0010707029 0.033398677
-0.18660656 -0.071262404 0.047933824
-0.14819175 -0.074545182 0.04978678
-0.063509479 -0.0704256 0.043523826
-0.0081057902 -0.0704256 0.043264084
0.0020898357 -0.075093903 0.046372108
-0.39191514 -0.064417303 0.040417105
-0.058627471 -0.05684863 0.044996981
-0.0070204213 -0.056312695 0.045366205
0.0901023 -0.0554033 0.045992725
-0.41931146 -0.048865817 0.045038044
0.10511737 -0.046925701 0.046164237
0.17333893 -0.045824468 0.045565292
0.22051287 -0.037420608 0.048981618
0.27749753 -0.03767984 0.042138763
-0.40474999 -0.024089074 0.040040236
-0.40474999 -0.015297437 0.047337487
-0.40450823 -0.0073694927 0.043565575
-0.35800827 -0.0067487396 0.044245116
-0.12244207 -0.0019889844 0.049206525
0.083773561 -0.0081286086 0.045707125
0.10251783 -0.0069946581 0.04142366
0.12730011 -0.0073104715 0.042116143
0.17131221 -0.0086749597 0.044267114
-0.38141489 0.007929964 0.042992402
-0.37318984 0.0063115559 0.041194424
-0.28027499 0.0073605566 0.045162894
-0.27084169 0.006729058 0.045031402
-0.23542157 2.5665489e-05 0.046790298
-0.19444218 0.0020427699 0.043253548
-0.17078678 0.0027359193 0.040136531
-0.13364229 8.3392428e-05 0.046721138
-0.12334261 0.0028896164 0.042001732
-0.35669714 0.014301902 0.045400001
-0.30129325 0.01962607 0.04710459
-0.29214892 0.013339717 0.043249197
-0.26253664 0.010624192 0.040949538
-0.22343193 0.011453561 0.043052487
-0.32432249 0.021947792 0.049014188
-0.1596349 -0.073877007 0.058568995
-0.12398496 -0.075093903 0.055856846
-0.085591644 -0.0704256 0.055078425
-0.075481594 -0.075093903 0.051405303
-0.019635398 -0.0704256 0.056148965
0.011476812 -0.0704256 0.052791189
0.037101779 -0.0704256 0.053723235
0.049382988 -0.075093903 0.056865275
0.052647144 -0.075093903 0.056805357
-0.3881008 -0.064417303 0.056221351
-0.3691906 -0.064417303 0.055528969
-0.27633056 -0.064417303 0.051430874
-0.09297812 -0.063831694 0.056283828
0.015108611 -0.044639528 0.053408287
0.063879102 -0.046367809 0.05221761
-0.41262764 -0.032643002 0.055060327
-0.39713615 -0.032643002 0.051600575
-0.060450017 -0.03568719 0.059575889
0.21622111 -0.031791065 0.053229917
0.15123183 -0.027025595 0.05915406
0.22565845 -0.023900498 0.057832174
-0.2257459 -0.010461228 0.059367403
-0.041734405 -0.010093126 0.058925942
0.018119825 -0.010734038 0.059694592
0.27108032 -0.018129045 0.051208116
-0.32644913 -0.007414775 0.055713691
-0.28358781 -0.0076597282 0.056007523
-0.15507869 -0.00637653 0.054468572
-0.14395769 -0.0068773199 0.055069171
-0.076933876 -0.0091136321 0.057751216
-0.069481559 -0.003245638 0.050713647
-0.053158637 -0.0037069451 0.051266901
-0.036682695 -0.0041337525 0.051778771
-0.38757488 0.027682493 0.05424419
-0.32205212 0.025862327 0.054812569
-0.31435508 0.023405386 0.053584252
-0.23693787 0.027347002 0.053455211
-0.39040774 0.037821889 0.059812304
-0.35345975 0.031495582 0.057288829
-0.30446106 0.031984501 0.0587819
-0.29804152 0.031487755 0.053872541
-0.18042596 -0.071993411 0.06514436
-0.15769921 -0.074007019 0.062704779
-0.13452864 -0.074991807 0.063852742
-0.083924495 -0.073537797 0.064211443
-0.075230658 -0.072759748 0.065774232
-0.066519864 -0.0704256 0.064453334
-0.053929299 -0.0704256 0.062755302
-0.043205 -0.07509391 0.065901004
0.037547596 -0.07509391 0.068306006
-0.28161964 -0.064417303 0.062598765
-0.25180548 -0.06477268 0.062977105
-0.19791648 -0.069729716 0.068376154
-0.41592664 -0.030858802 0.063823104
-0.38697571 -0.032643002 0.063167028
-0.028936859 -0.028397549 0.064597994
0.00047783554 -0.029712208 0.063692272
0.16045135 -0.02372833 0.061217643
0.2150688 -0.020817533 0.060911421
-0.37297684 -0.015893934 0.069185361
-0.3534303 -0.01224589 0.061507776
-0.30257714 -0.014731039 0.068848394
-0.2934612 -0.014865438 0.068887338
-0.21351954 -0.013900443 0.067505613
-0.19589463 -0.01164928 0.060792252
-0.18229899 -0.012642294 0.062753841
-0.17380269 -0.012961157 0.063958123
-0.13770425 -0.011476498 0.060585033
-0.11685505 -0.016569445 0.069381103
-0.076878972 -0.016473632 0.069548622
-0.069814816 -0.013055025 0.064312644
-0.058068916 -0.013189721 0.064821362
0.03065588 -0.016879229 0.069470868
0.042017847 -0.013506803 0.066018924
0.07250151 -0.012556959 0.06243147
0.11064145 -0.013335285 0.065371022
-0.39414245 0.039320145 0.060769614
-0.38652912 0.047958095 0.065568537
-0.33961481 0.045364883 0.062911876
-0.2706688 0.040728856 0.060691107
-0.36710918 0.054505598 0.068868741
-0.35875455 0.054127518 0.068443984
-0.29409009 0.055773791 0.069814019
-0.056735467 -0.075093903 0.071862295
-0.043705169 -0.071334854 0.075669691
0.049580358 -0.073787771 0.073979758
-0.37984139 -0.064417303 0.074197926
-0.34988317 -0.064417303 0.07031031
-0.22547874 -0.066465177 0.074545339
-0.19059557 -0.06671942 0.078849301
-0.15041488 -0.067306489 0.07844501
-0.056299739 -0.067801774 0.078103796
-0.049729813 -0.068369403 0.07771273
-0.015821893 -0.069606349 0.071191609
-0.083003521 -0.053487252 0.076056272
-0.40474999 -0.034763895 0.075123511
-0.074829914 -0.039144747 0.078517459
-0.40277106 -0.022382496 0.075937867
-0.39626795 -0.022116289 0.075314231
-0.212358 -0.022567056 0.076370224
-0.067451254 -0.021385038 0.073601156
-0.05418152 -0.025630878 0.071657032
-0.046129301 -0.028267823 0.077834383
-0.036480851 -0.023222836 0.071961142
-0.020706775 -0.028472595 0.078314081
-0.005912669 -0.028167004 0.077598199
0.0028040763 -0.023166098 0.077773586
0.020749729 -0.021979902 0.074994728
0.055193607 -0.024225844 0.076292597
0.062341876 -0.023487121 0.072580248
0.08819405 -0.022633022 0.07256119
0.098652773 -0.020604463 0.071772531
0.10462296 -0.024028488 0.07979387
0.11306086 -0.020401085 0.071296088
-0.26417434 -0.018473864 0.071933627
-0.25651181 -0.019793527 0.078911409
-0.20463443 -0.019174179 0.070135862
0.071760148 -0.016514359 0.074082337
-0.34443626 0.059463434 0.071170919
-0.33433694 0.053198922 0.07029181
-0.3489424 0.065612592 0.074832544
-0.31055903 0.063909352 0.074488074
-0.38024935 0.072616398 0.079649769
-0.29398644 -0.060308449 0.083266601
-0.20920758 -0.064082094 0.080666795
-0.059545666 -0.06359756 0.081000276
-0.040657904 -0.062938243 0.081454508
-0.39153624 -0.058190778 0.08472532
-0.35103178 -0.05929688 0.08396326
-0.30423629 -0.059944876 0.083517015
-0.19609509 -0.056879699 0.085628539
-0.1870494 -0.054865558 0.087016158
-0.16166446 -0.054793652 0.087065697
-0.052742802 -0.055789579 0.080710605
-0.016366243 -0.055876318 0.086319819
0.016274039 -0.054757319 0.08709076
0.033892561 -0.051616121 0.083585881
0.064023204 -0.059132323 0.084076613
0.093394421 -0.050228603 0.084541798
-0.032491852 -0.043452192 0.089210369
0.085645638 -0.044376057 0.088573873
-0.058430407 -0.031335298 0.085020296
0.010722748 -0.03208483 0.086776167
0.049283858 -0.032905005 0.088697515
-0.3598336 -0.025360497 0.082914323
-0.33469731 -0.027159991 0.087129936
-0.26329079 -0.025656782 0.086342797
-0.24115607 -0.026142769 0.084746927
-0.17761737 -0.02716402 0.087139383
-0.1584392 -0.026132427 0.084722698
-0.11089909 -0.027576666 0.088106073
-0.09076 -0.027791316 0.088608921
-0.084754668 -0.025031809 0.08214432
-0.061738834 -0.025999829 0.084412068
-0.052481733 -0.020246746 0.082825944
-0.035342336 -0.024378419 0.080613643
0.062729344 -0.026939675 0.086613819
0.073735222 -0.023694031 0.084956057
-0.40053537 -0.040508296 0.099121466
-0.30211252 -0.040640414 0.099101409
-0.22415206 -0.043338895 0.094957411
-0.18963796 -0.046446115 0.09281671
-0.075444132 -0.047274303 0.092246152
-0.063228324 -0.0499143 0.090427324
-0.054827169 -0.042211086 0.09006542
-0.036036897 -0.044373795 0.094244458
0.057361618 -0.046715874 0.092630908
0.073799893 -0.040248219 0.09141773
0.085681394 -0.04428231 0.094307519
-0.36487833 -0.030437108 0.094807126
-0.32681566 -0.030645955 0.095296383
-0.30112672 -0.030604701 0.095199749
-0.28769368 -0.032263599 0.099085987
-0.23579751 -0.031846628 0.098109163
-0.17327149 -0.038995117 0.097950064
-0.12655768 -0.030056 0.093914315
-0.11372963 -0.031335503 0.096911766
-0.098137558 -0.031254694 0.096722461
-0.060948476 -0.031087164 0.096329987
-0.0093484409 -0.03675203 0.099495478
0.062360778 -0.032509685 0.099662483
0.075615421 -0.035406824 0.094558328
-0.25375429 -0.028568413 0.090429403
-0.23721139 -0.029038049 0.0915296
-0.074648477 -0.029745787 0.0931876
-0.056445174 -0.026507836 0.097493365
0.017101454 -0.029627301 0.092910022
0.073047891 -0.025740163 0.095694996
-0.37491921 -0.041457795 0.10831973
-0.30604705 -0.041908048 0.10958937
-0.34092802 -0.03928104 0.10218161
-0.30469963 -0.039834499 0.10374229
-0.29528895 -0.039923422 0.10399304
-0.21305525 -0.034788486 0.10084824
-0.18017803 -0.032782823 0.10030235
-0.15410325 -0.035493508 0.1003625
-0.01467835 -0.032904454 0.10505395
0.027779628 -0.034527488 0.10551392
-0.15334164 -0.028388161 0.10189828
0.058201127 -0.029293684 0.10579292
0.077779055 -0.028199345 0.10145595
-0.37747145 -0.048991412 0.11896854
-0.36820269 -0.049094453 0.1192841
-0.34927878 -0.043608546 0.11438452
-0.27347797 -0.035079453 0.11251529
-0.25227138 -0.035260428 0.11253711
-0.22121088 -0.035457551 0.11368717
-0.19140749 -0.030569199 0.11261351
-0.11125913 -0.034903541 0.11045494
-0.094249576 -0.031713091 0.11873028
-0.081781641 -0.031597301 0.1181111
-0.0749356 -0.033912539 0.11808881
-0.065519691 -0.031670246 0.11850117
0.014996322 -0.03121822 0.11608402
0.073340259 -0.034466136 0.11388169
-0.21929885 -0.031998441 0.12025613
-0.13921371 -0.03745839 0.12536056
-0.082503513 -0.03769885 0.12676345
-0.070506945 -0.036668573 0.12075257
0.0025549084 -0.032632489 0.1236466
0.024432197 -0.037399627 0.12501773
0.041322179 -0.033531174 0.12845215
-0.3300072 -0.05284933 0.1366192
-0.24314409 -0.034751564 0.134978
-0.19047239 -0.034572389 0.13401988
-0.10928928 -0.038388547 0.13078734
-0.082196936 -0.03903804 0.13457663
-0.014389779 -0.034363005 0.13290024
-0.34360436 -0.056512274 0.14606118
-0.24102609 -0.040814601 0.14494154
-0.10726659 -0.04092405 0.1455801
-0.067765221 -0.040437408 0.14274091
-0.029903006 -0.041333105 0.14796664
-0.19893374 -0.035981089 0.14155267
-0.024361715 -0.036110099 0.14224252
0.0048486404 -0.035936713 0.14131537
-0.39304307 -0.061887346 0.15846118
-0.38108742 -0.056858744 0.15174803
-0.36509028 -0.057973571 0.15489165
-0.2708582 -0.041177824 0.15126297
-0.10373127 -0.041828588 0.15085739
-0.099261448 -0.041966088 0.15165959
-0.052815039 -0.042777218 0.15639195
-0.023232266 -0.042123459 0.15622255
-0.24675333 -0.038144805 0.15312275
-0.16623044 -0.039076805 0.15810648
-0.091527507 -0.03788273 0.15172136
-0.033446774 -0.038738154 0.1562956
-0.38999206 -0.061869375 0.16587722
-0.2726036 -0.044191651 0.16464411
-0.26661125 -0.044977039 0.16922624
-0.1838181 -0.043878585 0.1628176
-0.14483839 -0.041299805 0.16999358
-0.074627168 -0.044683028 0.16751093
-0.16384703 -0.039698634 0.1614316
-0.19399592 -0.042586878 0.17687601
-0.17635697 -0.04234786 0.17559788
-0.1476039 -0.045574747 0.17271343
-0.11467811 -0.042617753 0.1770411
-0.0838302 -0.046771295 0.1796944
-0.070904776 -0.04563427 0.17825383
-0.26128098 -0.045497023 0.1880447
-0.24353537 -0.046954993 0.18076614
-0.21366416 -0.044872247 0.18909661
-0.12475082 -0.046487123 0.18506873
-0.10276757 -0.04813806 0.18766844
-0.23707575 -0.045604859 0.19301414
-0.21926381 -0.049412813 0.1951057
-0.17758684 -0.049141433 0.19352235
-0.13449375 -0.049916677 0.19804536
-0.1222368 -0.045385703 0.19184224
-0.1067159 -0.047046881 0.19994441
-0.26983863 -0.051395152 0.20667115
-0.16650027 -0.051056482 0.20469525
-0.17476097 -0.047919437 0.20539096
-0.27221808 -0.052537248 0.21589215
-0.24100755 -0.052076451 0.21064602
-0.22206885 -0.052538872 0.21334389
-0.20247903 -0.052990779 0.21598043
-0.19763148 -0.051589932 0.21679327
-0.22472839 -0.050746907 0.22051036
-0.19180752 -0.051119089 0.22250053
-0.17300889 -0.053299323 0.22482863
-0.22003143 -0.056507733 0.23649924
-0.21657 -0.055806253 0.23240662
-0.19745515 -0.05562675 0.23135936
-0.18814066 -0.053416822 0.23478724
-0.27319169 -0.057764035 0.24382882
-0.21357113 -0.055756602 0.24579844
