# .PCD v0.7 - Point Cloud Data file format
VERSION 0.7
FIELDS x y z
SIZE 4 4 4
TYPE F F F
COUNT 1 1 1
WIDTH 838
HEIGHT 1
VIEWPOINT 0 0 0 1 0 0 0
POINTS 838
DATA ascii
-0.083996072 -0.032089338 -0.29194382
-0.074645504 -0.033699691 -0.28193402
-0.051774513 -0.035070609 -0.28116715
-0.078026101 -0.0338341 -0.27698478
-0.067165419 -0.032924466 -0.27531171
-0.070936963 -0.035249308 -0.26215032
-0.043703765 -0.032834254 -0.26443258
-0.03117221 -0.034673959 -0.26080504
-0.064221822 -0.035173278 -0.25865322
-0.026321797 -0.037757844 -0.25201726
-0.043825328 -0.040436268 -0.23022193
-0.042303555 -0.040764015 -0.22767054
-0.045263931 -0.042307258 -0.21371663
-0.014011471 -0.037944686 -0.21777163
-0.046349771 -0.042437803 -0.20815514
-0.012411328 -0.045084495 -0.20378345
-0.002786275 -0.043594971 -0.20596637
-0.051009931 -0.046193957 -0.1919702
-0.046307888 -0.04360174 -0.19118664
-0.037176576 -0.04977154 -0.19117919
0.0026905779 -0.040908024 -0.19626299
-0.025535472 -0.044217166 -0.18606693
-0.011650477 -0.041291736 -0.18534467
-0.0045202831 -0.041422911 -0.18362686
0.0070544267 -0.044302851 -0.18328056
-0.0093715191 -0.048159935 -0.17553611
0.0024979394 -0.048309974 -0.17725389
-0.023845186 -0.051353298 -0.16965812
-0.035255078 -0.046961337 -0.16235772
-0.024612945 -0.04562128 -0.16370478
-0.014044395 -0.044808049 -0.16296887
0.016522296 -0.049779702 -0.16065255
0.019220404 -0.051094107 -0.15189105
-0.020502305 -0.046348717 -0.15631624
0.029609814 -0.048464302 -0.15966108
0.032808397 -0.046393424 -0.15271646
-0.03948503 -0.05475774 -0.14319998
-0.014066556 -0.051290926 -0.14235353
-0.00010991713 -0.055209547 -0.14471358
-0.0089326501 -0.046993446 -0.1452174
-0.012166095 -0.05186813 -0.13157201
0.074349679 -0.080670431 -0.12107003
0.10140646 -0.087682739 -0.12061703
-0.020361168 -0.051209953 -0.1254134
0.00053536729 -0.053708144 -0.123114
0.0054092179 -0.049326278 -0.12084234
0.063720375 -0.099652141 -0.11105714
0.11408342 -0.095440611 -0.11575686
0.047670156 -0.080335215 -0.11839963
0.075256534 -0.086711764 -0.11449714
0.094224058 -0.088366352 -0.11453582
0.062975958 -0.075616136 -0.11905459
0.08689256 -0.077966824 -0.11457924
0.10718344 -0.074768364 -0.11260275
0.11466099 -0.07582055 -0.11364626
-0.016674036 -0.052205987 -0.11651241
0.039026886 -0.055227023 -0.11686958
0.047649264 -0.055185184 -0.1112003
0.013818542 -0.049580704 -0.11107881
0.04945498 -0.049428534 -0.11153267
-0.37061703 -0.012519918 -0.11247218
-0.36901134 -0.012646772 -0.11042495
0.068380289 -0.10224106 -0.10723799
0.1126498 -0.10307954 -0.10053042
0.089739837 -0.0971523 -0.10495519
0.099518999 -0.093129396 -0.10650159
0.106227 -0.098361805 -0.1026501
0.017992647 -0.072929099 -0.10100251
0.11079441 -0.071029469 -0.10933751
-0.0046745609 -0.063936956 -0.10252279
0.035128646 -0.068259105 -0.10781011
0.046376288 -0.067272812 -0.1078884
0.057334229 -0.06708803 -0.10002254
0.073238961 -0.060262248 -0.10353563
0.099518999 -0.069131888 -0.1036246
0.10763157 -0.069858544 -0.10726997
-0.016651116 -0.054591399 -0.10713238
0.0038353598 -0.05101978 -0.10530832
0.058011331 -0.055103138 -0.10457758
0.078849286 -0.057494648 -0.10350892
0.080389656 -0.058877204 -0.10351032
0.051409878 -0.049642503 -0.10869923
-0.35013282 -0.015275519 -0.10064583
0.054200493 -0.10042283 -0.096262611
0.036402524 -0.093570262 -0.095774792
0.047484562 -0.091606468 -0.091117278
0.089687824 -0.096949875 -0.093817651
0.099518999 -0.090420172 -0.097471893
0.099518999 -0.087606624 -0.095763758
0.067449667 -0.072093382 -0.099399142
0.082141586 -0.071986333 -0.090133972
0.10723406 -0.070417434 -0.09270902
0.11200318 -0.071147874 -0.091461368
0.059340246 -0.062796026 -0.098780036
0.074867308 -0.062189341 -0.098843545
0.10660438 -0.063630447 -0.094389923
0.11782987 -0.065190241 -0.095109969
-0.010927082 -0.055601344 -0.091564715
0.024263274 -0.059425686 -0.094066024
0.06583041 -0.05163046 -0.096610263
0.094884992 -0.059171006 -0.098847002
0.027935173 -0.04961732 -0.098582648
0.044867765 -0.049223743 -0.099648468
-0.36011395 -0.01364652 -0.097069457
-0.35233951 -0.016382769 -0.095652536
0.047731012 -0.091916777 -0.085857965
0.068763874 -0.099871926 -0.08891733
0.11031832 -0.091260582 -0.082058653
0.053502392 -0.082618684 -0.084053919
0.081564292 -0.081964791 -0.085745096
0.099518999 -0.089439914 -0.089370653
0.071532935 -0.078417815 -0.08336331
0.095145762 -0.07418751 -0.088446088
0.10857485 -0.074763268 -0.085216939
-0.02216321 -0.068101026 -0.081574783
0.011986187 -0.066110201 -0.083716057
0.074196152 -0.06568978 -0.088850468
0.094211392 -0.068422511 -0.085658357
-0.014868093 -0.059223071 -0.081427544
-0.0055692634 -0.059525024 -0.0829615
0.077395782 -0.056940012 -0.080257908
0.0035082693 -0.091123909 -0.070562921
0.09349741 -0.082577407 -0.079758078
-0.0054406687 -0.06045875 -0.077506095
0.0038962364 -0.065144248 -0.072262101
0.014770313 -0.065776542 -0.071457788
0.01397849 -0.054193098 -0.075979508
-0.36225408 -0.018172532 -0.071684569
-0.35379577 -0.015268726 -0.079050183
0.00047833231 -0.099087916 -0.0675193
0.0076821186 -0.088903107 -0.06225444
0.040434085 -0.051916294 -0.064917907
0.058118183 -0.051267035 -0.062549368
0.083913267 -0.057920523 -0.06990575
-0.36337891 -0.018732518 -0.061268616
-0.35036266 -0.01984904 -0.060080495
0.00074951194 -0.10752853 -0.059260719
0.0096729975 -0.094469763 -0.059675802
0.012114599 -0.092948139 -0.059675805
0.0063371039 -0.07901299 -0.052052878
-0.0055444706 -0.064143449 -0.055908807
0.001276169 -0.064614646 -0.053918753
0.022766743 -0.065390699 -0.0517997
0.046516258 -0.052674476 -0.053669911
-0.31828713 -0.020812951 -0.050114803
-0.36540535 -0.018441334 -0.053706538
-0.35763466 -0.018512258 -0.059359226
-0.33227354 -0.017200384 -0.057827674
0.028540071 -0.067456082 -0.040352326
0.035403259 -0.066954516 -0.044952549
0.053182192 -0.067551821 -0.042579047
0.040598411 -0.054274548 -0.049696416
0.058437958 -0.052545395 -0.043173365
0.11888334 -0.080651671 -0.030005287
-0.040694125 -0.074646994 -0.033000562
-0.036715742 -0.071255147 -0.034312837
-0.0075750756 -0.076385304 -0.030872159
0.057381332 -0.073538035 -0.034155652
0.064746365 -0.070896365 -0.034946099
0.10012807 -0.075185344 -0.03417822
0.11974549 -0.077204347 -0.032211475
-0.11905474 -0.06172226 -0.030089241
-0.050753076 -0.063354142 -0.031071654
-0.013596233 -0.0646635 -0.036486868
0.0020482584 -0.062292226 -0.038405068
0.04149602 -0.061754782 -0.034386601
0.054777522 -0.068699621 -0.034743112
0.066858239 -0.066483371 -0.0345289
0.11433595 -0.064035118 -0.032669213
-0.1406433 -0.050194342 -0.032565705
-0.080746762 -0.053907812 -0.031823028
-0.030812576 -0.052799981 -0.032044653
0.013544334 -0.051973876 -0.032209788
0.068535022 -0.059584729 -0.0345289
0.081319153 -0.054890342 -0.034799948
0.095998555 -0.051368386 -0.032330886
0.20170018 -0.057141107 -0.030182807
0.30992889 -0.050010443 -0.031515341
-0.1935063 -0.045897815 -0.031502455
-0.16406114 -0.044806615 -0.033583153
-0.15920851 -0.047795273 -0.033045538
-0.12828459 -0.040166944 -0.033932827
-0.11913013 -0.047480222 -0.033108551
-0.096290976 -0.044315964 -0.033741426
-0.084224582 -0.044364244 -0.033731773
-0.062889889 -0.049464099 -0.032711893
0.081630349 -0.043436952 -0.033917237
0.1311062 -0.048073437 -0.033002328
0.2189289 -0.044551887 -0.033749558
-0.21687713 -0.033651896 -0.030197704
-0.19575869 -0.030992117 -0.030644242
-0.11726093 -0.034134567 -0.032726318
-0.081270084 -0.039990325 -0.033897504
0.022554606 -0.039075755 -0.033714622
0.16288941 -0.032065645 -0.032393198
0.18722185 -0.033864014 -0.032752775
0.19159143 -0.036545146 -0.03328893
0.22563851 -0.036353569 -0.033250611
0.30045745 -0.038078759 -0.032901157
-0.32924896 -0.023099808 -0.033635844
-0.30752081 -0.020579955 -0.039097369
0.095855609 -0.028038673 -0.031151649
0.27448079 -0.027634781 -0.031063672
-0.013881171 -0.0813246 -0.028253244
0.046434607 -0.081324607 -0.025739845
0.079125054 -0.0813246 -0.023197964
0.09835621 -0.0813246 -0.02278815
0.10011747 -0.081226952 -0.029711589
-0.12781966 -0.070235401 -0.021576095
-0.02672044 -0.077425718 -0.025524657
0.013043979 -0.079764187 -0.022316817
0.03643626 -0.077507146 -0.029694296
0.067152329 -0.077328429 -0.029861167
0.090501666 -0.079308107 -0.025419012
0.11106645 -0.073376499 -0.029280782
-0.16348597 -0.060955644 -0.027509524
-0.14656799 -0.067731753 -0.021532895
-0.1232579 -0.069636077 -0.022175414
-0.1122879 -0.064344682 -0.027466821
-0.070668027 -0.068045877 -0.021067394
-0.066278636 -0.063815787 -0.025529999
-0.054774106 -0.066648453 -0.024455152
0.021359518 -0.06702444 -0.022581054
0.04395657 -0.063556999 -0.025764473
0.13335843 -0.067701623 -0.02048428
0.15219776 -0.06582237 -0.02391368
0.17077327 -0.06810721 -0.02370429
0.18639573 -0.065771759 -0.023976862
0.20119372 -0.069005787 -0.022805711
0.22054376 -0.060799181 -0.027656771
0.23312531 -0.067822963 -0.021426583
0.2437225 -0.069690473 -0.021876786
0.27757415 -0.068366513 -0.020621013
0.3015942 -0.06561815 -0.024168003
0.32359949 -0.06366279 -0.024155699
-0.23605677 -0.051852841 -0.025009211
-0.2086022 -0.052452445 -0.029080022
-0.14220735 -0.059425645 -0.028571341
-0.1275811 -0.058446497 -0.029229082
0.13240997 -0.054890145 -0.029855054
0.16625392 -0.058911622 -0.028903987
0.26997149 -0.05833102 -0.029358625
0.30608761 -0.057613552 -0.029172096
0.35984558 -0.052041963 -0.020205198
-0.24849001 -0.047256038 -0.025486385
-0.23145616 -0.040166985 -0.029433412
0.34158975 -0.041800041 -0.025617423
-0.26509324 -0.037842248 -0.025175339
-0.21986517 -0.030211441 -0.029296704
0.32558936 -0.034900725 -0.028888021
0.35346323 -0.039929781 -0.020019609
-0.27275068 -0.021738738 -0.021963105
-0.2550309 -0.0220275 -0.023446657
-0.22287589 -0.020344798 -0.024129901
-0.21892634 -0.026414702 -0.028349496
-0.20793462 -0.024244759 -0.027285147
-0.041750766 -0.025261018 -0.029357992
-0.020447688 -0.020216255 -0.025979429
0.025363393 -0.021220025 -0.02663639
0.05646779 -0.021944314 -0.027136672
0.076723509 -0.023679692 -0.028298892
0.17753947 -0.021135611 -0.026737515
0.22058989 -0.022285916 -0.027503427
-0.15452552 -0.017105546 -0.023520594
-0.13753077 -0.017876435 -0.024412338
-0.091459215 -0.016359629 -0.022406835
-0.058979023 -0.019685123 -0.025623746
-0.026170729 -0.017545501 -0.02417751
-0.015469933 -0.018566757 -0.024874775
0.036678988 -0.016693903 -0.022904927
0.099351704 -0.017849671 -0.024394395
0.15683515 -0.019805916 -0.025852459
0.18720269 -0.015561334 -0.021474363
0.20756854 -0.016452886 -0.022809912
-0.029926445 -0.0813246 -0.018132141
0.047589872 -0.0813246 -0.016282003
0.079210624 -0.0813246 -0.013357175
0.082039014 -0.081324607 -0.01568808
0.10022289 -0.081324592 -0.013191851
0.1187244 -0.081296153 -0.013018327
-0.20274815 -0.07163363 -0.010615929
-0.17087826 -0.073998362 -0.012674426
-0.15053625 -0.075420529 -0.011645004
-0.14873479 -0.074059546 -0.017221984
-0.12939048 -0.075233653 -0.013521352
-0.090566009 -0.07576324 -0.017576773
-0.05342957 -0.079417095 -0.017763298
-0.042685576 -0.076803841 -0.018869892
-0.031060949 -0.078598529 -0.018303001
0.093550183 -0.079892993 -0.01635693
0.14598867 -0.073733494 -0.016920103
0.15758069 -0.074287288 -0.019339327
0.17781308 -0.073556393 -0.011818488
0.18892029 -0.072742812 -0.013812397
0.19589885 -0.075082064 -0.014099204
0.21659112 -0.072831184 -0.013932421
0.25014359 -0.073256597 -0.018339135
0.29006663 -0.070225529 -0.017862927
0.31562108 -0.071637414 -0.014234096
-0.23793727 -0.063210323 -0.012480656
-0.20529923 -0.065581292 -0.018000819
-0.14381942 -0.06924779 -0.019286305
-0.090998821 -0.069456451 -0.018977085
0.03295777 -0.069394097 -0.019069497
0.13526195 -0.069476694 -0.018854208
0.1762301 -0.06990844 -0.017927673
0.29645681 -0.069092304 -0.019574171
0.33711761 -0.066501059 -0.019073814
-0.33593178 -0.022032233 -0.014790296
-0.30478144 -0.015276016 -0.013812229
-0.25425577 -0.015939115 -0.019440573
-0.10155966 -0.011768448 -0.015551554
-0.04736387 -0.012162506 -0.016139939
-0.031261206 -0.013645089 -0.018353645
-0.014427699 -0.01198118 -0.015869191
-0.0046897801 -0.01149823 -0.015148079
0.002325295 -0.014461829 -0.019573152
0.030067571 -0.010053823 -0.012714406
0.19691387 -0.01378301 -0.01881096
0.24871026 -0.012126337 -0.019046089
0.25252473 -0.01274012 -0.017249152
0.28363079 -0.013854126 -0.018917657
0.30502263 -0.014913131 -0.017711597
-0.046491005 -0.0097906655 -0.011398596
0.038601108 -0.0098995054 -0.011942803
0.29424956 -0.10556424 -0.003333315
-0.014282661 -0.0813246 -0.0041429894
-0.0019217972 -0.080889449 -0.0066286018
0.02863764 -0.080620438 -0.0023467604
0.036386341 -0.080696516 -4.8254751e-05
0.077102087 -0.080597684 -0.0025992065
0.12909409 -0.080312841 -0.0018233396
-0.21915451 -0.071351424 -0.0017540974
-0.17001772 -0.074656174 -0.0032489072
-0.1679531 -0.075711504 -0.0036994256
-0.15207207 -0.07499098 -0.0049665277
-0.14824508 -0.074595168 -0.0069924882
-0.13755977 -0.077165708 -0.0061563789
-0.11527261 -0.078101963 -0.0025873587
-0.096813098 -0.074966781 -0.0050904155
-0.089253604 -0.076928198 -0.0095216678
-0.034158986 -0.079046078 -0.0027214794
-0.014645734 -0.075861 -0.00051339867
0.054599017 -0.075411387 -0.0027093086
0.13674378 -0.07399331 -0.0054397434
0.15563379 -0.07691931 -0.0030958585
0.187259 -0.07591708 -0.0006601878
0.20724785 -0.075596511 -0.0023311567
0.24323332 -0.074091993 -0.0096331313
0.27885547 -0.074603997 -0.0069688438
0.329588 -0.072940327 -0.0098027959
0.3565751 -0.071049139 -0.0029243068
-0.25431409 -0.064198993 -0.0078033106
-0.23906982 -0.066509232 -0.008163318
0.30547258 -0.066230088 -0.00038276851
0.37480092 -0.063308597 -0.0090301111
-0.31613427 -0.04564961 -0.0018389208
-0.38518375 -0.021590251 -0.0041447375
-0.36687347 -0.026841687 -0.0071918387
-0.38298178 -0.017080955 -0.0002903821
-0.3733947 -0.017088942 -0.003454606
-0.34601247 -0.013247127 -0.0016451462
-0.34825376 -0.0056977011 -2.9082687e-06
-0.31342101 -0.0061538806 -0.0028090142
-0.30500761 -0.0072704889 -0.0044948524
-0.27567661 -0.0055117528 -0.0062544579
-0.26354203 -0.0084192203 -0.0026881781
-0.23750344 -0.0095324609 -0.0095183253
-0.21108878 -0.0088353027 -0.0051235831
-0.14455411 -0.0090258718 -0.0075745559
-0.12411977 -0.0079133632 -0.0020119043
-0.10617192 -0.0079766931 -0.0023285607
-0.081389159 -0.0093590952 -0.0092407018
-0.05862207 -0.0094923489 -0.0099069858
0.017575853 -0.008463067 -0.0047604768
0.048039962 -0.0075126211 -8.1544877e-06
0.053597227 -0.00853064 -0.0050983485
0.062311526 -0.0089922193 -0.0074062892
0.07318756 -0.0082773548 -0.0038318946
0.083940834 -0.0094878683 -0.009884581
0.25566417 -0.0084614679 -0.0054390151
0.2880342 -0.0089250384 -0.0062728324
-0.34629691 0.0056204754 -0.00040983132
-0.31027979 0.0031100095 -0.0041683735
-0.33333698 0.014418312 -0.0015912175
-0.29286796 0.011078011 -0.0041320422
-0.26068571 0.0112187 -0.00052911934
-0.3041113 0.021833753 -0.0030840782
-0.33209953 0.032974936 -0.0019897283
-0.3171699 0.035554804 -0.0031993638
-0.29582864 0.032667335 -0.0041645234
-0.28676862 0.032465614 -0.0027545434
-0.31270635 0.049520738 -0.0021596635
-0.30798733 0.045247938 -0.0020484033
-0.35185832 0.059912585 -0.0017136416
-0.29854012 0.055002049 -0.001404017
-0.31663603 0.061366528 -0.003399556
-0.34365779 0.077713117 -0.0017649622
-0.35588673 0.088327952 -0.0010350477
-0.33650663 0.091093801 -0.0011966815
-0.3367404 0.10129393 -0.00012210634
0.29194349 -0.10510594 0.0011007395
-0.018879142 -0.0813246 0.0047664675
-0.0017600884 -0.080622673 0.0026839843
0.0075038504 -0.0813246 0.00091250695
0.014087878 -0.0803812 0.0094545269
0.035268914 -0.080376931 0.0092967516
0.054520741 -0.080381334 0.0089138662
0.074463665 -0.080803484 0.0041278549
0.090457313 -0.0813246 0.0083401501
-0.20565514 -0.071650408 0.00077271496
-0.19562943 -0.074555352 0.0029556667
-0.15599126 -0.075538367 0.0020289416
-0.13031849 -0.077196963 0.005202339
-0.11537233 -0.074159771 0.0091811912
-0.10462247 -0.076230034 0.0048966208
-0.091500901 -0.079102144 8.8143948e-05
-0.045614697 -0.074083887 0.0095735937
-0.038955774 -0.078218237 0.008197315
-0.021193031 -0.074591137 0.0069505507
0.054711334 -0.074012846 0.0098979305
0.15026399 -0.076732561 0.0097146332
0.17792957 -0.076103359 0.0093711633
0.23797409 -0.075004235 0.0052880491
0.25952363 -0.074038461 0.0097155981
0.26615119 -0.075024754 0.0047844611
0.27668038 -0.076260448 0.0052279811
0.29511899 -0.071996465 0.0020038784
0.31174943 -0.075220659 0.0033742203
0.32542413 -0.074715607 0.0039769146
0.33816576 -0.074755505 0.0017265878
0.34091669 -0.074384108 0.0018851917
-0.25356326 -0.065155953 0.0037285106
-0.2455959 -0.065475807 0.0073479312
0.37239766 -0.06593129 0.0064678821
0.38300961 -0.05271776 0.0070824558
-0.33640423 -0.038226396 0.0064215027
-0.34050167 -0.017286528 0.0099505782
-0.33715272 -0.012645785 0.0021584481
0.33670259 -0.017425055 0.0017897917
-0.32973969 -0.007404604 0.0015633248
-0.31877643 -0.006506566 0.0040270453
-0.2976169 -0.0070283823 0.0033790702
-0.2828525 -0.0061325878 0.00675361
-0.27434963 -0.0088611227 0.0043472266
-0.24428107 -0.0054642931 0.0014558093
-0.23327345 -0.0083515821 0.0033216854
-0.19329272 -0.0092165973 0.0069779772
-0.18181643 -0.0093406914 0.0079558659
-0.16508043 -0.0087926611 0.0062714559
-0.15544932 -0.0088252388 0.0065548783
-0.13782173 -0.0086639188 0.0057503455
-0.087578148 -0.007755056 0.0012176995
-0.079206631 -0.0082798367 0.0038348613
-0.067173198 -0.0075678467 0.0002840521
-0.015767436 -0.0089578237 0.0072161024
-0.00081028172 -0.0079294965 0.0020876634
0.012448063 -0.0081267767 0.0030715296
0.044342548 -0.0092350719 0.0085987803
0.087493546 -0.0085334629 0.0050997445
0.10436898 -0.0086416006 0.0056390408
0.11740149 -0.0088735018 0.0067955707
0.21911773 -0.0074452981 0.00034482614
-0.29665881 0.00059849798 0.0032971953
-0.34495926 0.019681957 0.00093074469
-0.32862732 0.01103965 0.0035501821
-0.33031914 0.028754514 0.0033000682
-0.32626137 0.021232666 0.0035507304
-0.28040883 0.025945086 0.0030353819
-0.27237561 0.025063643 0.00048327525
-0.34465748 0.034870509 0.001092225
-0.29474705 0.035490602 0.0025690759
-0.35507995 0.047227658 0.0012049358
-0.32895961 0.047758251 0.0033633611
-0.33115691 0.056015812 0.0032235342
-0.32818055 0.05501553 0.0034031572
-0.30410811 0.053589471 0.0010772393
-0.29769826 0.055040464 0.00080995419
-0.35847944 0.068796746 0.00069947529
-0.34180468 0.062917896 0.0027727787
-0.35943267 0.075756252 0.00070396607
-0.34144264 0.077924713 0.0018694069
-0.32543561 0.073788717 0.001306843
-0.34406784 0.080401398 0.0025109164
-0.34795856 0.10641988 0.0020891814
0.018569902 -0.080274142 0.011703586
0.033587907 -0.0813246 0.01016175
0.04304368 -0.080723882 0.013645897
0.075968146 -0.0813246 0.017846663
0.081390038 -0.08080852 0.014438286
-0.15533164 -0.071506694 0.015930835
-0.13577461 -0.074260101 0.016397625
-0.12249206 -0.075808212 0.010496253
-0.053130448 -0.079446524 0.01058438
-0.04818416 -0.073549397 0.012337528
-0.022685723 -0.071958378 0.015263531
-0.019323593 -0.072297759 0.014762143
0.088793918 -0.079944134 0.018486546
0.114903 -0.077729218 0.015549986
0.13460054 -0.075358912 0.014033644
0.15610999 -0.073624201 0.013153938
0.16721082 -0.075854942 0.010318097
0.171895 -0.072993346 0.017008103
0.194224 -0.073141024 0.017835621
0.22167629 -0.074328668 0.016136259
0.26351488 -0.072416633 0.014521744
0.2731986 -0.073434293 0.014323412
0.30527368 -0.074317843 0.012745247
0.327966 -0.07350418 0.010356104
-0.24799134 -0.061846443 0.010668187
-0.22588441 -0.065517887 0.016303843
-0.21532777 -0.06852822 0.010284811
-0.10324122 -0.069397144 0.019047379
-0.088412397 -0.06990426 0.018298186
0.30498648 -0.069379963 0.018574722
0.33662236 -0.066139042 0.019823838
0.34297478 -0.068144873 0.015226115
0.35614175 -0.066413276 0.013154483
-0.27274713 -0.054698251 0.011547383
0.36158317 -0.0538771 0.019570701
0.37056914 -0.05257985 0.015770445
-0.29185927 -0.043162547 0.017874524
-0.31428802 -0.031931225 0.017277053
0.35663059 -0.038453531 0.015927952
-0.35809007 -0.022424959 0.010201406
-0.34102947 -0.023908459 0.018872263
-0.33391368 -0.024911981 0.014002193
-0.31393316 -0.027223311 0.017752867
0.34505922 -0.029078342 0.017364489
-0.27960438 -0.015539222 0.01725059
-0.26596278 -0.012797328 0.014230195
-0.25483179 -0.014409254 0.017211802
-0.19267285 -0.013024528 0.016512692
-0.16754922 -0.014823975 0.019928379
-0.11521766 -0.012148507 0.016085662
-0.028620344 -0.010125589 0.013039938
0.023830621 -0.014435509 0.019500513
0.047865361 -0.010898389 0.014219044
0.091020368 -0.01395551 0.018783798
0.15955585 -0.013318851 0.018082405
0.24763325 -0.010602558 0.014232695
0.25036964 -0.010617285 0.01403636
0.26074916 -0.010976089 0.014573736
-0.043809712 -0.0099859433 0.012343506
0.047089614 -0.0096573886 0.010704945
0.23520334 -0.0099931667 0.013083686
-0.017633328 -0.081324592 0.023932427
-0.0049917661 -0.0813246 0.021607123
0.054276243 -0.0813246 0.025472673
0.065726534 -0.0813246 0.022110492
0.10027827 -0.0813246 0.024408493
0.12080593 -0.080952734 0.020018388
-0.10255827 -0.070527598 0.020724375
-0.01131082 -0.078296587 0.02839531
0.0084617473 -0.078391127 0.028091075
0.04591015 -0.079587936 0.024524167
0.11518037 -0.075147949 0.023545293
-0.22144738 -0.061374556 0.02030891
-0.19877318 -0.063871473 0.021531004
-0.15285586 -0.062681057 0.027884535
-0.1365591 -0.065910921 0.023108661
-0.12883747 -0.062413711 0.028563343
-0.10700245 -0.062540039 0.027376221
-0.074836276 -0.062304638 0.02660406
-0.058495134 -0.066617742 0.028319292
-0.037831113 -0.06287013 0.026224198
-0.004727399 -0.063278988 0.025949553
0.048814811 -0.068385653 0.020533904
0.17599039 -0.064109474 0.026867507
0.21210612 -0.066598877 0.024378018
0.22977853 -0.062810019 0.026325513
0.25395459 -0.06760484 0.021728374
0.27681646 -0.066173822 0.024055934
0.28776395 -0.065514363 0.024452345
0.3018876 -0.064513519 0.024854301
0.32960483 -0.060120918 0.025243793
0.3383069 -0.064011373 0.020465007
0.34798154 -0.061170608 0.020751959
-0.2253177 -0.058152221 0.022604998
-0.19803588 -0.05639343 0.027337475
-0.16964233 -0.058305323 0.028668962
0.34179395 -0.053982504 0.02567946
-0.23155604 -0.049417812 0.027383555
-0.29265296 -0.038200483 0.020577522
-0.2843045 -0.037702218 0.022105535
0.3195869 -0.034011349 0.029879088
-0.34623837 -0.020324966 0.023375224
-0.30617473 -0.023621317 0.026681541
-0.26646864 -0.024449591 0.023910683
-0.20047356 -0.021485951 0.025604207
-0.094635099 -0.024163881 0.028589828
-0.066745847 -0.021468265 0.026784547
-0.035495989 -0.020404337 0.026072031
0.081208609 -0.024692254 0.028943665
0.1195938 -0.022065807 0.027184699
0.13700786 -0.02399352 0.028525351
0.17594969 -0.02131415 0.02682293
0.23603138 -0.025212204 0.029417614
0.2863726 -0.025720812 0.029606327
0.29530087 -0.024806088 0.028441012
-0.33137155 -0.019641196 0.027630251
-0.31506699 -0.019847017 0.028039474
-0.27598187 -0.019899003 0.020473758
-0.11312775 -0.01622103 0.022166567
-0.088291623 -0.015254191 0.020722931
-0.054012459 -0.018305102 0.024666313
0.0053539467 -0.016530994 0.022629395
0.11278867 -0.018124385 0.02454507
0.20363551 -0.018071298 0.024664285
0.2119717 -0.017336525 0.024099967
0.24409485 -0.019075466 0.025332652
0.27754694 -0.018066091 0.024660811
0.0036207093 -0.072509035 0.033845007
0.040332474 -0.078147367 0.031153906
0.059219636 -0.079113945 0.030439295
0.087785482 -0.07428436 0.032757677
0.098376818 -0.075100005 0.033406898
0.10108216 -0.070942156 0.034144707
-0.053175971 -0.063478343 0.030836619
-0.038365833 -0.068131566 0.031531915
0.0043334356 -0.069451295 0.034367945
0.038440619 -0.063563712 0.0345289
0.078544788 -0.060153686 0.034386601
0.096910194 -0.066757344 0.034111701
-0.17876294 -0.052821428 0.031001061
-0.062270571 -0.055050783 0.03069178
-0.043786325 -0.058109343 0.032344483
-0.036234405 -0.052027881 0.032700833
-0.024318315 -0.059699148 0.033711951
-0.014639342 -0.054317728 0.032488894
0.015944447 -0.055441536 0.032909758
0.04529899 -0.057511155 0.035447504
0.067449756 -0.054141983 0.036399234
0.074575543 -0.055848114 0.033179633
0.088761844 -0.051637024 0.032243833
0.093373351 -0.056241371 0.0345289
0.13496175 -0.054452028 0.031703357
0.19062693 -0.055354729 0.031551789
0.25057346 -0.050782889 0.032473128
-0.19212522 -0.044984683 0.031732131
-0.13256639 -0.045798279 0.033411559
-0.094110332 -0.048206072 0.032929998
-0.086260758 -0.0487631 0.032818589
0.037308164 -0.045998696 0.033371467
0.057847917 -0.042734761 0.03402428
0.086300902 -0.047694851 0.033032291
0.13048036 -0.042608242 0.034061328
0.18772264 -0.046316758 0.033462971
0.1989225 -0.043201786 0.034017704
0.25580147 -0.047911838 0.033045877
0.30222914 -0.049923759 0.032080412
0.31229633 -0.047508389 0.03180062
-0.2041346 -0.036383562 0.031358629
-0.19186485 -0.036123972 0.031770892
-0.17407334 -0.036632396 0.032680787
-0.092584729 -0.030341171 0.031934053
0.0078395186 -0.036177233 0.033101618
0.01310089 -0.038562447 0.033578597
0.045825481 -0.032700092 0.032405987
0.07714352 -0.033871479 0.032640323
0.10371162 -0.036449842 0.03315613
0.11684178 -0.03166369 0.032198615
0.16727532 -0.038549595 0.033656504
0.25080729 -0.039282307 0.033803076
0.308617 -0.037105314 0.031980351
-0.36531955 -0.020219965 0.036463983
-0.30530658 -0.021179445 0.035908733
-0.12076218 -0.026802998 0.030357271
-0.10454742 -0.029354101 0.031736724
-0.011598869 -0.028693654 0.031604689
0.12656219 -0.026681203 0.030283704
0.16477339 -0.026743682 0.030437112
0.21220024 -0.027818806 0.0311528
0.2402202 -0.029399872 0.031826593
0.25697631 -0.029192854 0.03178519
0.26877719 -0.027871016 0.031187465
0.0057041678 -0.071723767 0.044668727
-0.012965118 -0.06401021 0.042552769
-0.0024108388 -0.066294223 0.043663114
0.064609237 -0.065380268 0.048866089
0.094695285 -0.060865592 0.045294043
0.045442343 -0.055082858 0.040100161
0.088559076 -0.053884901 0.042629536
-0.31607103 -0.019057229 0.049823802
0.010827967 -0.094541095 0.056909285
0.0088084554 -0.074502349 0.052780151
0.018675385 -0.063934624 0.059867509
0.028909963 -0.064594373 0.0571669
-0.36498684 -0.018393837 0.053612582
-0.34434214 -0.01691784 0.059014522
0.0082043018 -0.10376263 0.066034831
0.0044583082 -0.092283666 0.064914629
0.013812582 -0.099837579 0.0675193
0.0046770084 -0.082390837 0.06305033
0.005987105 -0.072441474 0.061392568
0.014461097 -0.076264709 0.064519182
0.0043241177 -0.062625386 0.065916419
0.037390072 -0.051862225 0.068072908
0.051062327 -0.051162172 0.064453274
0.060858872 -0.051102057 0.065544784
0.076795891 -0.052263089 0.060379401
0.083367243 -0.053757563 0.063639164
-0.36372524 -0.018735001 0.060389493
0.012245121 -0.10853159 0.072821923
0.0045857094 -0.090989858 0.073775895
0.013846592 -0.090774149 0.076268621
0.0011745171 -0.074577868 0.073797539
0.0063934303 -0.066074274 0.072042458
0.033264294 -0.063021913 0.07194069
0.046080492 -0.063501276 0.070231736
-0.010575518 -0.059956804 0.079866648
0.054709673 -0.050471041 0.07700187
0.073143281 -0.058714829 0.07253921
-0.35699978 -0.01729528 0.076571435
-0.34334406 -0.015529897 0.075765632
-0.33748257 -0.017565884 0.071614727
0.074086718 -0.10040578 0.088917539
0.046022814 -0.09117049 0.086024001
0.081959002 -0.091787674 0.088954464
0.049252223 -0.082484633 0.082157344
0.052843213 -0.083700314 0.081764266
0.090371981 -0.084571697 0.08566016
0.11534271 -0.087046288 0.081482783
0.062730014 -0.075023293 0.082005695
0.076863587 -0.077281274 0.080522329
0.038279563 -0.062002786 0.080461763
0.043411434 -0.06116648 0.0837937
0.085288435 -0.065124437 0.089731872
-0.01458536 -0.058667231 0.08204715
0.02787061 -0.051198091 0.082875714
0.073034875 -0.056617081 0.085187733
-0.36188817 -0.017507901 0.080930024
0.03863629 -0.09290611 0.090919554
0.11720771 -0.098817021 0.093964264
0.080569521 -0.070328288 0.092150532
-0.0026354792 -0.06316366 0.098118864
0.027009679 -0.063437 0.098534659
0.059965156 -0.062833786 0.097894058
0.071766332 -0.063102476 0.094146751
0.081623293 -0.069475658 0.093604632
0.094891161 -0.068217121 0.099878475
0.1063788 -0.065246485 0.091180936
-0.0056598736 -0.054730255 0.091746256
0.0099070203 -0.058089163 0.094953783
0.042271215 -0.058036059 0.099259958
0.052469984 -0.057646424 0.093137503
0.066437505 -0.055811159 0.094548248
0.031680856 -0.049849842 0.093045183
-0.37122083 -0.015490163 0.095231727
0.064169109 -0.10221475 0.10511006
0.090374619 -0.097741492 0.1052217
0.11600266 -0.098654494 0.10214712
0.071237497 -0.071737982 0.10206484
-0.0015667309 -0.060657755 0.10348639
0.0070798206 -0.06733977 0.10139556
0.037510555 -0.068755083 0.10808372
0.055879243 -0.064050488 0.10703519
0.073725842 -0.065687433 0.10353799
0.10104398 -0.064094596 0.10314909
0.11359037 -0.068578519 0.10375911
-0.01613934 -0.055491567 0.10591469
0.035592239 -0.057825252 0.10546728
0.04070868 -0.056456812 0.10834343
0.057733003 -0.05048741 0.10701124
0.065457329 -0.053896762 0.10217795
0.030005109 -0.049088694 0.10210061
0.077646032 -0.099364355 0.11347859
0.10469002 -0.097697616 0.11507279
0.11403817 -0.095620446 0.11560132
0.056744881 -0.084272712 0.11970259
0.077632487 -0.08192423 0.11519487
0.11611047 -0.085462339 0.1157555
0.039884806 -0.07053034 0.11240244
0.064593345 -0.079182863 0.11475573
0.081684455 -0.075370327 0.1133956
0.0993426 -0.075284973 0.11318988
0.11808065 -0.073120072 0.11530777
-0.0058741458 -0.05504673 0.11996186
0.00012697186 -0.050448935 0.11418725
0.038560711 -0.055407096 0.1161103
0.055125795 -0.054243933 0.11170892
0.042394549 -0.048547044 0.11644814
-0.36635944 -0.012758742 0.11606701
0.084186845 -0.084331162 0.12113804
-0.012006278 -0.055221219 0.1234311
0.0092257783 -0.054287061 0.1249035
0.030778203 -0.055358924 0.12172996
0.0078380741 -0.04913415 0.12067086
0.038727939 -0.047903582 0.12964885
0.043651439 -0.04870002 0.12589791
-0.0079506645 -0.049059581 0.13067807
0.043241452 -0.048343483 0.13595656
-0.025646852 -0.054205 0.14319098
-0.010767803 -0.057367112 0.14224118
0.014295226 -0.051236499 0.15416722
-0.02740252 -0.0487964 0.15013897
0.016754329 -0.044186063 0.15762997
0.025750227 -0.045468949 0.15079677
-0.022286564 -0.047902759 0.16549462
-0.012484457 -0.043891817 0.16825382
0.016387058 -0.048194073 0.16929346
-0.034739509 -0.046372935 0.17200747
-0.017944444 -0.047452956 0.17528476
-0.0064733783 -0.042122424 0.17704555
0.0013040677 -0.042485006 0.17363422
0.020584013 -0.044473782 0.17667352
-0.033883795 -0.045232892 0.1868805
0.016118051 -0.045802642 0.18236586
-0.043950692 -0.049301103 0.19129917
-0.036657918 -0.044662431 0.19127847
-0.021536805 -0.043458324 0.19084254
-0.015876809 -0.045513224 0.19885652
-0.043071773 -0.042938933 0.20545056
-0.053217124 -0.049237661 0.21478397
-0.043360632 -0.04278918 0.21451147
-0.030128818 -0.042989224 0.21346499
-0.022144699 -0.041767694 0.22772358
-0.056394547 -0.039718077 0.22549164
-0.021817422 -0.036798187 0.22713825
-0.051731043 -0.037794758 0.23310207
-0.049607344 -0.039885864 0.2329365
-0.060257502 -0.03777305 0.24897619
-0.051606469 -0.038939487 0.24146943
-0.044949822 -0.034779496 0.24876778
-0.023289172 -0.036086574 0.24655306
-0.043669939 -0.033617798 0.2572813
-0.07283178 -0.03551276 0.26125914
-0.031167146 -0.036320906 0.26276746
-0.062136784 -0.034748249 0.27844369
-0.057580668 -0.032114021 0.27414522
-0.069544248 -0.031043723 0.28918746
-0.056524727 -0.033928435 0.28940943
-0.084214225 -0.031547308 0.29534635
-0.079151034 -0.032419808 0.29347709
-0.064962514 -0.030274015 0.29110757
-0.054914482 -0.030097378 0.29026437
-0.086088225 -0.024695702 0.29550701
-0.06091335 -0.029617116 0.2947008
