# .PCD v0.7 - Point Cloud Data file format
VERSION 0.7
FIELDS x y z
SIZE 4 4 4
TYPE F F F
COUNT 1 1 1
WIDTH 925
HEIGHT 1
VIEWPOINT 0 0 0 1 0 0 0
POINTS 925
DATA ascii
0.030121308 -0.019653667 -0.28346995
-0.046592001 -0.022133123 -0.2799713
0.041184619 -0.01964253 -0.27692237
-0.02663118 -0.022382721 -0.26266801
-0.075365193 -0.024215532 -0.25520018
-0.059266068 -0.021574216 -0.25017864
0.010169607 -0.021884004 -0.25028601
-0.062392525 -0.021668265 -0.2313384
-0.047424655 -0.02121802 -0.23636425
-0.042451106 -0.021068413 -0.22750244
-0.032476418 -0.024589885 -0.22131814
-0.015457278 -0.02412289 -0.22040316
-0.092454135 -0.026471734 -0.21973689
-0.08052972 -0.026306793 -0.21579285
-0.073918529 -0.026246034 -0.21298145
-0.0030246042 -0.019882437 -0.21327531
-0.069070414 -0.026357867 -0.20773639
0.043949723 -0.018469423 -0.19801511
0.014441526 -0.019357048 -0.18401076
-0.090994135 -0.02839539 -0.17968492
-0.024849551 -0.020538945 -0.17660996
-0.089463517 -0.029009502 -0.16624682
-0.045491185 -0.024514215 -0.16621235
-0.029959712 -0.020692661 -0.16337848
0.035810664 -0.018714251 -0.16140535
-0.088983007 -0.029662913 -0.15265174
-0.072191723 -0.025593333 -0.15498511
-0.047027014 -0.021206059 -0.15100074
0.010275564 -0.026473381 -0.15679978
0.0012195595 -0.019754773 -0.15058821
0.034180798 -0.018763276 -0.15634403
-0.080524638 -0.030027458 -0.14005183
-0.085650831 -0.029802777 -0.14776431
-0.0039246157 -0.019909512 -0.14364371
0.048985444 -0.018317945 -0.14253399
-0.16692926 -0.026192959 -0.13420328
-0.11242128 -0.024697911 -0.135005
-0.050797962 -0.022995174 -0.13448834
-0.049862955 -0.029353062 -0.13030991
-0.0078094527 -0.028102387 -0.13491179
0.018677838 -0.027291315 -0.13337363
0.03128729 -0.027246058 -0.13283032
0.10721854 -0.024627751 -0.1338954
0.13358814 -0.023834454 -0.13359174
0.019652901 -0.019207444 -0.135005
-0.25898826 -0.035643682 -0.12314867
-0.1403027 -0.033888068 -0.12319215
-0.093947731 -0.030679155 -0.12461691
-0.080501609 -0.031297285 -0.12834775
-0.079655901 -0.030249249 -0.12660605
-0.043956809 -0.030407839 -0.12698163
-0.22221722 -0.025035201 -0.12899491
-0.16308235 -0.024697073 -0.12314282
-0.12518498 -0.022137415 -0.12552439
-0.10725161 -0.02301765 -0.1254752
-0.07771188 -0.021382954 -0.12878247
-0.069446489 -0.025911298 -0.12517002
-0.050922643 -0.021323241 -0.12814838
0.028241068 -0.028725162 -0.12379695
0.030903989 -0.02772155 -0.12519601
0.00027384982 -0.019783219 -0.12758434
0.11914436 -0.016207542 -0.12156001
-0.25680068 -0.035577875 -0.11872609
-0.21926706 -0.034448832 -0.11282319
-0.1889569 -0.035996135 -0.11899625
-0.1308971 -0.034736212 -0.11582868
-0.10199803 -0.034578007 -0.11119932
-0.043052487 -0.032707129 -0.11183532
-0.025883205 -0.032409664 -0.11040913
-0.24305823 -0.021951515 -0.11351546
-0.23539157 -0.022940066 -0.11860145
-0.22131625 -0.026448784 -0.1166153
-0.17647775 -0.025100015 -0.11775789
-0.071807727 -0.021951476 -0.11470672
-0.062330727 -0.029728062 -0.11846765
-0.04112583 -0.021028547 -0.11938419
0.065816879 -0.02776837 -0.114628
0.072886907 -0.025660422 -0.110334
0.10181757 -0.027996024 -0.11413472
-0.12021615 -0.018340096 -0.11386482
-0.050926004 -0.01592684 -0.11249247
-0.020257302 -0.014529694 -0.11051252
-0.018698875 -0.015781516 -0.1159303
0.097639471 -0.011705128 -0.11352379
0.14421077 -0.010010246 -0.11210203
0.15915641 -0.010925945 -0.11171063
0.14670616 -0.0098436512 -0.11119602
-0.24348949 -0.040437475 -0.10076146
-0.20324361 -0.033966836 -0.10973961
-0.18594891 -0.033446603 -0.1096498
-0.17571105 -0.037907977 -0.10395585
-0.090167381 -0.035053283 -0.10578834
0.040817205 -0.031423159 -0.10376951
-0.029488757 -0.020678502 -0.10998872
0.02057543 -0.027234014 -0.10402816
0.030973203 -0.026921237 -0.10033273
0.086159639 -0.025261162 -0.10772093
0.15008269 -0.02333831 -0.10614493
0.16595148 -0.024045475 -0.10482752
-0.22892891 -0.018715139 -0.10178736
-0.17162466 -0.017797068 -0.10514838
-0.1312777 -0.015921321 -0.10238637
-0.10247369 -0.015044836 -0.10234448
-0.095089816 -0.016529072 -0.10946281
-0.0031812117 -0.011813318 -0.10132346
0.0062773898 -0.013293628 -0.10868579
0.065455899 -0.017822515 -0.10819157
0.15423565 -0.013574052 -0.10566566
0.13275212 -0.0083343051 -0.10386792
-0.21992853 -0.041048937 -0.092166759
-0.23111701 -0.034805283 -0.099223644
-0.15367144 -0.032475572 -0.094716698
-0.14845148 -0.032318551 -0.095244765
-0.13942334 -0.03204697 -0.097378492
-0.046635024 -0.029255785 -0.095465213
0.071735755 -0.02569505 -0.094750948
0.1049687 -0.024695363 -0.093348861
-0.11485867 -0.014339612 -0.097848333
0.023881197 -0.019073112 -0.092669532
0.079820722 -0.017390421 -0.091302484
0.11869565 -0.006047016 -0.092562169
0.15034845 -0.0057052211 -0.092132911
-0.31046009 -0.031417228 -0.082027294
-0.30585438 -0.034708668 -0.080376983
-0.27264401 -0.039967701 -0.087156393
-0.24745741 -0.036991697 -0.084538974
-0.22228411 -0.034539524 -0.083506599
-0.091274418 -0.038169894 -0.085715175
0.0022975057 -0.03131387 -0.082244605
0.02941459 -0.03507258 -0.082244799
0.048308298 -0.034400906 -0.082917541
0.062342897 -0.033540487 -0.085770532
-0.28518412 -0.029599687 -0.08665809
-0.2744813 -0.025055677 -0.084698163
-0.21210277 -0.02058902 -0.0830018
-0.15908477 -0.029586956 -0.086658098
-0.14785475 -0.020564515 -0.084251508
-0.1127018 -0.026858453 -0.08665809
-0.039207131 -0.023451269 -0.086658098
-0.01978872 -0.021343283 -0.086658098
-0.0043662116 -0.025720475 -0.086658098
0.0017559398 -0.023611283 -0.086658098
0.022152901 -0.027186561 -0.084680542
0.062427189 -0.025975063 -0.086046383
0.080090307 -0.025443735 -0.084565639
0.19739404 -0.025063381 -0.082722083
0.21565005 -0.023317017 -0.08200711
-0.28249699 -0.019892029 -0.081158385
-0.18958682 -0.013855074 -0.086449593
-0.13032523 -0.011197696 -0.082800381
-0.11859752 -0.010629017 -0.081899703
-0.081598856 -0.011426452 -0.089869201
0.11140577 -0.014365764 -0.08529938
0.12660688 -0.010850076 -0.083296284
0.16969967 -0.014686909 -0.08195921
0.28315073 -0.01442558 -0.086658098
0.30630803 -0.017602248 -0.08665809
-0.016354248 -0.0075546792 -0.081904694
0.047028027 -0.009236509 -0.080671705
0.08400505 -0.0050579822 -0.084083013
0.1327962 -0.0069261058 -0.080848247
0.19974157 -0.0042135674 -0.080390453
0.21795546 -0.0094118323 -0.084153801
-0.29497042 -0.043127149 -0.078655154
-0.20532197 -0.041571453 -0.078889519
-0.03095394 -0.041044351 -0.070183761
-0.31797326 -0.036802571 -0.076105334
-0.25798401 -0.035613418 -0.075521991
-0.13145344 -0.031807229 -0.072259717
-0.12641311 -0.031655606 -0.072773546
-0.028386079 -0.038360979 -0.074415296
0.036114842 -0.035309616 -0.079389647
0.061135009 -0.036094375 -0.073723212
0.12942599 -0.034439139 -0.073075421
0.13086812 -0.035713989 -0.070935056
-0.24208334 -0.027073506 -0.070073128
-0.04206498 -0.021056812 -0.075559668
0.027362386 -0.027029855 -0.077298924
0.04374741 -0.026536975 -0.074332967
0.06028831 -0.026039403 -0.078298673
0.099743322 -0.024852548 -0.070485555
0.21145499 -0.021492239 -0.074460827
-0.25644553 -0.011498598 -0.075507201
-0.24042566 -0.013756305 -0.07965795
-0.23805563 -0.015237534 -0.078985602
-0.073239751 -0.010117144 -0.078879073
0.054731779 -0.018145112 -0.076836377
-0.13030002 -0.0089295199 -0.076671749
-0.1019868 -0.0057907049 -0.074498273
-0.028021581 -0.0073837824 -0.079727672
0.011773519 -0.00574084 -0.077867582
0.055923402 -0.0043843673 -0.077749029
0.15422544 -0.00058443833 -0.076874726
0.16831097 -0.0013725108 -0.077910654
0.18171868 -0.0013204907 -0.078140736
0.21385661 -6.8744412e-05 -0.077954091
0.25558209 -0.0010646825 -0.079428405
0.039791435 0.0017401939 -0.071394414
0.082516938 0.003011083 -0.071408004
0.15944372 0.0011679755 -0.075358555
0.24071437 0.0040133055 -0.074977726
0.29255787 0.0028695217 -0.077773191
-0.30108702 -0.051337998 -0.066663943
-0.2888678 -0.050828651 -0.066894054
-0.26044914 -0.050404981 -0.066193901
-0.22627014 -0.052426059 -0.060761906
-0.2025373 -0.051155329 -0.061978068
-0.14764269 -0.05006282 -0.060757644
-0.31676567 -0.041090339 -0.067941941
-0.10208332 -0.048812971 -0.060494184
-0.066391483 -0.043852892 -0.067354433
0.00083188713 -0.04409242 -0.063682012
0.16382852 -0.041011594 -0.060062762
-0.32846007 -0.03925968 -0.067822531
-0.3157126 -0.034283821 -0.064687788
-0.26042467 -0.035686836 -0.068604015
-0.15639697 -0.032557558 -0.065003403
-0.13803524 -0.032005217 -0.069442563
0.11600058 -0.037436232 -0.068864748
0.14038819 -0.037045199 -0.068308488
0.22514421 -0.036896039 -0.064410821
0.25454447 -0.032979622 -0.06933412
0.26703253 -0.035618052 -0.064439952
0.28407279 -0.033961527 -0.066297427
-0.25162086 -0.027360417 -0.065789707
-0.19918691 -0.025783135 -0.063338868
-0.063332513 -0.025727307 -0.065643296
-0.055913486 -0.021473382 -0.061459959
-0.049876101 -0.029353281 -0.060071442
0.050747678 -0.026326396 -0.06256704
0.23031032 -0.02092506 -0.060866144
0.25747362 -0.020107973 -0.067941681
0.082460165 -0.017311027 -0.061269358
0.13138841 -0.015839238 -0.064432636
-0.35604504 -0.0087371971 -0.06270384
-0.17011818 -0.0001106202 -0.06715285
-0.083534792 -0.00030918804 -0.069816604
-0.29717827 5.2289921e-05 -0.062056314
-0.00031688809 0.0060563255 -0.066063121
0.0053141061 0.010434026 -0.060299963
0.15833837 0.014487774 -0.061052166
0.20744729 0.012039579 -0.066399336
0.21542399 0.01112167 -0.067499623
0.24308369 0.017241109 -0.060772561
-0.29264846 -0.058424637 -0.052021366
-0.27624619 -0.054944508 -0.058544759
-0.23501384 -0.056758728 -0.051873285
-0.071233734 -0.049337596 -0.057321496
-0.043707818 -0.047684755 -0.059123021
0.22085461 -0.042000577 -0.054156147
0.23910803 -0.040311109 -0.056646857
-0.34700072 -0.037855525 -0.05683241
-0.3075676 -0.037707303 -0.055181637
-0.23910804 -0.035045609 -0.057872921
-0.30625847 -0.021284807 -0.055938963
-0.2340818 -0.026832838 -0.055983558
-0.22293295 -0.026497472 -0.05102744
-0.17593747 -0.025083778 -0.053158998
-0.111081 -0.023132851 -0.052381836
-0.036206894 -0.028942097 -0.054673828
0.04905086 -0.026377439 -0.053393293
0.071132585 -0.025713194 -0.054903395
0.16118816 -0.023004249 -0.055581164
0.22772104 -0.021002946 -0.056236856
0.010335054 -0.01948059 -0.053341828
0.13271917 -0.015799208 -0.054560475
0.2006249 -0.013756732 -0.05169452
0.24438497 -0.012440408 -0.05519148
0.36304966 -0.016932195 -0.057817362
-0.37551513 -0.0067113796 -0.053348858
-0.36279708 -0.0079731476 -0.052620042
-0.28999174 0.0078264792 -0.051012836
-0.30081475 0.018803377 -0.054220777
-0.090167299 0.010609929 -0.05612535
-0.084402002 0.013622474 -0.051815271
-0.045012902 0.014200069 -0.052588325
-0.025609761 0.015343042 -0.051914498
0.063868657 0.016067076 -0.054997489
0.079325676 0.018209383 -0.052514642
0.3499698 0.012978965 -0.053814977
-0.28258902 0.027403688 -0.051790897
-0.22449063 0.020079449 -0.054146882
0.24238391 0.024297602 -0.05006849
0.27876201 0.024058389 -0.052825488
0.29263097 0.023212058 -0.054636579
-0.24924065 -0.0583652 -0.049299274
-0.21406975 -0.057345137 -0.049198013
-0.044570073 -0.054342866 -0.042577598
0.035308868 -0.051884823 -0.042751987
0.053162903 -0.049630105 -0.048176222
-0.2925573 -0.036653426 -0.045614302
-0.23074427 -0.034794018 -0.044712931
-0.18942414 -0.033551056 -0.04772345
-0.095881134 -0.030737169 -0.041313663
-0.37021211 -0.024309881 -0.04853088
-0.30628103 -0.020536825 -0.043972299
-0.16136482 -0.024645427 -0.045019023
-0.026176952 -0.028640382 -0.042850029
-0.0076025296 -0.028081642 -0.048289664
0.051171809 -0.026313638 -0.045941431
0.14492594 -0.023493404 -0.043237954
0.15175304 -0.023288049 -0.047487237
0.24421887 -0.020506684 -0.049034398
-0.37777132 -0.013151685 -0.048950829
-0.35330325 -0.011489017 -0.040475979
0.19760936 -0.01384744 -0.043741271
0.22476164 -0.013030686 -0.049556598
0.27281919 -0.01158509 -0.04069142
-0.38635957 -0.0070815999 -0.042530604
-0.36952853 -0.0054802652 -0.040722888
0.36928377 -0.008683267 -0.049569082
-0.38247171 0.0021126713 -0.049664672
-0.36862138 0.0076208087 -0.040232494
-0.30734831 0.01493649 -0.045258142
-0.29278585 0.01065518 -0.044991203
-0.27689463 0.019645499 -0.046489481
-0.25205851 0.016569752 -0.040657599
-0.24278638 0.014151953 -0.040871199
-0.22103293 0.018207449 -0.042651251
-0.21671066 0.011883777 -0.047181711
-0.23236448 0.025827246 -0.048456248
0.081523828 0.021055311 -0.046767525
0.1322232 0.022527304 -0.046877354
0.14820775 0.024720388 -0.043337367
0.23394778 0.024917297 -0.04826263
0.27602145 0.026053172 -0.048530921
0.29036894 0.027571732 -0.046283673
0.30070838 0.028681716 -0.044631861
-0.29610032 0.035711594 -0.045095969
-0.26267469 0.033841811 -0.046105005
-0.31147492 -0.063170083 -0.036057442
-0.35330537 -0.051906846 -0.030587802
-0.16308513 -0.059169818 -0.038592532
-0.12716672 -0.058583781 -0.037031353
-0.099078 -0.05856422 -0.033860207
0.054265037 -0.053194679 -0.036815323
0.26522788 -0.046795901 -0.036982555
-0.31361786 -0.0331406 -0.035451028
-0.30584249 -0.03510423 -0.037023641
-0.20294748 -0.033957854 -0.036087945
-0.17775118 -0.033199921 -0.03592141
-0.3001852 -0.028821569 -0.039159283
-0.27360988 -0.028021995 -0.032000065
-0.048579328 -0.021252766 -0.030981245
0.0010296032 -0.027821979 -0.036924358
0.072781056 -0.025663607 -0.031162627
0.12992315 -0.023944702 -0.033566978
0.25980321 -0.011976618 -0.036750179
0.31666994 -0.018327285 -0.034045909
0.32338256 -0.018125288 -0.035654917
0.36307824 -0.016931336 -0.036083668
0.38724852 -0.014270346 -0.037214663
0.35117066 -0.009227925 -0.034506466
-0.33362633 0.010779469 -0.039756931
-0.29261097 0.018737713 -0.030420434
-0.28141481 0.015667377 -0.035843771
-0.27731439 0.015288495 -0.036458489
0.086543657 0.026569849 -0.033744618
0.31375054 0.03236153 -0.036651038
-0.2417957 -0.063679218 -0.029443745
-0.2383505 -0.063614078 -0.02923698
-0.023531601 -0.057238623 -0.028773008
-0.0094987601 -0.05664349 -0.029702593
-0.30562115 -0.042470127 -0.029954594
0.22072977 -0.049967252 -0.028363634
0.24045449 -0.049538828 -0.027477488
-0.31354153 -0.033098944 -0.024091169
-0.28009936 -0.036278676 -0.022101086
-0.2615242 -0.035719916 -0.024961371
-0.22004512 -0.034472171 -0.027185883
-0.14381896 -0.032179195 -0.024392158
-0.23074564 -0.026732551 -0.022936672
-0.052292682 -0.029425975 -0.023831286
0.065463096 -0.025883738 -0.026110047
0.11631215 -0.024354137 -0.027873334
0.18375722 -0.022325393 -0.023693949
0.37986189 -0.024851637 -0.02156659
-0.35730985 -0.010005245 -0.027766809
0.16119888 -0.014942587 -0.021193447
0.17303357 -0.014586635 -0.026359124
0.26046225 -0.011956794 -0.024384022
0.27299401 -0.019641113 -0.02497909
0.31342819 -0.010363552 -0.026486956
0.39087123 -0.012387929 -0.028336992
0.37372082 0.0089576375 -0.025333121
-0.30742133 0.01736366 -0.026293419
0.37357345 0.010040922 -0.026846768
-0.27502063 0.025948185 -0.022441899
-0.25992587 0.02845519 -0.028194563
-0.074521005 0.024854291 -0.022451967
-0.051052034 0.025714708 -0.020763326
0.0052321218 0.025785232 -0.027749741
0.011071607 0.027457148 -0.022161197
0.10863402 0.028825086 -0.028004386
-0.25106764 0.03968662 -0.022441899
0.20788778 0.032857925 -0.024225494
0.33388519 0.032536034 -0.020025698
-0.29407862 0.06617485 -0.022441901
-0.23515104 0.065245226 -0.022441899
-0.26836413 0.070838057 -0.021112403
-0.22126655 -0.06484291 -0.018063657
0.0032822788 -0.058425885 -0.012569204
0.033226024 -0.057613999 -0.011122949
-0.27391499 -0.036092643 -0.010518506
-0.20566697 -0.034039661 -0.017965747
-0.13787943 -0.032000531 -0.012578268
-0.11295418 -0.031250745 -0.016977336
0.36413556 -0.034037597 -0.015553677
-0.066826388 -0.025832409 -0.014080679
-0.045347407 -0.021155547 -0.016806321
0.12959397 -0.023954604 -0.010953773
0.1351835 -0.023786465 -0.016237285
-0.3562642 -0.010392484 -0.017202193
-0.33526227 -0.018170167 -0.019680699
0.2399762 -0.012573024 -0.0142278
0.30164206 -0.010718085 -0.017854422
0.39319783 -0.012532324 -0.013713153
0.38682479 -0.005439477 -0.016111255
-0.39409465 0.0034080707 -0.018979385
-0.30707175 0.005750048 -0.018882055
0.38413423 0.0025574993 -0.013455142
-0.35982126 0.018836331 -0.012629008
-0.30741131 0.017034281 -0.01481262
-0.26346394 0.019793846 -0.015575597
-0.10384172 0.02474273 -0.013945617
-0.038836598 0.026497642 -0.016164873
0.015957825 0.02801061 -0.01766235
-0.34587884 0.039092686 -0.015088905
0.17496417 0.032766327 -0.017964952
-0.331824 0.044411622 -0.018020678
-0.3251965 0.052824218 -0.010787028
-0.3180092 0.05793342 -0.011764183
-0.27591556 0.070610873 -0.017750561
-0.21279377 -0.065096281 -0.0023678313
-0.054844085 -0.06054838 -0.0057472717
-0.33751655 -0.058263399 -0.00070274062
0.028291538 -0.057870671 -0.0027988551
0.21772793 -0.052367665 -0.005980222
0.22160521 -0.052020647 -0.0099298479
0.30239382 -0.050948139 -0.0045002028
-0.35739964 -0.046354502 -0.0045085801
-0.30561239 -0.042760637 -0.0041578887
-0.28521919 -0.036432683 -0.0010676272
-0.30619916 -0.023251651 -0.0018422389
-0.28655016 -0.028411329 -0.0037965039
-0.17745823 -0.025129624 -0.0058811922
-0.15031952 -0.024313265 -0.0012460779
-0.1419476 -0.024061415 -0.0055984529
0.0080325827 -0.027611319 -0.0055995546
0.044862475 -0.026503431 -0.0034570387
0.10160115 -0.024796663 -0.0068934048
0.17249456 -0.022664163 -0.007239271
0.095045403 -0.016932456 -0.004294727
0.11902313 -0.016211193 -0.0015382133
0.17329696 -0.014578714 -0.00029534101
0.27465186 -0.011529963 -0.0092358645
0.28673327 -0.019227829 -0.0044876188
0.32842913 -0.017973427 -0.0094899386
0.35592285 -0.0090849921 -0.0051748119
0.39246041 -0.006866463 -0.00058732869
-0.36842418 0.027104396 -0.0096828826
-0.20525832 0.023577476 -0.0040558684
-0.1227272 0.024554932 -0.0097364001
-0.0049419329 0.02797142 -0.001022872
0.056564081 0.029731058 -2.0988773e-05
-0.36706692 0.031667188 -0.0069420533
-0.35822827 0.033922367 -0.00040933426
-0.20834422 0.03878504 -0.008801383
0.082092538 0.030709345 -0.0098114433
0.17027663 0.033264 -0.0012641125
0.19589347 0.034370363 -0.00498045
0.25894257 0.035627928 -0.0046344865
0.26263571 0.035800692 -0.0068532238
0.3407684 0.031580567 -0.0061065475
-0.30450231 0.069750808 -0.0098877223
-0.28510791 0.070334308 -0.003192143
-0.12371563 -0.062132865 0.0022521468
-0.34856138 -0.052211236 0.0064798156
0.11220492 -0.054938391 0.0038435534
0.19405282 -0.052426033 0.0046620928
-0.35507947 -0.049500976 0.0030096471
0.30172426 -0.049457371 0.00026374473
-0.30585214 -0.034783144 0.00086878985
-0.25001544 -0.035373714 0.0084640356
-0.32956526 -0.020279963 0.0062002949
-0.30615467 -0.024727998 0.009001283
-0.22888261 -0.026676571 0.0066158315
-0.16905111 -0.024876749 0.003148648
-0.040672734 -0.029076435 0.0083123017
-0.039496277 -0.029041044 0.0065059587
-0.029926959 -0.0206917 0.0068645459
0.018976342 -0.027282115 0.008133661
0.14275426 -0.023558727 0.0053330697
-0.35198471 -0.011977314 0.0098385606
0.033239692 -0.018791605 0.0059066899
0.083372086 -0.017283596 0.0068418011
0.1137455 -0.016369946 0.0073666126
0.14356802 -0.01547287 0.0058014123
0.22763041 -0.012944393 0.0023555737
0.26662326 -0.011771468 0.00016172603
0.282711 -0.011287542 0.0012681596
0.34408015 -0.017502716 0.0010355823
-0.38781896 -0.0051025064 0.004101519
0.37863398 -0.0084019788 0.0035253086
0.37811992 0.0060993428 0.0084780138
-0.34318981 0.016700855 0.0035740556
-0.30734682 0.018474167 0.0034110381
-0.34810629 0.027082231 0.0027111068
-0.30758381 0.022769833 0.004082805
-0.24041826 0.020222655 0.0063409763
-0.22716308 0.0211307 0.00070516794
-0.19157398 0.021836661 0.0047393525
-0.12829608 0.02372436 0.0049138255
-0.018239148 0.027420379 0.00064874714
0.090464592 0.030530524 0.0024173143
0.14685152 0.0318151 0.0069730137
-0.32008713 0.066799194 0.0060913963
-0.23680875 0.068529792 0.00053778006
-0.24852116 -0.064877264 0.011934252
-0.33378205 -0.059387203 0.014010155
0.22220272 -0.050655797 0.012265978
-0.33635265 -0.045548268 0.012579426
0.25870883 -0.049667031 0.011678284
0.30710137 -0.047932498 0.013176625
-0.32260346 -0.038044564 0.011269042
-0.26810199 -0.035917778 0.018353492
-0.13743019 -0.031987015 0.012258861
-0.096541733 -0.03075704 0.010739997
-0.28366938 -0.028324656 0.011062704
-0.26498768 -0.027762689 0.018636039
-0.17623186 -0.025092771 0.010821013
-0.093843371 -0.022614423 0.018708561
-0.040033974 -0.02905722 0.019941177
0.11286105 -0.02445795 0.013881193
0.14022213 -0.023634896 0.013579298
0.3730652 -0.02807867 0.01417431
-0.34696707 -0.013835507 0.015928347
0.047545154 -0.018361289 0.015776509
0.19522509 -0.013919161 0.01826836
0.28466034 -0.011228902 0.013873607
0.34031934 -0.017615784 0.019799456
0.35941195 -0.0089800842 0.013835107
0.37540632 -0.0084990868 0.011659685
-0.34250957 0.012135833 0.016194666
-0.21033838 0.019175943 0.01603936
-0.14780338 0.019994792 0.019872855
-0.30778283 0.02938134 0.014862743
-0.25412655 0.026475266 0.015810177
-0.18154995 0.0208071 0.013278095
-0.14375275 0.022166766 0.012474526
0.092539214 0.029534174 0.011538305
0.13597412 0.02998196 0.01463737
-0.29362544 0.030214952 0.01709478
-0.25390974 0.033839449 0.0102818
0.1723409 0.0321404 0.010796023
0.18010251 0.031873301 0.012602428
0.31118858 0.033988595 0.0191982
-0.30348095 0.044986501 0.013318105
-0.25492859 0.040865783 0.0102818
-0.23687488 0.045578357 0.0102818
-0.19704914 -0.061403673 0.02202533
0.25863951 -0.046321064 0.026947856
-0.19508475 -0.033721335 0.02281836
-0.32835057 -0.020729795 0.023254972
-0.30210239 -0.028879249 0.022933749
-0.1333839 -0.023803882 0.029524798
-0.088506922 -0.022453908 0.024079494
-0.053331811 -0.021395788 0.02241095
0.025870085 -0.027074743 0.021424482
0.13438587 -0.023810457 0.023141388
0.23397958 -0.020814687 0.02239901
-0.30655241 -0.011505594 0.027330555
0.20955366 -0.013488149 0.024682071
0.29715824 -0.010852961 0.022958446
-0.36529809 -0.0070469347 0.02355502
0.36062655 -0.0089435652 0.029111685
-0.38915101 0.0045361011 0.028116127
-0.16621208 0.01779487 0.025813311
-0.14671162 0.01692947 0.02894352
0.35928315 0.015795877 0.027161652
0.36377481 0.015038644 0.020742213
0.019301245 0.023418793 0.025656205
0.045356102 0.024176698 0.02574946
0.18890826 0.027006632 0.028981816
0.19097638 0.029289531 0.023106355
0.20790616 0.029451972 0.024357865
0.34625944 0.022328557 0.028033722
0.27926505 0.031993069 0.020988805
0.2935285 0.031780005 0.025251076
-0.34392044 -0.055823766 0.031878367
-0.26335248 -0.059912167 0.033612978
-0.18486667 -0.056511931 0.036770761
0.076797172 -0.049686946 0.033591595
-0.071670428 -0.030008882 0.031674534
-0.3186838 -0.024309713 0.030109679
-0.27169871 -0.027964607 0.038019966
-0.15561916 -0.024472758 0.032949209
-0.1236445 -0.023510918 0.03436223
-0.055700459 -0.025497777 0.037264034
0.07409662 -0.025624031 0.038490493
0.11451002 -0.024408348 0.036814943
0.12536627 -0.02408178 0.035012797
0.25280508 -0.020248406 0.037944652
0.36859405 -0.025240388 0.034246676
0.056097675 -0.018104026 0.038338702
0.08504203 -0.017233362 0.03024585
0.1118165 -0.016427971 0.035447627
0.18555675 -0.014209976 0.035449896
0.27962017 -0.011380514 0.033218592
0.30901676 -0.01855753 0.038873069
0.32804281 -0.017985051 0.035782505
0.33846804 -0.01767144 0.036373015
-0.39413449 0.0036321108 0.034233607
-0.30724719 0.011580169 0.034468077
-0.19757321 0.012691793 0.034541272
-0.11434357 0.012622084 0.039861299
-0.013648289 0.018748647 0.033457477
0.034458935 0.017297108 0.039450265
0.053775724 0.019294921 0.03652123
0.36100966 0.010433647 0.034907747
-0.30563521 0.023114137 0.03399583
-0.29613909 0.032536294 0.035746403
-0.28881913 0.031224135 0.039385386
-0.27084091 0.038796503 0.032725502
-0.20751876 -0.055122357 0.041480903
-0.19174525 -0.052538678 0.046087794
-0.17462748 -0.050481737 0.049455862
-0.16162877 -0.052692 0.043774173
-0.12747668 -0.050208196 0.046955388
-0.33204666 -0.046710655 0.041857772
0.037319228 -0.047515839 0.042008523
0.062879331 -0.045685392 0.044327158
0.076574676 -0.044792511 0.045377553
0.12014499 -0.042227142 0.048118126
-0.23972565 -0.035064187 0.044872377
-0.17543599 -0.033130273 0.044749431
-0.26765332 -0.027842941 0.048850004
-0.10923605 -0.02307752 0.04771661
-0.06846635 -0.029912498 0.044957567
-0.033798866 -0.020808252 0.042933919
0.022356652 -0.027180433 0.04874678
0.23853686 -0.020677602 0.042469993
0.020059519 -0.019188117 0.044826906
0.18092193 -0.014349377 0.048292123
0.19294447 -0.013987763 0.040268898
0.21955094 -0.013187427 0.044561863
0.31634384 -0.018337097 0.047768414
-0.35234225 -0.0052451529 0.04904376
0.37345096 -0.0031886119 0.040310152
-0.34205267 0.0033350512 0.040863089
-0.31953719 0.0038316981 0.0428386
-0.30435163 0.0034662792 0.044925168
-0.2045061 0.0074085821 0.043639094
-0.27182999 0.01764141 0.043284141
-0.22719342 0.013723412 0.042638939
-0.044715893 0.011613729 0.044463024
0.096432053 0.018446501 0.040920161
0.15265977 0.017184889 0.044964507
0.19267905 0.017045343 0.046804186
0.21880797 0.015901599 0.049446866
0.27299607 0.020546453 0.045318104
-0.31294793 -0.047634929 0.058120377
-0.1892387 -0.045199499 0.059007995
-0.082548052 -0.043069705 0.057255231
-0.03254807 -0.044367243 0.05270642
-0.020995915 -0.045100629 0.050951369
-0.0083279088 -0.04339138 0.053107955
-0.30289757 -0.036964472 0.05600211
-0.29580399 -0.036751091 0.059532154
-0.2604323 -0.035687067 0.057534132
-0.20404179 -0.033990771 0.055450007
0.009502314 -0.039444156 0.05864609
0.18742555 -0.038677555 0.05120068
-0.27658424 -0.028111603 0.05320549
-0.25199747 -0.027372003 0.053168986
-0.23104404 -0.026741695 0.055198893
-0.2254539 -0.026573531 0.053391889
-0.15859583 -0.024562342 0.052515939
-0.099647969 -0.022789113 0.055140398
-0.057223983 -0.029574316 0.058998115
0.03397176 -0.026831038 0.052725241
0.069641128 -0.025758058 0.056283504
0.023527518 -0.019083813 0.052639399
0.063159063 -0.017891649 0.057763323
0.25060445 -0.012253322 0.056368794
0.26034582 -0.011960296 0.051844239
-0.28068769 -0.0025395481 0.054125205
-0.17840886 -0.0018491913 0.05640801
-0.15763976 -0.002477837 0.057599157
-0.020886622 -0.00010635902 0.059254739
-0.23109394 0.00095735071 0.051379181
0.090340041 0.010927186 0.05096706
0.14389957 0.010879185 0.053239129
0.24856968 0.01009095 0.057266645
-0.30711767 -0.046215799 0.062368486
-0.1509428 -0.043192707 0.060395919
-0.12738301 -0.040580735 0.064931512
-0.3051663 -0.037032716 0.065671779
-0.22933713 -0.038607709 0.069676861
-0.21701911 -0.034381147 0.062461033
-0.17270932 -0.034981184 0.065633871
-0.16800538 -0.038493283 0.067513265
-0.11791138 -0.031399868 0.066129148
-0.01595515 -0.037238333 0.064870194
0.051643834 -0.033699758 0.065245725
0.069808081 -0.030768428 0.068227448
0.07175196 -0.030592002 0.068374917
0.14273997 -0.030968111 0.065235004
-0.3102271 -0.022729846 0.069522887
-0.21479939 -0.02625306 0.06734059
-0.17723832 -0.025123164 0.066148847
-0.12990773 -0.02369939 0.064674601
-0.022276483 -0.02852305 0.062322028
0.10794036 -0.028609356 0.06949272
0.1130847 -0.024451222 0.062301867
0.23736185 -0.02795279 0.065446399
0.25210074 -0.020269591 0.069876388
0.33427891 -0.025032388 0.061727196
-0.2065815 -0.01792952 0.069208726
-0.19181298 -0.016695222 0.068691336
-0.089900807 -0.013303122 0.068477541
0.043155443 -0.018493392 0.060197081
0.14002909 -0.015579323 0.068016641
0.20394571 -0.013656841 0.065215334
0.22004645 -0.013172521 0.068787351
0.3524898 -0.017249886 0.061599065
-0.15534341 -0.0050275498 0.060087875
-0.081634939 -0.009818105 0.066358
0.0098075196 -0.0067563308 0.069697388
0.021932609 -0.0076340549 0.066967927
0.030710891 -0.0038707014 0.064307116
0.1978568 -0.0033363495 0.067619026
0.25131801 -0.0036413791 0.068872005
0.34006149 -0.0011288121 0.062574841
0.2539883 0.0038420041 0.063360304
0.30743578 0.00078616507 0.067077994
0.3249948 0.0048333877 0.061821863
-0.26499122 -0.040358525 0.07695806
-0.23159704 -0.041838005 0.077154808
-0.2833997 -0.032832205 0.074497901
-0.24543582 -0.035235953 0.073832579
-0.20208582 -0.033931941 0.076407686
-0.18213795 -0.033331882 0.075990364
-0.1357542 -0.031936597 0.072894
-0.12616907 -0.038786776 0.0763724
-0.045819454 -0.033932887 0.074531719
-0.0072522666 -0.030976597 0.070865281
0.035601698 -0.033978 0.075998798
0.13954645 -0.030424785 0.078775264
-0.28387675 -0.028331012 0.077545658
-0.27790412 -0.023207586 0.076111704
-0.25089058 -0.027338743 0.072305657
-0.1273721 -0.023623126 0.070151016
-0.11294629 -0.023161942 0.072269589
-0.0857471 -0.024121366 0.074497901
-0.047602907 -0.025036167 0.074497901
-0.023837127 -0.02857 0.074705519
0.08267343 -0.024747977 0.074497901
0.15311497 -0.023247084 0.071542069
0.20444857 -0.021702996 0.073231436
0.26008183 -0.020029515 0.074101508
-0.2505441 -0.016675677 0.073952474
-0.23989309 -0.015481334 0.074761242
-0.15493019 -0.012996897 0.075058669
-0.011531428 -0.013402117 0.070086256
0.10177431 -0.016730081 0.07327053
0.11194702 -0.010944253 0.070909113
0.18296023 -0.012644679 0.078635328
0.21455431 -0.013978504 0.073099941
0.23398972 -0.015181576 0.074497893
0.27186418 -0.011224822 0.074243143
-0.0067406669 -0.0082166046 0.073712602
0.013795786 -0.0082637481 0.076486319
0.076739058 -0.0062048929 0.075795956
0.24809733 -0.0090073962 0.072322741
0.31017876 -0.006621616 0.071983323
-0.26055261 -0.039700631 0.083875507
-0.19539793 -0.033730824 0.088124737
-0.18356124 -0.039835937 0.080781743
-0.17873792 -0.033229671 0.088590287
-0.13740653 -0.03198633 0.080670819
-0.084742561 -0.03040215 0.083059907
-0.066980883 -0.03570877 0.084819689
0.020576905 -0.032663643 0.087497465
0.035860419 -0.032275323 0.087032549
-0.093274601 -0.022597432 0.08861585
-0.066867262 -0.021803062 0.085722685
-0.14528099 -0.014497977 0.082531534
-0.13180706 -0.01349764 0.080049247
-0.070722133 -0.012374237 0.0830281
-0.047296856 -0.01269675 0.087313071
-0.035285801 -0.011806204 0.085105225
-0.020087725 -0.01052483 0.081666902
0.010435589 -0.010279479 0.08447364
0.03768516 -0.018657977 0.089173138
0.057001024 -0.01807693 0.084643841
0.077441931 -0.017462038 0.083666831
0.10532758 -0.016623197 0.086600766
0.1316295 -0.015831998 0.089980721
0.057302468 -0.0095222332 0.087195814
0.16481534 -0.0087196901 0.082575589
-0.21030429 -0.034179226 0.094671033
-0.197843 -0.033804379 0.09764453
-0.11704082 -0.031373776 0.094939642
-0.083863042 -0.034621675 0.095203578
0.0023678457 -0.032094579 0.094767839
0.016813211 -0.031346068 0.096811898
-0.17096281 -0.024934355 0.094256587
-0.095864341 -0.022675337 0.093579285
-0.031849004 -0.020749664 0.09252885
0.079075597 -0.025474362 0.095412992
0.11603165 -0.027252799 0.0960458
0.15038402 -0.027221829 0.095745109
0.16501424 -0.022889132 0.09630394
0.050891384 -0.012390655 0.098357432
0.17424208 -0.014550192 0.091329351
-0.21014026 -0.034174297 0.10469005
-0.19272614 -0.036220472 0.10611387
-0.15625383 -0.035438143 0.10406458
-0.14295825 -0.03215342 0.10822546
-0.096188053 -0.034186333 0.10045139
-0.089253508 -0.030537952 0.10989132
-0.050502427 -0.032695472 0.1012104
-0.0034479275 -0.031450354 0.10010062
0.0021831987 -0.031143496 0.10099553
-0.24123974 -0.022552356 0.10409025
-0.18827417 -0.020727407 0.10312363
0.045835089 -0.029585902 0.10258733
0.12302274 -0.027548738 0.10073402
0.16673714 -0.022837497 0.10567141
-0.089974239 -0.017241612 0.10091732
-0.0062568709 -0.016195035 0.10705674
0.088281065 -0.011669846 0.10004235
-0.1990784 -0.033841558 0.11502303
-0.14131002 -0.033905625 0.1111151
-0.10446632 -0.032062072 0.11590187
-0.09919703 -0.030837063 0.11969171
-0.087280922 -0.031334605 0.11727235
-0.063559785 -0.031054217 0.11445243
-0.22044967 -0.024104321 0.11317342
-0.16166748 -0.021632187 0.11023685
-0.15811549 -0.022610933 0.11476558
-0.129025 -0.023672666 0.11557443
-0.1056855 -0.022970587 0.11739348
-0.093883097 -0.020915609 0.11575353
-0.048900884 -0.029324118 0.11209428
-0.0093317479 -0.020072244 0.11312542
0.026310897 -0.027061665 0.11125089
-0.070120245 -0.019075099 0.11105746
-0.044376712 -0.018895926 0.11354047
0.030281823 -0.018880613 0.11700219
0.087083712 -0.016444951 0.11981227
0.097122371 -0.01687002 0.11139639
0.10211225 -0.016719919 0.11062048
-0.19535908 -0.03183974 0.12284499
-0.13160901 -0.031812038 0.12274087
-0.11825538 -0.031410351 0.12115598
-0.076516949 -0.030154834 0.12221532
-0.20521498 -0.027766455 0.12284499
-0.16677991 -0.024336502 0.12087683
-0.13967492 -0.023992974 0.12174319
-0.12127214 -0.023439413 0.12097935
-0.026088361 -0.025069471 0.122845
-0.0079082437 -0.025608189 0.12284499
0.017338181 -0.027331615 0.12257572
0.02271289 -0.027431153 0.12114444
0.052169591 -0.026363026 0.1223295
-0.0034833644 -0.019896252 0.12117082
0.057084799 -0.018922234 0.122845
-0.045735691 -0.021167213 0.13223845
-0.025111374 -0.027842006 0.13960437
0.049203001 -0.021533653 0.13925663
-0.001566479 -0.019838577 0.13645174
0.023912068 -0.019072166 0.13099115
-0.071276605 -0.0219355 0.14065611
-0.041605785 -0.021042984 0.14439443
0.012657998 -0.019410696 0.14815187
0.043581992 -0.018480483 0.14635763
-0.056977857 -0.027997201 0.15716952
-0.046232067 -0.024509344 0.15517022
-0.026498867 -0.027384626 0.15051727
0.005722465 -0.019619321 0.15345669
0.03941156 -0.018605933 0.15382823
-0.028233202 -0.026597206 0.16887434
-0.084897682 -0.02234523 0.17970237
-0.05677063 -0.021499151 0.17035341
-0.039879255 -0.026694328 0.1744104
0.030600466 -0.024513274 0.17574371
-0.057547189 -0.026697194 0.1859678
-0.046571404 -0.026327237 0.18683797
-0.018282492 -0.022962451 0.18495481
0.018981639 -0.024492856 0.18383177
0.01653772 -0.019293992 0.19260697
0.036712669 -0.018687116 0.19796531
-0.091106303 -0.026912186 0.20333871
-0.075630799 -0.022066476 0.20244953
-0.059985995 -0.026028875 0.20218417
-0.028760532 -0.020656589 0.20769119
-0.018660685 -0.024809327 0.20166947
-0.097679004 -0.025088482 0.21092153
-0.023435596 -0.020496413 0.21501403
-0.019525681 -0.0203788 0.21642303
-0.0049358737 -0.023802985 0.21464577
0.023819638 -0.022791082 0.21785808
-0.061799638 -0.025084035 0.22403528
0.043640241 -0.022051809 0.2209859
-0.0046439064 -0.019931147 0.22319852
-0.072503716 -0.025045592 0.23191586
-0.063165672 -0.024568282 0.23621041
-0.084686853 -0.023928963 0.24784881
-0.065338582 -0.024300322 0.24349825
-0.017721128 -0.022941519 0.24188995
-0.092038341 -0.024469748 0.25735414
-0.060916945 -0.021623876 0.25732112
-0.033341132 -0.020794377 0.25087944
0.039584689 -0.020672472 0.25381154
0.0090809576 -0.019518297 0.25121084
0.046004999 -0.018407598 0.2568959
0.021242978 -0.019152455 0.26554519
-0.080173969 -0.02220314 0.27898166
0.034448944 -0.019882573 0.27445999
-0.064096406 -0.022225361 0.28804904
-0.050851543 -0.021321101 0.29549974
-0.020257248 -0.020400807 0.2904194
-0.0035194457 -0.019897323 0.29040337
