# .PCD v0.7 - Point Cloud Data file format
VERSION 0.7
FIELDS x y z
SIZE 4 4 4
TYPE F F F
COUNT 1 1 1
WIDTH 790
HEIGHT 1
VIEWPOINT 0 0 0 1 0 0 0
POINTS 790
DATA ascii
-0.21746118 -0.044911966 -0.26020843
-0.2360878 -0.046117418 -0.25380611
-0.22416654 -0.047623731 -0.25984275
-0.21287203 -0.044882469 -0.25340462
-0.20178142 -0.044868354 -0.25832847
-0.17157337 -0.044935316 -0.25091386
-0.24472618 -0.047462981 -0.24079823
-0.21487403 -0.044618096 -0.24448259
-0.20345688 -0.043884095 -0.2405442
-0.1874108 -0.043511521 -0.24405532
-0.23614985 -0.046661302 -0.2377771
-0.21052562 -0.04415644 -0.23496106
-0.20899197 -0.044006065 -0.23168629
-0.18820935 -0.043264456 -0.23692079
-0.16387421 -0.042982906 -0.23580617
-0.19001806 -0.042829614 -0.2288508
-0.17831719 -0.042399235 -0.22532199
-0.1880047 -0.042443313 -0.21837439
-0.17715698 -0.041791908 -0.21323764
-0.19908613 -0.042941384 -0.20396397
-0.1530572 -0.041008323 -0.20732388
-0.14136924 -0.04052487 -0.2010009
-0.21029817 -0.044184219 -0.19230366
-0.19907886 -0.042887863 -0.19676626
-0.18127358 -0.041316155 -0.19365568
-0.13733535 -0.040239021 -0.19703203
-0.20757416 -0.0439291 -0.18256021
-0.1969444 -0.04264326 -0.18946961
-0.17163546 -0.040547621 -0.18428697
-0.15542942 -0.040058829 -0.18814883
-0.13695921 -0.039427459 -0.18457049
-0.37852141 -0.046655692 -0.17382905
-0.1701147 -0.040193841 -0.17594621
-0.16514914 -0.039820373 -0.17167479
-0.1275517 -0.038854025 -0.17674935
-0.099966653 -0.039804704 -0.17836402
-0.38688684 -0.046376847 -0.16299269
-0.37534204 -0.046397317 -0.16852959
-0.14565253 -0.038643904 -0.16271955
-0.13873571 -0.038650956 -0.16914022
-0.40059781 -0.0472092 -0.15549478
-0.39342859 -0.046811573 -0.15587033
-0.37412232 -0.046010405 -0.15803702
-0.36676875 -0.046002079 -0.15628287
-0.35459113 -0.046000298 -0.15371801
-0.19935197 -0.042897917 -0.15868384
-0.18738165 -0.041540854 -0.15361035
-0.39070505 -0.046744011 -0.1499922
-0.37434161 -0.045944445 -0.14823115
-0.3571645 -0.045759391 -0.14905694
-0.1877443 -0.041571695 -0.14438495
-0.11689629 -0.03678349 -0.14488311
-0.39803284 -0.047349975 -0.13624075
-0.37594622 -0.046183087 -0.13333777
-0.35906544 -0.045436759 -0.13241714
-0.3454808 -0.045272224 -0.13331759
-0.18523771 -0.041251957 -0.13663925
-0.13083048 -0.036826648 -0.13178578
-0.1289482 -0.036830243 -0.13403682
-0.10894829 -0.036103204 -0.13675945
-0.088075325 -0.035533343 -0.13214283
-0.073070593 -0.035690386 -0.13161315
-0.064260907 -0.038132325 -0.1381315
-0.39629319 -0.047367908 -0.12844662
-0.37812421 -0.046346277 -0.12951702
-0.36167488 -0.045619637 -0.12286193
-0.31733602 -0.044941112 -0.12132129
-0.30697042 -0.047442913 -0.12091854
-0.18322395 -0.040941462 -0.12361088
-0.15999256 -0.038534172 -0.12774566
-0.14275405 -0.037370104 -0.12623456
-0.12218557 -0.036018547 -0.12038291
-0.1170968 -0.035954915 -0.12462773
-0.09766835 -0.035075955 -0.12281483
-0.088201009 -0.034910955 -0.12260909
-0.047073204 -0.037357286 -0.12311666
-0.34883896 -0.0451492 -0.11516307
-0.29156747 -0.045337867 -0.11025441
-0.1684697 -0.039336123 -0.11773935
-0.14528194 -0.037193261 -0.111123
-0.1319764 -0.036352526 -0.1124683
-0.10348082 -0.035073195 -0.1176625
-0.097553737 -0.034670703 -0.11405881
-0.085682325 -0.034704015 -0.11982465
-0.076735273 -0.034479856 -0.1180089
-0.060728393 -0.034105208 -0.11166638
-0.38322467 -0.046972215 -0.10590495
-0.34000409 -0.0448828 -0.10254774
-0.32070059 -0.04424281 -0.10010637
-0.31333721 -0.044173632 -0.10082497
-0.28476673 -0.044837113 -0.10379472
-0.17452034 -0.039875403 -0.10314043
-0.090826422 -0.033962131 -0.10306351
-0.082364924 -0.033939309 -0.10813519
-0.042518239 -0.033756465 -0.10302397
-0.031630997 -0.03761024 -0.10629354
-0.3738381 -0.0465919 -0.096374169
-0.36802998 -0.046334073 -0.092060633
-0.35235319 -0.045456506 -0.094516888
-0.31635648 -0.044067085 -0.094496205
-0.26603657 -0.045249313 -0.090607971
-0.15568012 -0.037850045 -0.099524751
-0.14220551 -0.036526702 -0.093125924
-0.083818674 -0.033280659 -0.093134776
-0.055471528 -0.03254931 -0.091763198
-0.34431839 -0.045201451 -0.084674127
-0.28646529 -0.04341282 -0.080322579
-0.25366497 -0.04501716 -0.081416368
-0.070478916 -0.032365583 -0.084798254
-0.054271266 -0.032125697 -0.085138731
-0.04635755 -0.032094464 -0.086479202
-0.032987971 -0.032230269 -0.084188998
-0.010274268 -0.033827562 -0.082710855
-0.25768703 -0.022623796 -0.080044061
-0.21559376 -0.026612092 -0.080059409
-0.076387092 -0.029806394 -0.080002069
-0.28773803 -0.011127722 -0.080633774
-0.23638393 -0.016610419 -0.080794483
-0.2254609 -0.018095788 -0.080694206
-0.20453911 -0.018835034 -0.080523953
-0.18419936 -0.01904192 -0.080093689
-0.3015393 -0.004702976 -0.080871731
-0.27978569 -0.0049243751 -0.081490159
-0.26402491 -0.0098335417 -0.081173614
-0.24013038 -0.0025091663 -0.08209496
-0.22757111 -0.0071552824 -0.081537284
-0.28339675 0.0047674612 -0.082381129
-0.26189554 0.0051520956 -0.082882464
-0.25664282 0.0013579421 -0.082540415
-0.24486695 0.0075852717 -0.082871966
-0.21929237 0.0057003838 -0.081048004
-0.30845582 0.016194183 -0.082774833
-0.29221275 0.016257018 -0.083392955
-0.27629632 0.017936261 -0.084053412
-0.26381737 0.015749186 -0.083772063
-0.31416288 0.025346601 -0.081505232
-0.30919942 0.021998243 -0.081670091
-0.28526086 0.020056859 -0.084015973
-0.328949 0.038916398 -0.082623906
-0.3174611 0.03052686 -0.081095815
-0.29628056 0.033801146 -0.083072469
-0.26683772 0.036194406 -0.083672583
-0.33423692 0.04827594 -0.085882887
-0.3246699 0.045918811 -0.082823083
-0.30104449 0.04781276 -0.084707707
-0.29391938 0.042985521 -0.086282223
-0.27765152 0.046154715 -0.08356791
-0.34505144 0.054001614 -0.086698323
-0.33224139 0.055664517 -0.086210325
-0.32271242 0.056285735 -0.085266322
-0.30501214 0.054310381 -0.08481326
-0.29668343 0.055643678 -0.084170438
-0.286042 0.054197207 -0.086045526
-0.27672768 0.050781798 -0.085671604
-0.34786627 0.066739194 -0.086570717
-0.33722517 0.063707948 -0.086948171
-0.32271844 0.064544477 -0.08499933
-0.31339574 0.067366064 -0.088075258
-0.30261338 0.064718828 -0.08682701
-0.29607293 0.064243048 -0.087293424
-0.32168514 0.071736947 -0.088277377
-0.31460708 0.07369934 -0.087333664
-0.30504888 0.07318712 -0.087767527
-0.32097101 0.083568498 -0.089003772
-0.34688139 -0.045511026 -0.07646516
-0.33272421 -0.042406332 -0.074337363
-0.32936949 -0.043075696 -0.073336527
-0.31930324 -0.047346525 -0.07735724
-0.283611 -0.043360297 -0.07920827
-0.26226687 -0.040608175 -0.075290293
-0.32262599 -0.039436646 -0.075389326
-0.31102741 -0.034022503 -0.076826766
-0.29361528 -0.033143044 -0.0780444
-0.27594233 -0.03603578 -0.075768143
-0.26598299 -0.035102848 -0.075845264
-0.25324032 -0.038496569 -0.078549325
-0.24601644 -0.03985098 -0.071889065
-0.18524155 -0.034470856 -0.075241923
-0.17695276 -0.035533652 -0.076293036
-0.1608561 -0.031307839 -0.0739576
-0.15495014 -0.035990346 -0.076268464
-0.14349502 -0.035115182 -0.073113792
-0.13880858 -0.034965031 -0.071350634
-0.12275957 -0.033201303 -0.079808205
-0.095313698 -0.032622259 -0.07379356
-0.081318974 -0.031887151 -0.073419482
-0.065908387 -0.030962316 -0.072164364
-0.040666971 -0.03021777 -0.07202813
-0.024270065 -0.031732481 -0.07660187
-0.018192057 -0.032349147 -0.079860896
-0.0089859031 -0.033012405 -0.078874283
-0.3373028 -0.029441927 -0.075404033
-0.3015157 -0.026138734 -0.078453988
-0.28734031 -0.023965117 -0.076560952
-0.25857246 -0.024873914 -0.074657187
-0.2358278 -0.028599357 -0.079715565
-0.19662957 -0.027482614 -0.077155598
-0.17546934 -0.024745274 -0.079880536
-0.16951685 -0.02588715 -0.075179458
-0.15082185 -0.026723482 -0.076509722
-0.12520909 -0.027727896 -0.078001894
-0.11257011 -0.02982923 -0.075077809
-0.10832191 -0.026386358 -0.07943441
-0.084055424 -0.0251508 -0.078068577
-0.066488251 -0.027247384 -0.076374322
-0.27820399 -0.018877387 -0.07537894
-0.26918849 -0.014582694 -0.075838529
-0.22691916 -0.016793016 -0.075958192
-0.21493222 -0.015071772 -0.076289013
-0.19245003 -0.012779142 -0.077799767
-0.18379407 -0.01543675 -0.079549171
-0.17157918 -0.019234128 -0.078642547
-0.29902461 -0.00026202155 -0.077496514
-0.27472687 -0.0088360086 -0.076452002
-0.24471782 -0.0083490275 -0.076853625
-0.22141822 -0.004362897 -0.077757135
-0.20411034 -0.0079347258 -0.078357652
-0.29311258 0.0054800659 -0.078034602
-0.2544862 0.0085485335 -0.078773811
-0.30292863 0.017364835 -0.079443648
-0.29518455 0.016644286 -0.079224288
-0.2843796 -0.041255243 -0.068902925
-0.25268 -0.03977979 -0.062183186
-0.24064288 -0.039294571 -0.063444406
-0.20450495 -0.037097316 -0.061897516
-0.1902632 -0.036684968 -0.065646537
-0.18210289 -0.035834786 -0.061452862
-0.16922748 -0.035207503 -0.061670743
-0.142744 -0.034616679 -0.067906946
-0.13688923 -0.034094177 -0.066738613
-0.1293993 -0.033600748 -0.066791028
-0.093505919 -0.031452734 -0.067236654
0.0079523111 -0.030119514 -0.06967739
0.046555851 -0.030852625 -0.066883989
0.056088865 -0.032452617 -0.067965046
-0.033595785 -0.029050199 -0.066494748
-0.021676872 -0.029085772 -0.065718144
0.030136457 -0.028508028 -0.062239215
-0.25697213 -0.035854854 -0.05414572
-0.24359712 -0.032606065 -0.050779551
-0.23854709 -0.033726498 -0.053012654
-0.22754972 -0.036794081 -0.057546586
-0.19550925 -0.034403645 -0.052607242
-0.17580923 -0.034318227 -0.054804895
-0.15403926 -0.033528559 -0.055982601
-0.14707133 -0.032382336 -0.051132333
-0.1257752 -0.031115638 -0.052169628
-0.099493213 -0.030235596 -0.057857655
0.077564985 -0.030354945 -0.059499722
-0.090272628 -0.029471125 -0.056653928
-0.072828844 -0.02775486 -0.052068226
-0.063772157 -0.027868921 -0.055039044
-0.046162691 -0.026511351 -0.051223114
-0.039433509 -0.027867004 -0.059821501
0.040073413 -0.026500607 -0.054192666
0.060586207 -0.028758124 -0.059180964
0.077794828 -0.02691647 -0.052137934
-0.26328081 -0.032835484 -0.044832271
-0.20383079 -0.030980201 -0.047272071
-0.17250168 -0.030310202 -0.042007022
-0.14193904 -0.031313751 -0.045835834
-0.13624275 -0.031096593 -0.046752624
0.11882722 -0.030161269 -0.048611403
0.12043081 -0.031291913 -0.04991997
0.13995671 -0.033734642 -0.047033653
-0.12524796 -0.029858842 -0.0434951
-0.11098684 -0.029635971 -0.049172122
-0.10407832 -0.028378896 -0.043531764
-0.095023409 -0.027349047 -0.040277556
-0.079387374 -0.026388559 -0.041326459
-0.064508989 -0.026357334 -0.04612064
-0.0545827 -0.025891479 -0.045690209
-0.03084068 -0.025450226 -0.048288934
-0.025840474 -0.02357753 -0.040569171
0.032317318 -0.023993254 -0.046518806
0.049218744 -0.02478905 -0.048129894
0.056445025 -0.025888894 -0.044875931
0.062608443 -0.023631701 -0.043492611
0.11925182 -0.025964361 -0.042000838
0.13032056 -0.026855092 -0.041341946
-0.26635417 -0.032429993 -0.037421905
-0.15477829 -0.030145351 -0.030908696
0.19570041 -0.035516888 -0.032328546
-0.19211757 -0.028756168 -0.032799657
-0.17352203 -0.029274588 -0.035475418
-0.13653843 -0.029044135 -0.032427792
-0.11929343 -0.028111912 -0.033853486
-0.09107779 -0.025945902 -0.032556005
-0.080309227 -0.025509469 -0.035180286
-0.078619853 -0.025379654 -0.035172135
-0.050637588 -0.024694093 -0.039373644
-0.029368425 -0.023511507 -0.039782152
-0.019390879 -0.023071624 -0.039232615
0.0075152535 -0.022186041 -0.03913739
0.030704768 -0.020313291 -0.034542736
0.045946211 -0.022071186 -0.034177002
0.10086414 -0.021989534 -0.037886549
0.14699322 -0.022308491 -0.031739373
0.16398311 -0.026993338 -0.033560544
0.17037442 -0.029827077 -0.034850854
-0.21769062 -0.030424612 -0.026683379
-0.19631472 -0.03060364 -0.02587145
-0.17204669 -0.031119471 -0.021984704
-0.16641471 -0.030897707 -0.027783183
0.21885751 -0.030388284 -0.026082929
0.2381539 -0.035172552 -0.024581285
0.24605791 -0.036110319 -0.024183612
0.2682454 -0.030949086 -0.025102463
-0.15146568 -0.029247267 -0.022001857
-0.1318818 -0.028002681 -0.02688119
-0.12136313 -0.027265761 -0.026877973
-0.10326602 -0.025318276 -0.021909941
-0.079399571 -0.023916187 -0.024750354
-0.061618403 -0.023002338 -0.026450064
-0.038577233 -0.020310018 -0.023470709
-0.020604119 -0.020064492 -0.025900995
-0.016989278 -0.020556536 -0.02841828
0.20100111 -0.02663666 -0.026869552
0.22416368 -0.023597002 -0.026406005
0.25466684 -0.025319554 -0.025643833
0.27281645 -0.026645109 -0.025241751
-0.06493441 -0.019509228 -0.02032711
-0.034946963 -0.019909874 -0.023326099
0.0019883867 -0.018838203 -0.025563508
0.012686579 -0.01188146 -0.022662845
0.03293892 -0.014674316 -0.024634661
0.049072478 -0.016221998 -0.026189124
0.05666374 -0.014245366 -0.025676293
0.065043092 -0.013664465 -0.025906231
0.087987408 -0.012156098 -0.026453611
0.092181273 -0.014112638 -0.027175844
0.11813755 -0.017092027 -0.028330412
0.1250861 -0.013121733 -0.027277507
0.13380715 -0.015989304 -0.027926181
0.18759644 -0.016540129 -0.026895182
0.19658385 -0.01389788 -0.026253423
0.20327088 -0.016027989 -0.026414262
0.25666478 -0.011447124 -0.020965831
0.025956666 -0.0048514893 -0.020960005
0.056774236 -0.004928791 -0.022863809
0.10630178 -0.005415041 -0.025298303
0.11131968 -0.0073796362 -0.025904074
0.14528927 -0.0032815745 -0.025100257
0.18125249 -0.00046579348 -0.022367094
0.19782802 -0.0057343761 -0.023506273
0.24389628 -0.0092068128 -0.021247681
0.12084599 0.0050623016 -0.020075072
0.13648692 0.0041351737 -0.021042179
0.15576446 0.00071459444 -0.023158342
0.16344923 0.0010752601 -0.022423094
-0.26516211 -0.042932466 -0.018291797
-0.2975792 -0.038710728 -0.013065214
-0.28340545 -0.038003787 -0.01195506
-0.27459887 -0.037621908 -0.010797416
-0.2443798 -0.034716301 -0.015012023
-0.18576105 -0.031905059 -0.01638937
-0.18769631 -0.029700529 -0.010363965
-0.16975549 -0.028461941 -0.012440437
-0.13413568 -0.023697637 -0.01471236
-0.1159158 -0.025341455 -0.018265564
-0.10174666 -0.014091397 -0.013242651
-0.028393578 -0.010012303 -0.01929778
-0.07454282 -0.0093570137 -0.014261248
-0.068302318 -0.0085048303 -0.014660159
-0.052378569 -0.0070213228 -0.015465945
-0.03799485 -0.0077629825 -0.017253896
-0.018929508 -0.0044631748 -0.017252527
0.0023288075 -0.0015185406 -0.016885979
0.024897158 -0.0024676258 -0.019681171
0.1822869 -0.0020013149 -0.014294934
0.23763582 -0.0034198137 -0.015881659
-0.035513528 0.00042221314 -0.010516896
-0.01627373 0.0024162042 -0.011381561
0.0080537787 0.0052654576 -0.011835228
0.037963111 7.2006311e-05 -0.019058693
0.045327086 0.0056715729 -0.01509026
0.075991616 0.0071403985 -0.016315818
-0.31377953 -0.040388279 -0.0096556395
-0.29055339 -0.037544429 -0.0082391128
-0.26144415 -0.036701664 -0.0087592211
-0.25817701 -0.036119841 -0.001631028
-0.24132535 -0.034540534 -4.3600943e-05
-0.23636663 -0.034491803 -0.0037196458
-0.21003367 -0.03078494 -0.0049220952
-0.1997381 -0.028917529 -0.0009980076
-0.18073925 -0.025568888 -0.0069924942
-0.16716984 -0.020329628 -0.0091977883
-0.15760477 -0.022713497 -0.0083751976
-0.097991697 -0.0096814912 -0.0057516885
-0.057227891 -0.0010512291 -0.0040079835
0.18411778 -0.0080881873 -0.006211584
0.26933682 -0.005391187 -0.0034858072
-0.042881034 0.00077322964 -0.0077434764
-0.02315261 0.0033421514 -0.0090995813
0.1851048 0.004087789 -0.0027724307
0.22805861 0.0023968215 -0.0032416731
0.024967771 0.012711496 -1.6530692e-05
0.0618966 0.013889745 -0.0098011401
0.075120315 0.017129369 -0.0081781773
0.094520442 0.020639356 -0.0028486368
-0.28988668 -0.040488604 0.0070374017
-0.30611596 -0.038996093 0.0090633063
-0.29292649 -0.036781669 0.0054069245
-0.28439826 -0.036533576 0.0036567356
-0.27053016 -0.036575984 0.0040444862
-0.26527917 -0.036788803 0.0028144545
-0.1852109 -0.026905453 0.0055482043
-0.16152824 -0.023781687 0.0079360269
-0.14298216 -0.020860255 0.0093357405
-0.13564551 -0.01890252 0.0083806068
-0.10841674 -0.012056871 0.0049185054
0.26837355 -0.01014102 0.0099056866
-0.07261204 -0.0043046069 0.0042367238
0.25416306 -0.0015670141 0.0006163292
-0.040258821 0.0019773128 0.0022575839
-0.036503576 0.0024108165 0.0028284369
0.011864521 0.0082028601 0.0055840258
0.060274675 0.0088259699 0.0098387562
0.1832757 0.0044789761 0.0055552935
0.19088033 0.0059883688 0.0075050001
0.23974514 0.00051517639 0.0084009357
0.054521881 0.01072729 0.0079021323
0.061674878 0.016563261 0.0012642443
0.084464774 0.017096499 0.0050935932
-0.24771437 -0.048183337 0.013912716
-0.30115855 -0.038362548 0.011333815
-0.29403839 -0.038126424 0.013727752
-0.27307928 -0.037260488 0.015792798
-0.23780194 -0.036252484 0.013282832
-0.22968557 -0.035527736 0.012742247
0.2509737 -0.033829171 0.017227754
0.26615262 -0.032613721 0.017031699
-0.16963243 -0.027771948 0.011356648
-0.15170634 -0.023967415 0.010843555
-0.13423492 -0.024750063 0.013931274
-0.11623359 -0.022137096 0.014577435
-0.073668882 -0.020809095 0.017909093
0.21302626 -0.022388015 0.019773392
0.24188317 -0.022506349 0.018617988
0.2609916 -0.028833602 0.017795455
-0.092545331 -0.011823207 0.011027091
-0.068131477 -0.011116469 0.013832938
-0.05647862 -0.012289597 0.01544428
-0.047551654 -0.018535711 0.018697636
-0.0032486422 -0.014348099 0.019354342
0.035590969 -0.010026582 0.019289132
0.18141223 -0.015078251 0.012398861
0.19805659 -0.012005896 0.019127497
0.22736791 -0.016212739 0.018711427
0.23170274 -0.014921219 0.018199306
0.26793295 -0.011357921 0.011420604
0.27072108 -0.017666876 0.015288075
-0.060506202 -0.0069431709 0.012010003
-0.050099041 -0.0079430891 0.013590008
-0.049838029 -0.0041176858 0.010324108
-0.0076404558 -0.0046732049 0.014891599
0.00073661003 -0.0053135902 0.015850065
0.014402192 -0.004251664 0.016143112
0.041537635 -0.0030251711 0.016949827
0.057707436 -0.0087997541 0.019861687
0.097703688 -0.0030704669 0.019325782
0.11903589 -0.0041228728 0.01986686
0.16595367 -0.0087289484 0.019790545
0.17970696 -0.0098613463 0.01292798
0.18289039 -0.0035575852 0.017287251
0.19181785 -0.0027302378 0.016076172
0.035345145 0.0015544104 0.013578993
0.069276579 0.002473369 0.015582359
0.076210365 0.0062821652 0.012454563
0.080573916 0.0043454738 0.014916681
0.15494668 0.00043084726 0.017438386
-0.26824403 -0.035290122 0.029459409
-0.25465283 -0.032640211 0.029834185
-0.23929372 -0.032656744 0.025855538
-0.20356591 -0.032488752 0.021350257
-0.17174363 -0.03094526 0.025159322
-0.1683338 -0.030735811 0.020188365
-0.15994945 -0.030123189 0.023431733
-0.14944616 -0.029451929 0.026641587
-0.12787139 -0.028090412 0.028219858
-0.059368473 -0.021911466 0.020404598
-0.036885623 -0.02072547 0.021484626
-0.024654223 -0.021634892 0.02908708
0.046741195 -0.022378549 0.029650383
0.078452915 -0.020051572 0.023935199
0.13337201 -0.020954162 0.02652402
0.14631611 -0.02132573 0.024662612
0.17606221 -0.029707596 0.027020544
0.1847828 -0.027839571 0.023093402
0.20320055 -0.024603598 0.020107111
-0.0024398537 -0.019027736 0.022592641
0.061731491 -0.011173259 0.021519285
0.08523795 -0.017598838 0.024899179
0.099895939 -0.010001571 0.021226192
0.12469526 -0.013357655 0.022236377
0.1528645 -0.01486779 0.021363486
0.18925869 -0.017600067 0.020462509
0.071796745 -0.0097176926 0.021121234
0.088614359 -0.0073995176 0.020300545
0.14597109 -0.0083534457 0.020410512
0.14655547 -0.034091506 0.039739083
0.15975723 -0.031008171 0.033110913
-0.23475024 -0.029562766 0.032628905
-0.22890379 -0.028833441 0.035856456
-0.2074821 -0.028406613 0.035793476
-0.19481108 -0.028596558 0.035554394
-0.17169924 -0.029944995 0.039806832
-0.11718084 -0.027892597 0.031645875
-0.090055473 -0.027135108 0.038995557
-0.086804256 -0.026402963 0.035654638
-0.065698594 -0.024816543 0.033909112
-0.047949448 -0.023815768 0.032522224
-0.0061337836 -0.021703485 0.031706262
0.019766692 -0.021360818 0.033534899
0.037378799 -0.022163378 0.036582395
0.049699798 -0.022484519 0.032101613
0.062036224 -0.023207035 0.036953814
0.072200574 -0.021128204 0.030772645
0.10203372 -0.023804698 0.036196828
-0.24062636 -0.030392021 0.046440836
-0.21500246 -0.030193752 0.045811713
-0.17046422 -0.030416753 0.041769087
0.10379745 -0.030616686 0.048448086
0.11002034 -0.030992139 0.04730865
-0.2350108 -0.029276956 0.042263448
-0.21723861 -0.029054446 0.041548729
-0.1728546 -0.02996012 0.040060025
-0.10564861 -0.028717332 0.043292057
-0.06749016 -0.026536042 0.043760773
-0.055345371 -0.026592337 0.046999231
-0.028097196 -0.024435295 0.041056678
0.0065931263 -0.024774794 0.045643106
0.017628549 -0.023141276 0.040097374
0.041625921 -0.023823483 0.041564398
0.07503172 -0.025957007 0.044904068
-0.24622752 -0.037313957 0.058977719
-0.22496864 -0.034900133 0.055755246
-0.20775418 -0.033269368 0.051839475
-0.18635719 -0.034356304 0.051381163
-0.16734311 -0.03397052 0.054354951
-0.1562304 -0.033661917 0.054976635
-0.10585359 -0.031153847 0.059154201
0.085359506 -0.033252623 0.057394512
-0.060884535 -0.028529344 0.05691126
-0.059406076 -0.028828906 0.058791775
-0.039721467 -0.026791055 0.051112719
-0.024900779 -0.027484322 0.056022018
-0.013862356 -0.028066522 0.058786474
-0.0035822894 -0.027216069 0.055416849
0.0024783863 -0.02767216 0.057045244
0.01357878 -0.027616415 0.056705136
0.044693217 -0.028906247 0.057750281
0.058230288 -0.028788315 0.055390716
-0.25803313 -0.046466611 0.062761657
-0.24578375 -0.039496634 0.061944582
-0.23038216 -0.039006397 0.066030145
-0.1797826 -0.036751632 0.069626704
-0.16624752 -0.036043331 0.067482702
-0.15215446 -0.035648182 0.069955185
-0.14897078 -0.034515072 0.063475743
-0.12253165 -0.033024423 0.064245112
-0.11066212 -0.032925684 0.067719147
-0.08750312 -0.031183369 0.06541793
-0.061912019 -0.030135598 0.065712146
-0.057646088 -0.030694347 0.069585711
-0.042127967 -0.030334447 0.069602765
-0.023662526 -0.030131113 0.06857115
0.050620615 -0.030968249 0.062408399
0.016119048 -0.028582029 0.06037312
0.033403464 -0.029348575 0.06104213
-0.32470042 -0.04179541 0.076049559
-0.29645878 -0.041232932 0.07856676
-0.27675307 -0.040565785 0.076329224
-0.26384634 -0.047064044 0.079909414
-0.33551463 -0.038266659 0.076522753
-0.31384063 -0.038177103 0.075440601
-0.29453027 -0.036672298 0.074720845
-0.27431077 -0.035751916 0.079504743
-0.26557624 -0.038349312 0.073818251
-0.24509883 -0.030689217 0.074536659
-0.23983037 -0.033995297 0.079811282
-0.21495655 -0.03715995 0.076144546
-0.20683071 -0.034452714 0.07953243
-0.19705817 -0.031120803 0.073369004
-0.18723923 -0.034425013 0.079237923
-0.17522505 -0.037065156 0.07884641
-0.16463242 -0.035094306 0.072143786
-0.15869725 -0.031662036 0.07317549
-0.14530241 -0.034139488 0.07858441
-0.12743729 -0.034382477 0.072028451
-0.11259566 -0.030052785 0.073524989
-0.10096543 -0.033572152 0.078309268
-0.08494918 -0.031568043 0.075074501
-0.038225431 -0.031832397 0.079703212
-0.025503486 -0.03172946 0.075252242
-0.0072898967 -0.034137771 0.078233533
0.0097229183 -0.032027394 0.071943708
-0.33288056 -0.027816027 0.07765384
-0.3189548 -0.023646854 0.077471152
-0.29490286 -0.023919463 0.076481819
-0.23296265 -0.024458388 0.075269945
-0.19696596 -0.020007938 0.075404465
-0.18687218 -0.025796376 0.074265182
-0.16622531 -0.024114035 0.078892142
-0.15711905 -0.029778186 0.07867305
-0.12707824 -0.026638668 0.07762605
-0.10847984 -0.025926307 0.075775295
-0.081480265 -0.028585637 0.073344007
-0.060693894 -0.028930496 0.076823235
-0.29701591 -0.01492192 0.077535555
-0.27444398 -0.017630756 0.076692566
-0.26537526 -0.016258776 0.076720163
-0.24639241 -0.010490713 0.077298664
-0.22872488 -0.011185929 0.077066727
-0.20037186 -0.011514883 0.077397153
-0.18617687 -0.017443482 0.076350778
-0.2825489 -0.0091288835 0.077776358
-0.27473044 -0.0050387369 0.078076884
-0.25602922 -0.0062436755 0.077749878
-0.24276808 -0.0040902598 0.078065947
-0.30031598 0.004710732 0.079717703
-0.29775819 0.0031977734 0.079466239
-0.27648067 0.0086193364 0.079622589
-0.26424286 0.0055182083 0.079151906
-0.25770611 0.005540424 0.079208598
-0.23437409 0.008770288 0.07984519
-0.25476497 0.010115635 0.079804584
-0.29918951 -0.043725185 0.088931724
-0.28327847 -0.045440007 0.080062732
-0.2798588 -0.043961816 0.080053255
-0.26386046 -0.044063214 0.086528346
-0.17030069 -0.039345983 0.081348285
-0.16536228 -0.038912013 0.08536908
-0.14942986 -0.037273236 0.087082148
-0.13888742 -0.036290128 0.087364592
-0.12577644 -0.035300374 0.080328062
-0.11445713 -0.034614246 0.080344051
-0.10065725 -0.033829056 0.080241069
-0.098212615 -0.033813447 0.084272936
-0.064444937 -0.032259911 0.082334407
-0.055990413 -0.032103147 0.081616879
-0.016303066 -0.033228267 0.083233103
-0.3022989 -0.025180839 0.080065064
-0.27525812 -0.025926657 0.080591016
-0.25083578 -0.028944708 0.080343097
-0.23579751 -0.023296541 0.080721408
-0.21027175 -0.023197182 0.080472469
-0.20245916 -0.02561463 0.08016289
-0.24600004 -0.019203024 0.081227973
-0.30282712 -0.0049779573 0.082417428
-0.26172239 -0.0062570861 0.08261247
-0.31106687 0.0083777625 0.081976414
-0.30804291 0.0078367507 0.0836142
-0.26425695 0.0063976943 0.084053531
-0.25225914 0.0057746856 0.083709672
-0.22460906 0.005422486 0.082130417
-0.21965761 0.0059512844 0.081946462
-0.31311768 0.01718137 0.082204148
-0.30398637 0.016040524 0.082896501
-0.29388854 0.01313608 0.084475555
-0.28321719 0.012723037 0.084592104
-0.25055328 0.016223788 0.080667123
-0.23770231 0.011794858 0.080234393
-0.30396771 0.028195312 0.082238182
-0.29851896 0.028758645 0.082135782
-0.26761508 0.025096409 0.083752021
-0.25347286 0.021260284 0.083020158
-0.23830606 0.020967262 0.082067236
-0.31249642 0.039118949 0.083695412
-0.30586627 0.035052348 0.085437723
-0.29530168 0.037441317 0.083039016
-0.27626988 0.03640249 0.084242009
-0.26353219 0.035289899 0.085969411
-0.25649166 0.03241754 0.083153665
-0.33520749 0.047514006 0.087031595
-0.31029361 0.042587452 0.087376878
-0.29541618 0.045448974 0.085944198
-0.268316 0.043549903 0.084719419
-0.32706636 0.05576466 0.086194053
-0.29714447 0.053257726 0.085269526
-0.28750259 0.054251876 0.08822304
-0.33039185 0.066800624 0.089722134
-0.32172078 0.061920859 0.086658902
-0.30543756 0.064641006 0.08696188
-0.29227567 0.062845223 0.088719167
-0.34262556 0.074124858 0.089325204
-0.32349759 0.076787539 0.088833228
-0.33375275 -0.044798702 0.09114901
-0.29103708 -0.043667365 0.090416357
-0.27521932 -0.044703133 0.099143982
-0.1761687 -0.042167433 0.096583962
-0.17330283 -0.039820991 0.094467327
-0.16298932 -0.038791273 0.094846539
-0.13426068 -0.036241002 0.095739231
-0.10088962 -0.034136049 0.090398967
-0.07199879 -0.033198431 0.09593939
-0.024538832 -0.035076432 0.0971523
-0.31733748 0.083555527 0.090554245
-0.32235232 -0.044308852 0.10436623
-0.30418876 -0.044393439 0.10979228
-0.29946285 -0.044253252 0.1054828
-0.2862395 -0.045041587 0.10855167
-0.27544129 -0.046798341 0.10094887
-0.16825497 -0.039390877 0.10070965
-0.12127856 -0.03576263 0.10840297
-0.10308684 -0.034609128 0.10146246
-0.086310133 -0.034150392 0.10829769
-0.067124873 -0.033540323 0.10254414
-0.05202008 -0.033999957 0.105918
-0.043913901 -0.033798661 0.10149194
-0.38142437 -0.046948478 0.11119495
-0.35763082 -0.045605518 0.1169029
-0.3026869 -0.044988759 0.11843119
-0.29380828 -0.045055158 0.11394942
-0.16586234 -0.039272569 0.1187721
-0.15818927 -0.038372803 0.1139697
-0.14236957 -0.037319131 0.11694802
-0.12868652 -0.036410242 0.11689804
-0.11939955 -0.035708636 0.11005293
-0.078056209 -0.034294125 0.11241984
-0.042471655 -0.038851295 0.11484343
-0.36921784 -0.046082933 0.12554412
-0.35399121 -0.045375578 0.12797484
-0.34941489 -0.045192532 0.12702291
-0.31678748 -0.045280494 0.12931186
-0.16648981 -0.039357476 0.12412741
-0.1221478 -0.036501367 0.12928998
-0.061457649 -0.035365909 0.12407182
-0.058353327 -0.03544753 0.1234891
-0.38065785 -0.046531614 0.13870032
-0.34702986 -0.045202233 0.13396844
-0.1773349 -0.040621698 0.13394797
-0.13610327 -0.037265532 0.13254216
-0.12485744 -0.036827262 0.1347179
-0.11503059 -0.036323667 0.13317175
-0.10688804 -0.036071561 0.13426259
-0.085925736 -0.035841208 0.13467599
-0.062918104 -0.036841366 0.13666506
-0.40208578 -0.047589153 0.1486191
-0.39451981 -0.047218964 0.14480561
-0.37933937 -0.046428718 0.14129032
-0.36137483 -0.045617417 0.14852443
-0.34544054 -0.045711868 0.14888802
-0.18830439 -0.041886263 0.14323811
-0.15319404 -0.038667515 0.14667934
-0.13865051 -0.03763948 0.14044365
-0.09193103 -0.036325168 0.14117652
-0.076042138 -0.036794487 0.14362644
-0.38932109 -0.046771236 0.156693
-0.36840892 -0.045806952 0.15530437
-0.35002804 -0.046082802 0.15685399
-0.17354284 -0.040241014 0.15214494
-0.14155604 -0.038373373 0.15620938
-0.12521042 -0.03774276 0.15650688
-0.097981445 -0.03708268 0.15163839
-0.39620841 -0.047018766 0.1663866
-0.38373274 -0.046328779 0.16908114
-0.37135527 -0.046283748 0.16826348
-0.0905293 -0.041737475 0.16893306
-0.16504443 -0.039905023 0.1678572
-0.15356965 -0.039175157 0.16360186
-0.13907383 -0.038515124 0.16241153
-0.099482425 -0.03800936 0.16328366
-0.40985292 -0.047931142 0.17357785
-0.20095459 -0.043468829 0.17767
-0.18629405 -0.041767284 0.17637816
-0.09397953 -0.040744286 0.17482662
-0.16079473 -0.039809149 0.17241403
-0.15037696 -0.039399322 0.17344519
-0.10884514 -0.039126944 0.17896855
-0.15208951 -0.040082559 0.18794811
-0.1062686 -0.040876396 0.18760583
-0.14747678 -0.03995645 0.18869103
-0.13711455 -0.039826192 0.18928055
-0.19894233 -0.043255396 0.19254097
-0.18031873 -0.041533068 0.19577548
-0.14934102 -0.040536147 0.19908588
-0.11531692 -0.040235985 0.19208327
-0.13945135 -0.039929979 0.1906639
-0.19515213 -0.043120921 0.21886611
-0.18372642 -0.042298578 0.2139326
-0.1677648 -0.041852221 0.21720985
-0.13658831 -0.042154901 0.21426187
-0.14259991 -0.043607503 0.22194323
-0.13768046 -0.043219682 0.22113894
-0.20714179 -0.044487994 0.24651486
-0.22114372 -0.045562167 0.25635248
-0.2174056 -0.045319729 0.25383085
-0.20307899 -0.044889312 0.25732398
-0.17231897 -0.045498393 0.25421745
