# .PCD v0.7 - Point Cloud Data file format
VERSION 0.7
FIELDS x y z
SIZE 4 4 4
TYPE F F F
COUNT 1 1 1
WIDTH 827
HEIGHT 1
VIEWPOINT 0 0 0 1 0 0 0
POINTS 827
DATA ascii
-0.1340427 -0.023594508 -0.33173835
-0.12375205 -0.037280459 -0.30457908
-0.10682544 -0.037827011 -0.29133677
-0.077244848 -0.039242044 -0.29139847
-0.073698252 -0.040308446 -0.28104019
-0.093034878 -0.040236007 -0.27994919
-0.067315683 -0.041161049 -0.27144331
-0.087768599 -0.041779667 -0.26244533
-0.059276436 -0.041392744 -0.26765758
-0.028394159 -0.061671264 -0.25119638
-0.017543271 -0.066427998 -0.25258234
-0.0025233363 -0.066870831 -0.25269425
0.0022924305 -0.062175147 -0.25351161
-0.016936256 -0.054972801 -0.25044212
0.0095037008 -0.056320172 -0.25183275
-0.095750622 -0.042047009 -0.25525853
-0.087434366 -0.0405383 -0.25900158
-0.050904639 -0.0413078 -0.25419694
-0.066367842 -0.039915353 -0.25425538
-0.024299677 -0.071222298 -0.24639443
0.010936882 -0.073165759 -0.24270202
0.0063986937 -0.064366758 -0.24952294
-0.036014616 -0.05110652 -0.24041283
-0.016282618 -0.055667892 -0.24617435
-0.090838462 -0.042993594 -0.24392331
-0.083417408 -0.043279156 -0.24450547
-0.065637924 -0.043646369 -0.24411908
-0.01722933 -0.047930092 -0.24090654
-0.018276501 -0.073829323 -0.23487791
0.0019998723 -0.071960092 -0.23633143
-0.022307348 -0.065947562 -0.23812956
-0.026737055 -0.054811332 -0.23214903
0.0022673195 -0.057463944 -0.23652159
-0.07511913 -0.044463351 -0.23199718
-0.062196575 -0.042125653 -0.23192045
-0.019514283 -0.049031343 -0.23561041
-0.026171545 -0.064468451 -0.22892547
-0.030411398 -0.056828547 -0.22929919
-0.021071371 -0.058934022 -0.22767521
-0.018604843 -0.055823755 -0.22808743
0.0044545704 -0.057871006 -0.22740456
-0.063307062 -0.045476459 -0.22281516
-0.042438064 -0.041774515 -0.22518352
-0.056569472 -0.043684334 -0.21666302
-0.027837554 -0.047123395 -0.20785479
-0.015933372 -0.045160331 -0.20365854
-0.044634402 -0.055073276 -0.19137383
-0.026375612 -0.050249539 -0.19002661
-0.044005077 -0.046702087 -0.19529241
-0.019628529 -0.043831542 -0.19223419
-0.0038634778 -0.048233327 -0.19332197
0.00044422597 -0.048142329 -0.19213821
-0.057084795 -0.048549492 -0.18951151
-0.043351371 -0.047270589 -0.18533812
-0.024242263 -0.044503771 -0.18794118
-0.019536063 -0.049317747 -0.18502755
0.0094479732 -0.04862155 -0.18487245
0.011368086 -0.045348018 -0.18560761
-0.033151723 -0.050249491 -0.17510431
-0.0033393521 -0.050361093 -0.17340049
-0.020825064 -0.046282928 -0.17209651
0.0065417578 -0.04450452 -0.1728715
-0.020102423 -0.051328659 -0.16516383
-0.040990807 -0.049903255 -0.16333559
-0.036900833 -0.049304493 -0.16389146
0.020632956 -0.045254163 -0.16909753
-0.04254321 -0.051708356 -0.15774757
-0.026361858 -0.049343526 -0.15445341
-0.0072220657 -0.04757037 -0.1510924
0.015121513 -0.045627844 -0.15006801
-0.02345847 -0.053286523 -0.14541313
-0.0052485089 -0.053690158 -0.14448562
-0.0031813311 -0.047702052 -0.14656086
-0.014317506 -0.054467339 -0.13433595
-0.0095813852 -0.049484197 -0.13991584
0.029269047 -0.054956414 -0.12795556
0.032515626 -0.054846503 -0.12830181
0.049841747 -0.055156238 -0.1221684
0.06358467 -0.052598886 -0.12554772
-0.00023002038 -0.049660224 -0.12963153
0.016402833 -0.048650641 -0.12167789
0.023726957 -0.047560897 -0.12460736
0.046750501 -0.046387918 -0.12867594
0.10433348 -0.070717663 -0.11110266
0.10224487 -0.068513572 -0.11060958
-0.0071243113 -0.053196572 -0.11377621
0.0026280577 -0.054009907 -0.11623085
0.035357572 -0.056034144 -0.11844337
0.023274712 -0.048344251 -0.11762067
0.037766181 -0.047419123 -0.11417667
0.063234411 -0.047498249 -0.11940375
0.10415996 -0.084268011 -0.10500779
0.072460406 -0.078442246 -0.10506587
0.084817275 -0.078530461 -0.10649318
0.092441082 -0.074293837 -0.10461213
0.089334421 -0.064580888 -0.10814932
-0.013062788 -0.054686494 -0.1097423
-0.0077745253 -0.055353314 -0.10976813
0.010755384 -0.051600423 -0.10676664
0.054094017 -0.057449788 -0.10296997
0.036573306 -0.048282713 -0.10739855
0.06984248 -0.047464408 -0.10470336
-0.32681414 -0.011106338 -0.10045098
-0.3396067 -0.0095349718 -0.10634121
0.090121903 -0.082695812 -0.09028279
0.1125126 -0.085602924 -0.09084069
0.12111364 -0.08629977 -0.095089793
0.093110465 -0.075553596 -0.097409569
0.071663938 -0.067411654 -0.094138384
0.088012323 -0.063283712 -0.098063849
0.11457855 -0.062261969 -0.097556591
0.12433016 -0.062599003 -0.094749048
-0.021798905 -0.05977983 -0.091601774
-0.017382357 -0.057756633 -0.097329527
-0.003333743 -0.058658853 -0.092872143
0.012209609 -0.05316988 -0.094174184
0.034493066 -0.05871103 -0.099464707
0.044652827 -0.057268038 -0.099703833
0.05943542 -0.058960982 -0.092539221
0.088905886 -0.055223256 -0.09640491
0.095092006 -0.058707952 -0.096075274
0.10006555 -0.05587218 -0.092874244
0.032881249 -0.049919572 -0.095738932
0.085198998 -0.048477221 -0.093298748
-0.30651197 -0.011070497 -0.098838747
-0.31403092 -0.0095061557 -0.093194619
0.080234356 -0.077748381 -0.088684082
0.096856676 -0.074793577 -0.083530679
0.10851716 -0.071582124 -0.082481876
0.12095367 -0.072470799 -0.082728572
-0.0075808838 -0.068389326 -0.089866333
0.014084981 -0.062667973 -0.083332285
0.033471052 -0.062287383 -0.086103387
0.085018575 -0.066685937 -0.089210898
0.10454534 -0.068671003 -0.083283305
0.11516649 -0.068072438 -0.084384978
0.0046239295 -0.058019221 -0.086097471
0.052454874 -0.048676342 -0.088571377
0.066445991 -0.048084434 -0.082797222
0.014161727 -0.06191165 -0.074078843
0.020301605 -0.062252775 -0.072024956
0.048671108 -0.061938431 -0.07424248
0.087466978 -0.06009116 -0.075929552
0.03257715 -0.05304648 -0.072753072
0.082791582 -0.048209324 -0.074650966
-0.30215079 -0.012969091 -0.075049967
-0.29194045 -0.011413334 -0.077760361
-0.28136966 -0.01442998 -0.072129317
0.025716962 -0.087875739 -0.061281264
-0.019538535 -0.064865753 -0.063678049
0.046244174 -0.068371773 -0.061350342
0.07658691 -0.062801473 -0.063638821
0.023519604 -0.056043725 -0.061704949
0.05950008 -0.050405219 -0.063161716
-0.2970773 -0.016348101 -0.061552893
-0.27513885 -0.016313409 -0.061926685
0.025133723 -0.090677127 -0.050143715
0.039583776 -0.094263539 -0.058223076
0.044554975 -0.091678947 -0.057212509
0.023191694 -0.088661082 -0.056494098
0.031500313 -0.086282112 -0.054373309
0.037902478 -0.073271036 -0.052415952
-0.0077882465 -0.066228464 -0.056837797
0.0056326343 -0.063696809 -0.057742931
0.012335336 -0.064413399 -0.054706831
0.021674279 -0.0667402 -0.057316717
0.03240066 -0.060348082 -0.053280082
0.072614729 -0.064594701 -0.056547944
0.042739734 -0.053261559 -0.059358202
0.05375313 -0.052213497 -0.054106362
0.062601127 -0.050933111 -0.051890057
0.12383504 -0.055827055 -0.059070669
0.076651275 -0.04924133 -0.057222128
0.084805459 -0.048593707 -0.05454959
0.09170714 -0.048536409 -0.054429337
0.10423611 -0.048475057 -0.0536061
-0.31162551 -0.016397098 -0.051152501
-0.28356108 -0.013481745 -0.05454798
0.046767678 -0.092047624 -0.045340557
0.040225487 -0.086605996 -0.047224935
0.033192389 -0.070789382 -0.044462156
-0.0030477217 -0.063548356 -0.047426291
0.01746645 -0.063458525 -0.048375156
0.022881107 -0.066334747 -0.044371866
0.056874193 -0.068115398 -0.040800143
0.089402407 -0.048450917 -0.047340386
0.12595178 -0.049154829 -0.041740485
-0.32092029 -0.0163978 -0.043696828
-0.29912189 -0.016016297 -0.041841459
-0.28769135 -0.018179415 -0.047431372
-0.26905251 -0.014963055 -0.040783506
0.079478242 -0.070044875 -0.033521015
0.11546513 -0.070571214 -0.032645002
0.0013325973 -0.065973237 -0.033264894
0.02646346 -0.063878037 -0.034491047
0.035156772 -0.066242144 -0.033452872
-0.11472021 -0.053584181 -0.030066185
-0.088285573 -0.052156385 -0.032072529
-0.061266743 -0.052247867 -0.032509394
-0.019782554 -0.051930979 -0.030874521
0.020607203 -0.055482842 -0.035239559
0.06336084 -0.050167251 -0.034432132
0.074779697 -0.050732404 -0.036449824
0.14538968 -0.054327384 -0.033989966
0.15566842 -0.056725848 -0.032297704
0.16500816 -0.058053516 -0.031897895
0.18098645 -0.050098687 -0.033112176
0.19769812 -0.054245107 -0.031898607
-0.13335864 -0.041073583 -0.03283482
-0.11149092 -0.045494497 -0.03325389
-0.067830913 -0.04804334 -0.033482928
0.038733609 -0.046549857 -0.033978261
0.044478141 -0.045131009 -0.034115095
0.063733198 -0.044769056 -0.034129523
0.10661979 -0.048104398 -0.036561921
0.12661451 -0.04859937 -0.031783085
0.14593378 -0.046246402 -0.033362262
0.19784883 -0.047191605 -0.033636566
0.22145832 -0.048416004 -0.032695249
0.2438767 -0.046186615 -0.031811219
-0.11626677 -0.031571634 -0.033136886
-0.081498981 -0.032071114 -0.033227377
-0.072599739 -0.035175949 -0.033789717
0.019776901 -0.039975833 -0.034160484
0.033735052 -0.033807375 -0.033541825
0.049068287 -0.030892476 -0.032997206
0.052000865 -0.036517348 -0.033947036
0.078751504 -0.03794108 -0.034037247
0.1230176 -0.031802177 -0.033178657
0.19545226 -0.034080815 -0.033591371
-0.12353075 -0.027399063 -0.031930845
-0.065210052 -0.026231067 -0.031544581
-0.027274996 -0.029483313 -0.032567482
-0.0023866524 -0.02938964 -0.032538913
0.0037504593 -0.024577811 -0.030825004
0.016383145 -0.024827026 -0.030935651
0.071818337 -0.026787799 -0.031745318
0.13432938 -0.027665095 -0.032013014
0.16385061 -0.024625218 -0.030845946
0.18126874 -0.027568106 -0.03198332
0.20403472 -0.027648212 -0.032007687
0.23704247 -0.028283386 -0.030696344
-0.29730406 -0.018705312 -0.037986431
-0.27779731 -0.017551292 -0.035239957
-0.26182663 -0.01989723 -0.035300799
-0.25153464 -0.019695729 -0.035828032
-0.007288849 -0.093894407 -0.020472633
0.031664666 -0.077744618 -0.023471162
0.056034684 -0.076373741 -0.025429476
0.075991496 -0.076653041 -0.024964388
0.08675316 -0.070524231 -0.02990867
0.12276289 -0.078835823 -0.020847714
-0.10546355 -0.06608744 -0.021952478
-0.051734962 -0.060522087 -0.029072039
-0.033223312 -0.065992624 -0.025332794
0.013549667 -0.064209908 -0.029002802
0.056284372 -0.069811746 -0.028174456
0.15180811 -0.060876034 -0.029687006
0.17571282 -0.06251476 -0.027868792
0.20506392 -0.061963119 -0.028196067
0.21684977 -0.069925599 -0.020488564
0.23162827 -0.061539114 -0.027136121
0.25586441 -0.063193806 -0.023244606
-0.15258358 -0.05293848 -0.025358049
-0.13807805 -0.052717011 -0.028198313
0.034880523 -0.057406522 -0.025962139
0.26199481 -0.050982729 -0.028394068
-0.18559813 -0.043531202 -0.026002472
0.25727582 -0.047098987 -0.029861398
0.30454007 -0.04727333 -0.022058683
-0.22237737 -0.030816093 -0.022839062
-0.19581594 -0.030967869 -0.027381398
-0.17499328 -0.03673429 -0.02941614
-0.19375899 -0.027769344 -0.028052598
-0.17452852 -0.024211898 -0.029710624
-0.1618827 -0.023309398 -0.029881805
-0.14431185 -0.022664376 -0.029769342
-0.063312665 -0.021076389 -0.029131418
0.18885826 -0.02236666 -0.029843228
0.23454396 -0.020390492 -0.027770236
0.28216624 -0.025607847 -0.022627005
-0.23238163 -0.019939188 -0.021154594
-0.13353807 -0.010681624 -0.021230657
-0.1247844 -0.013479214 -0.023802057
-0.11004113 -0.013835057 -0.024127118
-0.10913201 -0.010490441 -0.021138778
-0.08476536 -0.014683651 -0.024832321
-0.056325838 -0.014258491 -0.024361275
0.044161204 -0.015656248 -0.025551651
0.060608316 -0.015585659 -0.025499444
0.14472182 -0.014246759 -0.025003726
0.18135718 -0.01848161 -0.027557116
0.22856152 -0.010815365 -0.022870416
0.23538066 -0.019936249 -0.027529694
0.25565702 -0.014768649 -0.022939062
0.27054626 -0.016177911 -0.021288872
0.033282302 -0.0097302441 -0.020488858
0.18378437 -0.0074232239 -0.020989699
-0.06751883 -0.075044245 -0.012146056
-0.02635261 -0.073437303 -0.019303624
0.027993552 -0.078784585 -0.018586142
0.035482727 -0.079092637 -0.016538043
0.062246945 -0.079297073 -0.016474802
0.071408905 -0.079559349 -0.011582468
0.11825317 -0.079027899 -0.019403841
0.12582807 -0.079286173 -0.017426349
0.17790294 -0.074915081 -0.018669659
0.18239602 -0.076305091 -0.010836428
0.20109951 -0.070796885 -0.019901132
0.22981158 -0.073639855 -0.013286322
0.23767263 -0.071916036 -0.015754936
0.24641766 -0.073811054 -0.01086155
-0.16202258 -0.062879145 -0.015222455
-0.0010914323 -0.069036245 -0.01228097
0.31485993 -0.060713194 -0.012541292
-0.1864925 -0.057888709 -0.013155876
-0.23392199 -0.043487489 -0.014362729
-0.1967766 -0.049307514 -0.019535491
-0.26942515 -0.033970196 -0.013154462
0.33467722 -0.039738208 -0.01444504
0.34151074 -0.034348957 -0.010375181
-0.31013393 -0.022479704 -0.011248114
-0.27091476 -0.022436135 -0.012705189
-0.26610786 -0.025711067 -0.017036809
-0.25646454 -0.022629419 -0.017405849
-0.2476269 -0.025820008 -0.019944765
0.29951611 -0.022063032 -0.015850469
0.30346957 -0.029392615 -0.019507352
0.31666827 -0.023516428 -0.01162309
-0.30553773 -0.017813923 -0.013305
-0.28653857 -0.01490279 -0.012710684
-0.26632822 -0.015719214 -0.015007426
-0.25307804 -0.017799094 -0.01719575
-0.2200447 -0.019484578 -0.016233882
0.28050885 -0.018894833 -0.019514186
-0.19861791 -0.0096368259 -0.018833894
-0.12699328 -0.0048576547 -0.01021521
-0.11448289 -0.0048044585 -0.010033521
-0.099432558 -0.0049346853 -0.010478307
-0.061497282 -0.0080877468 -0.018006146
-0.047633655 -0.0072684083 -0.015860606
-0.023187231 -0.0051190211 -0.011107897
0.0098308604 -0.0058901645 -0.01343945
0.058272898 -0.0058930116 -0.014196262
0.065061212 -0.0063558705 -0.015432341
0.070241831 -0.0035507353 -0.0121765
0.17637895 -0.0053155143 -0.019739656
0.26026803 -0.0016759619 -0.015775582
0.25876278 0.0006450403 -0.013575578
0.27950495 -0.083605684 -0.00075609796
-0.13195086 -0.070288427 -0.0035236061
-0.089811623 -0.075538695 -0.0077660242
-0.075442798 -0.077680722 -0.0028320174
-0.039337613 -0.076753676 -0.0068738284
0.0016913567 -0.07317619 -0.0044470225
0.014876743 -0.079796582 -0.0033311232
0.027671751 -0.079806194 -0.0029703388
0.050475419 -0.079740956 -0.0034945123
0.11594838 -0.079681478 -0.0018200115
0.13777372 -0.079699226 -0.00047219783
0.16185981 -0.079164594 -0.0015832897
0.18902645 -0.076544039 -0.0080179013
0.19355804 -0.077827834 -0.0020064847
0.23070677 -0.07707867 -0.0012151698
0.25740817 -0.074296325 -0.0072776671
0.28233343 -0.071528487 -0.0020509022
0.30623376 -0.06902428 -0.0089231003
0.31930986 -0.062147222 -0.0086723836
-0.22200823 -0.050028503 -0.0095592747
-0.20771725 -0.054077026 -0.0012565946
-0.19109574 -0.057790399 -0.00028568791
-0.25254494 -0.043267451 -0.0062732031
0.3555949 -0.045517355 -0.0042386637
-0.27176046 -0.039317656 -0.002253833
0.35118514 -0.032430261 -0.00040948793
-0.31798995 -0.029145751 -0.001381879
-0.28426877 -0.022186499 -0.0080105839
-0.32067129 -0.0056236191 -0.0045858901
-0.28888771 -0.007038028 -0.0083894506
-0.26200062 -0.0041199876 -0.0035713587
-0.17416787 -0.0035489218 -0.0045310818
-0.14666402 -0.0039090011 -0.0062118294
-0.10768355 -0.0035338218 -0.0043841666
-0.057825018 -0.0038415079 -0.0059054671
-0.036837317 -0.0044828649 -0.0087581277
0.045906208 -0.0039626481 -0.0064553437
0.066467986 -0.0016753587 -0.0026083132
0.29451317 -0.0075928215 -0.0096159354
0.077137962 6.4448948e-05 -0.00064517406
0.10735453 0.0021752818 -0.0077440143
0.1132966 0.0020155529 -0.0096817026
0.19157526 0.0057397853 -0.0018507789
0.20993727 0.0057254429 -0.0019806698
0.27419394 0.0028222823 -0.0070322091
-0.32457542 0.017036511 -3.9953771e-05
-0.31601411 0.015118522 -0.001250262
-0.26617604 0.011867316 -0.0030377007
-0.22034307 0.016783629 -0.00020489324
-0.32750109 0.029658595 -0.00052676833
-0.28067023 0.021965709 -0.0030460763
-0.27349153 0.020496087 -0.0027998183
-0.24353085 0.022495992 -0.001101519
-0.2842674 0.037577853 -0.0021423113
-0.31612751 0.046575189 -0.0025565571
-0.30322576 0.045683842 -0.0025948933
-0.29111874 0.040946487 -0.0022787845
-0.27251661 0.04567913 -0.0010760888
-0.30756652 0.058600467 -0.0020376854
-0.28506106 0.051528931 -0.0013511946
-0.32383209 0.067183957 -0.0023203078
-0.31284946 0.065197468 -0.0019017512
-0.29122236 0.068940118 -0.00062235375
-0.30410004 0.074418589 -0.00093238952
-0.29083207 0.071753122 -0.00043902101
-0.31369561 0.083217666 -0.00088774611
-0.35032469 0.093194366 -0.00088502781
0.28308898 -0.091775544 0.0068269535
-0.11676306 -0.073000975 0.0021473942
-0.095561653 -0.076355405 0.0035100649
-0.083742306 -0.077391393 0.001428295
-0.056080002 -0.077653833 0.0040665222
-0.017138386 -0.079489663 0.0035515814
0.043838412 -0.079639852 0.0091508785
0.050572321 -0.079664625 0.0075685824
0.086226612 -0.079629675 0.0056270924
0.10501829 -0.079584524 0.0095517226
0.12586404 -0.079662196 0.0031795369
0.14628842 -0.07966987 0.0026987188
0.1561754 -0.079463743 0.0057728607
0.18203288 -0.077513933 0.003719544
0.29991609 -0.073252581 0.0093769617
-0.17165703 -0.061868872 0.001061134
-0.15580034 -0.064833358 0.004777017
-0.14510046 -0.067144074 0.0041543473
0.0007002221 -0.061670821 0.0047104852
0.3030242 -0.067712732 0.0073256013
-0.21461061 -0.052498139 0.0012953097
-0.1799607 -0.059682094 0.0082726404
0.33234224 -0.058804885 0.0045549888
-0.24523944 -0.045027915 0.0054431045
-0.29800078 -0.032614019 0.0072252308
-0.32037497 -0.022786064 0.007158014
0.32889026 -0.021595558 0.0056347782
0.33620721 -0.023835775 0.0014679232
-0.22335088 -0.019286912 0.0077750059
0.31230345 -0.01106653 0.0020024821
-0.26751661 -0.0039166268 0.0019745848
-0.25061703 -0.00041401613 0.0046681897
-0.23143256 -0.0036406557 0.0019816328
-0.2230971 -0.0033525741 0.006091713
-0.21880016 -0.0045957635 0.0078329574
-0.19241938 -0.0045883195 0.0086399689
-0.065561965 -0.0039545945 0.0060420497
-0.024010878 -0.0035561423 0.004224665
-0.0047131209 -0.003178322 0.00056450238
-0.28319415 0.0076692766 0.0038865702
-0.24128422 0.0013295504 0.0033265983
-0.23550618 0.0025171626 0.0027539902
-0.19959354 0.0011041421 0.00091144914
0.099757053 0.0021299077 0.0057356628
0.11903954 0.0022342713 0.0090719983
0.18563661 0.0035665249 0.009497596
0.22693563 0.005875791 0.00033319381
-0.32436088 0.021988263 0.00019687616
-0.29951081 0.020635825 0.0031703769
-0.27338469 0.024167135 0.0021619785
-0.26384434 0.02951655 0.001287159
-0.23193252 0.020298701 0.00025268859
-0.30655983 0.031143209 0.0026137291
-0.28646433 0.048293777 0.0012547413
-0.30994934 0.080440633 0.00050971156
-0.32669324 0.092946425 0.0007347723
-0.0073829405 -0.093632877 0.015494401
0.0072277244 -0.09354274 0.012934763
-0.0058603771 -0.088532791 0.017695043
0.0022689889 -0.088978902 0.010980052
-0.11958704 -0.070814371 0.014302099
-0.072655775 -0.074661031 0.012736439
-0.00084900926 -0.074981645 0.01805741
0.0032010856 -0.079798512 0.01712019
0.084892862 -0.079326078 0.016269449
0.11683122 -0.078906827 0.019953489
0.15980333 -0.071375743 0.018583219
0.17126609 -0.075191505 0.011377269
0.19253144 -0.073466577 0.014982656
0.22657004 -0.07445319 0.011671123
0.23016277 -0.072057433 0.01569476
-0.14664719 -0.066187993 0.011127641
-0.10828349 -0.069726706 0.017301917
0.25785851 -0.068439737 0.018281067
0.30428791 -0.061451487 0.015225816
-0.19180453 -0.05062516 0.019201603
-0.16761459 -0.057029352 0.019021548
0.31942946 -0.051384017 0.016850419
-0.23831795 -0.045573797 0.010506595
-0.22410777 -0.049476013 0.010080678
-0.2830711 -0.030527245 0.011697989
-0.24649675 -0.033853803 0.017199926
0.32714731 -0.035804223 0.015636973
-0.303507 -0.02365651 0.012103651
-0.28235468 -0.021658491 0.015085761
-0.27029866 -0.029004525 0.014942752
-0.26524559 -0.021894846 0.018668471
0.29527867 -0.026962496 0.019716686
-0.31287786 -0.019385558 0.012856732
-0.29618573 -0.01130043 0.010895617
-0.27191073 -0.016806604 0.019193169
-0.25973848 -0.01761169 0.011846744
-0.23681706 -0.014099453 0.014261364
-0.16226897 -0.0075844252 0.016467469
-0.15667003 -0.0069403145 0.015397001
-0.14996877 -0.0056146043 0.012423849
-0.13352899 -0.0051522953 0.010844832
-0.094114408 -0.0062580733 0.013877348
-0.084611729 -0.0068791853 0.01525259
-0.036522377 -0.0051736645 0.010917818
-0.018712789 -0.0063679549 0.014120644
0.028746314 -0.0080018165 0.017489839
0.030876752 -0.0082050487 0.01781985
0.092735365 -0.0024062491 0.013844931
0.10913601 -0.0055603795 0.018372752
0.11620319 -0.0051134415 0.018482767
0.13722272 -0.0055846656 0.019405682
0.18065625 -0.0044582956 0.018854393
0.1984672 -0.0012080502 0.016319236
0.26241696 -0.0063163061 0.017824365
0.16921595 0.0026348215 0.010809896
0.2597141 0.0010576523 0.012617532
0.26543629 0.00067589403 0.01179403
0.0046762764 -0.089955792 0.025604902
0.076922916 -0.070218593 0.029866906
0.20671965 -0.070193559 0.020501066
-0.086831585 -0.060235128 0.027909834
-0.061071713 -0.068628281 0.022370303
-0.045901824 -0.066401124 0.024128545
0.15101507 -0.065231912 0.025308121
0.16641489 -0.060707949 0.028583108
0.20373237 -0.062633075 0.027420649
0.21560337 -0.069971934 0.020117985
0.23182273 -0.068435468 0.020870322
0.2702412 -0.062242582 0.02120116
-0.14522372 -0.055545986 0.024243975
-0.025708361 -0.052817062 0.029595826
0.17935839 -0.056935802 0.029521732
0.18201095 -0.058202583 0.028908163
0.26508212 -0.057101719 0.025051933
-0.20458281 -0.043644428 0.0214503
0.10474883 -0.048587471 0.026496956
0.12650695 -0.048700333 0.029794332
-0.2230542 -0.032738168 0.0220105
-0.20163809 -0.038211618 0.024568912
0.26369655 -0.032609701 0.028059553
0.27240324 -0.03165178 0.026481263
-0.27316642 -0.020653902 0.028149227
-0.26135767 -0.021716373 0.020509109
-0.19918075 -0.025988478 0.026881367
-0.18280749 -0.02334632 0.028783184
-0.111481 -0.022992054 0.029744253
-0.10313378 -0.020056691 0.028136
-0.081323192 -0.020928657 0.028665079
-0.0022060797 -0.020632442 0.028485348
0.023900017 -0.021391479 0.028940603
0.16148905 -0.023381812 0.0299171
0.24881908 -0.02417971 0.027625447
0.28091693 -0.029328715 0.024524394
-0.13838646 -0.013470681 0.023371812
-0.017928792 -0.010646336 0.021048199
0.015415491 -0.011731647 0.022157162
0.03701961 -0.012529493 0.022862319
0.094124012 -0.017352819 0.026454821
0.13696159 -0.01943795 0.027760573
0.19220513 -0.017515901 0.026598856
0.21281657 -0.01264866 0.023562256
0.23450604 -0.015577341 0.024805594
0.24449867 -0.014988837 0.02399327
0.25544479 -0.013398739 0.021667201
0.26309162 -0.015277076 0.021702949
-0.018400881 -0.0098365359 0.020220755
0.19293168 -0.0066784318 0.020171039
0.014143982 -0.072132409 0.031155853
0.089675255 -0.070723258 0.030673428
0.09514495 -0.071008176 0.030858599
0.11480945 -0.070546865 0.035626441
0.14373448 -0.070223033 0.031246452
-0.022034522 -0.064537823 0.0313676
-0.0082374513 -0.062520385 0.034602985
0.00071805349 -0.064995237 0.035772309
0.010054517 -0.062884688 0.036705032
0.034148779 -0.067855053 0.035105824
0.063158154 -0.068701744 0.039606191
0.13744441 -0.067984298 0.035538051
0.14295547 -0.066981666 0.034766637
0.15398899 -0.066834755 0.032771744
-0.10474543 -0.05256629 0.030657209
-0.043357801 -0.056462798 0.030662922
-0.035189506 -0.050253421 0.032870531
-0.011063648 -0.052839577 0.032280885
0.00071080041 -0.052151203 0.033874992
0.036498278 -0.057561532 0.035322592
0.045412414 -0.056344368 0.030100144
0.065927699 -0.052413471 0.034152739
0.14949012 -0.058766715 0.03278273
0.15264535 -0.051209301 0.032929994
0.1613289 -0.05314225 0.031858284
0.24444304 -0.050819706 0.030367456
-0.12953019 -0.045890886 0.031830139
-0.078913271 -0.047779769 0.033042129
-0.065739624 -0.047703296 0.033167571
0.02628842 -0.048439488 0.033429585
0.062400375 -0.047581572 0.033652514
0.1431464 -0.041057691 0.033812888
0.16425151 -0.041247722 0.033801407
0.20922141 -0.042144809 0.03362266
0.2429726 -0.040599354 0.031846844
-0.14536002 -0.036955424 0.031730756
-0.12778637 -0.037112273 0.033197425
-0.082447931 -0.036158472 0.033534508
-0.016817909 -0.032009412 0.032839499
0.023483738 -0.037418149 0.033628792
0.033333212 -0.032278571 0.032888215
0.13790968 -0.038803242 0.033712741
0.14046618 -0.035567466 0.033483952
0.16498873 -0.034087155 0.033215802
0.20129706 -0.032643352 0.032953419
0.2242748 -0.038854614 0.032807857
-0.13770927 -0.024134295 0.03011065
-0.036052614 -0.024060167 0.030218415
0.012372592 -0.0277294 0.031655818
0.038798478 -0.029556192 0.032212965
0.11418926 -0.025662804 0.03092996
0.12098347 -0.02568078 0.03093789
0.15419444 -0.028029392 0.031747244
-0.31573409 -0.015994702 0.038059659
-0.28365642 -0.019698758 0.033924356
-0.24412724 -0.019063834 0.032365065
0.026353698 -0.095618814 0.046460338
0.041934591 -0.098658033 0.048274618
0.034404483 -0.072724171 0.04323639
0.034804244 -0.066756785 0.04298126
0.084034041 -0.068343803 0.044938065
0.1078564 -0.068252906 0.04343801
0.13316675 -0.065482996 0.042273004
0.028344529 -0.057679497 0.047018319
0.064786106 -0.051198449 0.047076344
0.095968455 -0.048404932 0.043474127
-0.29996133 -0.014470144 0.044221971
-0.27281284 -0.018096767 0.048576921
0.024268713 -0.092497908 0.05627726
0.035358202 -0.091807909 0.057478659
0.042214014 -0.093223155 0.053341888
0.03440788 -0.078717142 0.05519627
-0.0088486951 -0.062551185 0.058156446
0.0070075043 -0.062645584 0.054269474
0.028983619 -0.063920707 0.059456076
0.041768763 -0.065658547 0.057841536
0.093601368 -0.064704269 0.053998183
0.019372541 -0.058760628 0.050063156
0.12977923 -0.053027879 0.050708104
0.080875129 -0.049146704 0.053329885
-0.31905779 -0.013771156 0.057965953
-0.30708581 -0.013900975 0.051753599
-0.271736 -0.016889812 0.057450753
0.020952709 -0.09409155 0.061221533
-0.010684423 -0.062140249 0.064822435
-0.0089318287 -0.061665732 0.062719852
0.007443001 -0.062542871 0.068551995
0.019065544 -0.068667017 0.064591669
0.028105266 -0.063733906 0.061138157
0.10674182 -0.060419656 0.066591918
0.082903907 -0.048681214 0.063510649
0.097936302 -0.048341163 0.06852375
-0.327277 -0.012713509 0.069856957
-0.31065303 -0.015570385 0.061825477
-0.28249437 -0.016542297 0.06044288
-0.0038845134 -0.061400335 0.07585673
0.00077883387 -0.061750729 0.074203998
0.014580823 -0.062044382 0.073901042
0.050491035 -0.062527053 0.070439011
0.0027391282 -0.057760123 0.073230639
0.098172985 -0.059145369 0.0769962
0.10393043 -0.050688013 0.077951744
0.08182586 -0.048202023 0.077883333
-0.33396322 -0.012549707 0.075786784
-0.30696759 -0.011395642 0.073422715
0.014452378 -0.063082419 0.085448354
0.070991531 -0.059115805 0.088037878
0.085468195 -0.059536081 0.080248758
0.08648923 -0.048249595 0.088036485
0.093493178 -0.048935153 0.08408089
-0.32784283 -0.012926543 0.080186293
0.085288957 -0.072477132 0.098954327
-0.026322322 -0.064210631 0.091905847
0.025041787 -0.063958235 0.092728794
0.03903788 -0.061104454 0.09191177
0.11422701 -0.069159411 0.099002227
0.0058514541 -0.05717583 0.093507692
0.022002716 -0.051985819 0.092830196
0.064327158 -0.047779039 0.094776303
0.087452337 -0.04896424 0.09258195
-0.33690369 -0.010369461 0.092413597
0.082155615 -0.080143325 0.10151377
0.1123928 -0.082243517 0.10401982
0.06174463 -0.072781906 0.10727325
0.08418753 -0.074948005 0.10619095
0.09866257 -0.062113993 0.10771659
-0.0081180762 -0.058531601 0.10152675
0.017132176 -0.053696532 0.10298225
0.033809546 -0.057741579 0.10718945
0.055599123 -0.057172794 0.10454129
0.076285541 -0.054738939 0.10916178
0.091559127 -0.056687072 0.10961939
0.039599817 -0.0480441 0.10804663
0.07641837 -0.048082594 0.10159636
0.080924571 -0.049285039 0.10335772
-0.31011969 -0.01093627 0.10122001
-0.34219426 -0.0089775063 0.10840902
0.079919547 -0.083942249 0.11173084
0.084484063 -0.071646892 0.11147515
0.040111214 -0.063841358 0.11402529
0.058426999 -0.063336492 0.11114037
0.068082042 -0.064194374 0.11542016
0.078763343 -0.067005508 0.11577186
0.083853245 -0.064439289 0.11807053
0.11188191 -0.061576188 0.11303329
-0.013104599 -0.054503165 0.11172393
0.011245327 -0.050266884 0.11630736
0.049625993 -0.056418054 0.11133924
0.061341375 -0.055003345 0.1192843
0.081605688 -0.057640433 0.11622459
0.067523971 -0.048489999 0.1189339
0.078624949 -0.071414471 0.12425895
0.10569378 -0.076920584 0.12156853
0.08479666 -0.066659972 0.12321302
0.096955597 -0.065348268 0.1232187
0.10141391 -0.067717701 0.1246361
0.11558287 -0.065998428 0.12143163
0.018947538 -0.055628132 0.1247665
0.051312532 -0.054178856 0.12696974
0.010158559 -0.049295977 0.12397571
0.038809992 -0.046504293 0.12967613
-0.016668802 -0.054994009 0.13092647
0.038032785 -0.053834952 0.13354479
0.058539726 -0.052652277 0.13057779
0.032725513 -0.046336941 0.13448609
-0.036605697 -0.053372819 0.14084457
-0.019851359 -0.053544294 0.1434056
0.0156227 -0.053656045 0.14069398
0.023648659 -0.053516652 0.14094998
0.039392918 -0.052151825 0.14714992
0.02178622 -0.045916118 0.14471887
-0.039240137 -0.050772704 0.15740108
0.017563395 -0.051728673 0.15877882
-0.032149132 -0.04993102 0.15653005
-0.020797055 -0.048158959 0.15888304
-0.024389159 -0.051269457 0.16645826
-0.0083817951 -0.051373191 0.16505203
0.0047766268 -0.04480638 0.16890882
0.027045066 -0.045693185 0.16078308
-0.047687612 -0.049897108 0.17869262
-0.033244736 -0.047335539 0.17457202
-0.0043525812 -0.047058895 0.17978261
-0.055768576 -0.048770875 0.18748848
-0.035346694 -0.048181288 0.18275782
-0.025571188 -0.04702194 0.18779781
-0.010945736 -0.043886051 0.18893087
-0.042662483 -0.048813716 0.19083667
-0.033521295 -0.048874203 0.19430758
-0.012740131 -0.048037965 0.19795378
-0.065102801 -0.047172137 0.20325415
-0.058926053 -0.046425149 0.20487061
-0.042462386 -0.044248499 0.20439833
-0.038715918 -0.047437616 0.20596498
-0.029931925 -0.047347039 0.20677741
-0.018994071 -0.043143861 0.20346981
-0.062396325 -0.046295907 0.21686994
-0.05215276 -0.046065733 0.21985435
-0.046903156 -0.046709515 0.21329412
-0.036363095 -0.046148483 0.21971861
-0.027733963 -0.042338829 0.21862005
-0.074921653 -0.044331465 0.22409081
-0.062019266 -0.043455329 0.22233659
-0.051723093 -0.046007372 0.22050023
-0.020284412 -0.043377087 0.22348702
-0.015347263 -0.056962814 0.23774359
-0.0049347077 -0.056067564 0.23810959
-0.056923151 -0.044589795 0.23531905
-0.048776049 -0.044531353 0.23578556
-0.02953442 -0.075537831 0.24764152
0.00042252557 -0.071244121 0.24312058
-0.054272756 -0.065438353 0.24835601
-0.037655529 -0.051776171 0.24836518
-0.087499954 -0.043089885 0.24667665
-0.075818583 -0.043218341 0.24885556
-0.055671845 -0.040797159 0.24177192
-0.039726503 -0.044203226 0.24760474
-0.03100975 -0.073295116 0.25785148
-0.020401858 -0.075659528 0.25469956
-0.05266875 -0.064002521 0.25549012
-0.02302463 -0.063205242 0.25001746
-0.028338322 -0.054221775 0.25607479
-0.011039499 -0.050786924 0.25815782
-0.0042218706 -0.051567063 0.25198877
-0.076830029 -0.043210194 0.25393742
-0.062430363 -0.044420339 0.25453287
-0.055658091 -0.045281589 0.25373062
-0.047295205 -0.041077323 0.25631243
-0.017346678 -0.046138056 0.25007197
-0.0088380612 -0.049309582 0.25144023
-0.022223085 -0.069724128 0.26315105
-0.023565151 -0.05778157 0.26425487
-0.10132135 -0.040095005 0.27052528
-0.092598639 -0.039560724 0.27034599
-0.082055628 -0.038969308 0.27105695
-0.076747358 -0.038608178 0.2746681
-0.069152549 -0.038799759 0.27167043
-0.11314077 -0.039062019 0.28470498
-0.098448686 -0.03953566 0.28853601
-0.083655633 -0.038941525 0.28492182
-0.078976229 -0.037978869 0.28692335
-0.081954807 -0.03885559 0.29723856
-0.079125941 -0.038513716 0.29520994
-0.12614518 -0.037482642 0.30517977
-0.11068339 -0.037891962 0.30920401
-0.10979193 -0.035965428 0.31473893
-0.13847399 -0.030277621 0.32825643
-0.11743741 -0.034919757 0.3248221
-0.14525381 -0.018902039 0.33407405
