# .PCD v0.7 - Point Cloud Data file format
VERSION 0.7
FIELDS x y z
SIZE 4 4 4
TYPE F F F
COUNT 1 1 1
WIDTH 824
HEIGHT 1
VIEWPOINT 0 0 0 1 0 0 0
POINTS 824
DATA ascii
-0.0026909104 -0.074782297 -0.34760827
0.0015194877 -0.074211113 -0.349246
0.03188277 -0.070836559 -0.34392834
-0.0069794855 -0.073870853 -0.33861044
0.033647794 -0.075854637 -0.33989689
0.015217051 -0.066906527 -0.3394599
0.002543638 -0.075222149 -0.32898772
0.0041240128 -0.069526233 -0.32629272
0.031529818 -0.064340532 -0.32750621
0.0028557619 -0.070308514 -0.3145951
0.01375552 -0.07674931 -0.31611797
0.0038391948 -0.070364207 -0.30899563
0.030386828 -0.06559249 -0.29683819
-0.0084623983 -0.072241008 -0.28797328
0.025099661 -0.06714315 -0.28596181
-0.0038826969 -0.073195174 -0.27302015
0.010625753 -0.070490107 -0.27218354
0.047075581 -0.080080554 -0.26059064
0.01338076 -0.074697718 -0.26430374
0.040067032 -0.079425961 -0.26399332
0.0089540798 -0.074221916 -0.25666347
0.011720108 -0.074427463 -0.25142696
0.013269793 -0.074535578 -0.24772547
0.022209413 -0.069512144 -0.24631839
0.050553914 -0.064396352 -0.24493356
0.0066917562 -0.073810667 -0.234421
0.013090648 -0.070586339 -0.23791122
0.037276521 -0.077608794 -0.23247029
0.059029572 -0.074326143 -0.23508455
0.014117393 -0.074419454 -0.2265811
0.0044169342 -0.071726143 -0.21066713
0.018761102 -0.074713252 -0.21219468
0.063572124 -0.074809983 -0.21402912
0.02056128 -0.074811876 -0.20495217
0.036028057 -0.074031435 -0.20460975
0.0032963324 -0.072802357 -0.19594643
0.027623091 -0.075363815 -0.19454834
0.036369268 -0.076185361 -0.19671141
0.050967459 -0.065964833 -0.19722721
0.067028075 -0.067612194 -0.19394486
0.013220754 -0.073938891 -0.18312094
0.03181516 -0.069276437 -0.18165851
0.050798286 -0.066550821 -0.18499833
0.061012074 -0.06429483 -0.18962733
0.0053775609 -0.072479114 -0.17072442
0.026691172 -0.075074494 -0.1723042
0.042997535 -0.076588534 -0.17441194
0.046932817 -0.067604706 -0.17881434
0.041316848 -0.076314874 -0.1613653
0.043189857 -0.068309538 -0.16460246
0.012212017 -0.073598571 -0.1560812
0.045968454 -0.076728366 -0.1599586
0.05483963 -0.071836613 -0.15086237
0.035564054 -0.069169931 -0.15482053
0.014696218 -0.073678963 -0.14000979
0.023893252 -0.07339561 -0.1423618
0.026371913 -0.074610651 -0.12489402
0.033424936 -0.075226977 -0.12160163
0.0096330987 -0.072169244 -0.11419537
0.014581956 -0.071714722 -0.11015916
0.047214858 -0.076398373 -0.11149525
0.079191007 -0.0642085 -0.11083794
0.019218583 -0.073733449 -0.10072969
-0.21829441 -0.04228013 -0.10790189
0.055512961 -0.076968983 -0.090764165
0.037017375 -0.069614328 -0.095846646
0.075032517 -0.065531582 -0.099991873
0.026006117 -0.070780739 -0.089317068
0.043075904 -0.075743765 -0.081470132
0.052085303 -0.076589473 -0.083638147
0.079049639 -0.079288952 -0.087627426
0.049108643 -0.068532661 -0.08310163
0.054655582 -0.067975499 -0.083349437
0.072869129 -0.06614738 -0.084027752
-0.2379123 -0.040567189 -0.088015594
0.051515914 -0.076485448 -0.077983379
0.094995268 -0.074503332 -0.075097181
0.061843533 -0.067353554 -0.073665224
0.079926506 -0.065578029 -0.07038974
0.092416398 -0.066486306 -0.077243119
-0.20060313 -0.042627104 -0.0725751
-0.21195987 -0.039616913 -0.073526055
0.034524962 -0.070153974 -0.06680581
0.021166287 -0.072562106 -0.056233093
0.035919469 -0.074829027 -0.053242184
0.047575932 -0.075941682 -0.058061276
0.088917859 -0.073911294 -0.053495951
0.10044312 -0.073518276 -0.051712956
0.042188238 -0.069467403 -0.058831025
0.061528765 -0.067598626 -0.052305955
0.082293391 -0.078963414 -0.040539354
0.099673435 -0.078480288 -0.042232689
0.040030073 -0.069825381 -0.044614397
0.078971952 -0.065954007 -0.042337343
-0.2264926 -0.041066103 -0.041904639
-0.21553205 -0.040860727 -0.048099652
-0.20017189 -0.041907605 -0.040868357
-0.19159818 -0.041712131 -0.043922585
-0.18366222 -0.038833775 -0.041692838
0.31246048 -0.10520206 -0.036960859
0.025989052 -0.073773198 -0.037362076
0.04896532 -0.075865217 -0.035825782
0.075259782 -0.078300282 -0.038532406
0.30734307 -0.051938191 -0.030765058
-0.21275438 -0.041457452 -0.035165466
-0.19405136 -0.042063978 -0.035550952
-0.18315431 -0.042396009 -0.032969017
0.30752841 -0.10636865 -0.024592554
-0.016463589 -0.096465074 -0.020414283
0.026213266 -0.095802911 -0.020500513
0.046022337 -0.097463012 -0.022349292
0.069730476 -0.092264384 -0.022220537
0.30855462 -0.099048302 -0.02133273
-0.099037707 -0.080405086 -0.020713169
-0.052463479 -0.08071541 -0.027178518
-0.025158521 -0.082354046 -0.02505089
-0.019614276 -0.086204149 -0.02662407
0.0073889503 -0.086869083 -0.024708733
0.018512569 -0.088868566 -0.024248041
0.036034539 -0.086967036 -0.027914528
0.063157685 -0.084130913 -0.025392745
0.11346402 -0.081837252 -0.02513542
0.1219825 -0.084315076 -0.024030928
0.15320851 -0.085458025 -0.021527292
0.18646683 -0.085228771 -0.021037633
0.19096532 -0.080427684 -0.023646228
-0.09152177 -0.078072689 -0.025949558
-0.089924373 -0.076364435 -0.026756464
-0.077381544 -0.070726141 -0.025785752
0.065730967 -0.075132638 -0.027450137
0.076471239 -0.07437627 -0.02814815
0.092683554 -0.073131837 -0.0288302
0.12269545 -0.077152744 -0.025790509
0.13818693 -0.076092571 -0.02570237
0.17559877 -0.079291798 -0.023259845
0.18874484 -0.074589156 -0.026253356
-0.14014727 -0.061270379 -0.028393246
-0.094811954 -0.066769406 -0.024705641
-0.062475458 -0.067051239 -0.0288302
-0.043769598 -0.062346309 -0.027477851
-0.018248849 -0.066047765 -0.0288302
-0.0077858074 -0.067879878 -0.02566186
0.0098948143 -0.069751024 -0.0288302
0.010529545 -0.065784231 -0.0261255
0.027485333 -0.069135636 -0.0288302
0.037064053 -0.0672535 -0.023485849
0.051982377 -0.062558204 -0.0254554
0.076622903 -0.061076973 -0.0288302
0.084673986 -0.063642696 -0.026687833
0.10498349 -0.06914603 -0.029223587
0.12502816 -0.0672535 -0.024284011
0.17200874 -0.066696398 -0.026125498
-0.24571475 -0.050091501 -0.02091424
-0.22957778 -0.05327357 -0.025943741
-0.20762591 -0.057021532 -0.023206564
-0.19578359 -0.05090728 -0.024890322
-0.17596549 -0.052186154 -0.025787286
-0.16572942 -0.056808092 -0.028359216
-0.14103131 -0.058088258 -0.028789263
-0.13166989 -0.051452417 -0.0261255
-0.086552203 -0.051333714 -0.026125498
-0.047603264 -0.057214141 -0.0261255
-0.037216455 -0.057640612 -0.0288302
-0.016524091 -0.057693817 -0.0288302
-0.0096815396 -0.056443699 -0.024897741
0.0036040787 -0.057463441 -0.023702811
0.015428305 -0.054695249 -0.025064355
0.044562392 -0.058842979 -0.0261255
0.067324698 -0.058629449 -0.0288302
0.08229439 -0.05318208 -0.0261255
0.091774955 -0.056443699 -0.020977192
0.1260934 -0.054566301 -0.027477849
0.13532728 -0.050433725 -0.0288302
0.16914769 -0.054085769 -0.028803231
0.17756 -0.050409738 -0.025527231
0.21710792 -0.054085176 -0.020892192
0.30949011 -0.05283156 -0.02147392
-0.23569828 -0.048122376 -0.022254229
-0.20408843 -0.043507423 -0.026046306
-0.16130352 -0.043652363 -0.027009781
-0.15647431 -0.047127761 -0.028209861
-0.14947791 -0.048896898 -0.025933405
-0.066314742 -0.047501385 -0.0261255
-0.030168595 -0.049100798 -0.026125502
-0.011174018 -0.04472822 -0.0288302
-0.0060226177 -0.048454456 -0.0231754
0.0061917398 -0.048823476 -0.026125502
0.02546474 -0.045657717 -0.0288302
0.043800198 -0.048784487 -0.0288302
0.051356684 -0.043317005 -0.0261255
0.067390628 -0.042162023 -0.0261255
0.072408795 -0.046598978 -0.0288302
0.13044414 -0.04708289 -0.026125502
0.14188458 -0.045495242 -0.027477849
0.1543273 -0.042902995 -0.026131043
0.20470926 -0.049459934 -0.021510009
0.31077027 -0.044174381 -0.027468119
-0.18574508 -0.038461599 -0.02088402
-0.14480759 -0.037391748 -0.023887794
-0.10589806 -0.035236295 -0.026157388
-0.047196448 -0.039300315 -0.0261255
-0.021706983 -0.03089276 -0.0261255
-0.0042520491 -0.030107565 -0.026125498
0.022874333 -0.031470247 -0.0288302
0.082930192 -0.038815249 -0.0254554
0.092494346 -0.034308482 -0.027477849
0.16838278 -0.033913486 -0.020709213
-0.059911519 -0.022471013 -0.021950323
-0.0045449552 -0.02640922 -0.025736518
0.0024731434 -0.029512893 -0.026125502
0.021310754 -0.025744556 -0.0288302
0.088643707 -0.020411033 -0.028285302
0.098360486 -0.028860122 -0.0288302
0.13499826 -0.02330179 -0.025335506
0.15338735 -0.026136223 -0.02095033
-0.037944127 -0.018280808 -0.021871822
-0.021529423 -0.013551068 -0.023884391
0.014459555 -0.010471461 -0.025269601
0.075467445 -0.01278935 -0.024842329
0.09389016 -0.010502767 -0.020368608
0.12202483 -0.016991546 -0.024290266
0.038824543 -0.0060482314 -0.022759493
0.015035147 -0.10239907 -0.014692421
0.046457727 -0.10490838 -0.013451935
0.054239705 -0.10274806 -0.016372735
-0.076086417 -0.090554215 -0.017982705
-0.061248116 -0.093008094 -0.01752333
-0.036559358 -0.095336013 -0.018719193
-0.020948872 -0.098003358 -0.017726555
-0.0013377753 -0.098211765 -0.015974252
0.051229995 -0.099265367 -0.016698461
0.061027952 -0.09949512 -0.015894437
0.094618864 -0.098309934 -0.01471037
0.11228976 -0.094549194 -0.017742684
0.14883146 -0.097949788 -0.01079333
0.16192749 -0.092560098 -0.012618951
0.17195947 -0.091383755 -0.011988122
-0.11570781 -0.083916083 -0.016426766
-0.069409639 -0.088062391 -0.018064603
0.19688402 -0.085672744 -0.019107755
-0.1864486 -0.073124319 -0.010503203
-0.15777029 -0.075787634 -0.019657271
-0.21504921 -0.064275548 -0.01805453
-0.19358858 -0.066695273 -0.018218739
-0.17086492 -0.064488098 -0.01849973
-0.12027392 -0.064488098 -0.013926649
-0.096630923 -0.064488098 -0.019312121
-0.05127304 -0.0672535 -0.016429678
-0.047765039 -0.0672535 -0.014522591
-0.033682846 -0.0672535 -0.019076666
-0.015860654 -0.064488098 -0.01157696
-0.0073280334 -0.0672535 -0.014094362
0.058958001 -0.061456293 -0.013435091
0.067203462 -0.065870799 -0.01720757
0.072013572 -0.064488098 -0.016520699
0.10522171 -0.064488098 -0.01327756
0.12613297 -0.0672535 -0.010354199
0.13036598 -0.0672535 -0.015161701
0.25612226 -0.065731391 -0.016707867
-0.0114121 -0.055113658 -0.0152557
0.00091588474 -0.056443699 -0.011814559
0.086255506 -0.056443699 -0.013290144
0.10501686 -0.055826269 -0.01667122
0.16200307 -0.058829602 -0.012910361
0.17590664 -0.058829606 -0.017915769
-0.25998157 -0.047168333 -0.011488446
-0.24535194 -0.041885845 -0.010241441
-0.23590533 -0.045112602 -0.019109875
-0.22785673 -0.044754431 -0.016082233
-0.0016267204 -0.049136214 -0.017222
0.034824401 -0.042175878 -0.010600737
0.31330729 -0.046624076 -0.019274915
-0.21456802 -0.039887607 -0.011289959
-0.18858354 -0.036482438 -0.013263851
-0.17918345 -0.036028065 -0.014819355
-0.15768316 -0.031302121 -0.012729232
-0.0060489001 -0.033712771 -0.016578427
0.15367638 -0.031569995 -0.017612785
0.19317378 -0.036440007 -0.010805298
-0.15985794 -0.02823594 -0.010676103
-0.13177784 -0.025081949 -0.010922758
-0.126128 -0.026806924 -0.016013488
-0.090314157 -0.024592031 -0.019098122
-0.080600321 -0.023720795 -0.019819066
-0.085615292 -0.017448405 -0.014724497
-0.040789995 -0.012508558 -0.017254055
-0.028602468 -0.0078729643 -0.010549355
0.0014054656 -0.0044106594 -0.013789168
0.041958921 -0.001318311 -0.013047202
0.10123581 -0.0082010888 -0.016573552
0.022086633 0.0015232491 -0.010431021
0.042260274 0.0017816876 -0.011559004
-0.020758107 -0.10149426 -0.0016336467
-0.012440311 -0.10134503 -0.0078771096
0.0086288871 -0.10720449 -0.0033819342
0.012875987 -0.10466719 -0.0050165243
0.094740465 -0.10091554 -0.009853974
0.10193297 -0.10104468 -0.0081547583
0.12832192 -0.10165258 -0.0075926818
-0.10502487 -0.091872245 -0.0066578677
-0.091130838 -0.091741115 -0.0035436517
-0.084190026 -0.095948048 -4.578776e-06
-0.058596309 -0.095580101 -0.0069717332
0.15386187 -0.096517168 -0.0033889487
0.16503456 -0.096279204 -0.0095972251
0.17654033 -0.093541741 -0.0015306241
0.18835077 -0.094546497 -0.0048622922
0.20147136 -0.093822226 -0.00014591339
0.22577046 -0.090746969 -0.0045800954
-0.16205052 -0.082878411 -0.00025816026
-0.15061972 -0.084541537 -0.0035178692
-0.13267188 -0.086543545 -0.0090187173
-0.12611513 -0.085791722 -0.0061008371
0.17756 -0.080371238 -0.0026427638
0.28423765 -0.081520975 -0.0089676222
-0.20955294 -0.070496768 -0.0054015941
0.17756 -0.070760496 -0.006251541
0.306272 -0.073338985 -0.0017556039
0.31361634 -0.077729046 -0.0047134799
-0.25213003 -0.064911649 -0.0070935376
-0.2415179 -0.067194477 -0.0052618394
-0.22907545 -0.0672535 -0.00091435149
-0.21441635 -0.0672535 -0.0079866499
-0.20969298 -0.0672535 -0.0022425309
-0.19317311 -0.065870799 -0.0053180009
-0.18520381 -0.0672535 -0.0078441221
-0.13218585 -0.0672535 -0.0046037463
-0.12874955 -0.0672535 -0.0033863897
-0.11622021 -0.0672535 -0.0069504105
-0.051523142 -0.065870799 -0.0085535012
-0.046027541 -0.064488098 -0.000929503
-0.020387627 -0.064488098 -0.009074863
0.0084566474 -0.0672535 -0.0028081564
0.058707781 -0.064488098 -0.0037109868
0.074108064 -0.0672535 -0.0044142273
0.085179366 -0.064488098 -0.0052608647
0.094063498 -0.065870799 -0.0080614435
0.10172106 -0.064488098 -0.008516551
0.1268564 -0.0672535 -0.0057563707
0.14761549 -0.065870799 -0.0047166948
0.15298532 -0.065870799 -0.0030847313
0.17756 -0.061126769 -0.0033306656
0.30669719 -0.066228136 -0.0054926113
-0.26559955 -0.055766679 -0.0040176958
0.053591486 -0.05680652 -0.0041310592
0.094551668 -0.056409523 -0.00373501
0.13986987 -0.054046735 -0.0043593701
0.15643078 -0.058829606 -0.0039690984
0.2674666 -0.052773464 -0.0024848324
0.27930546 -0.057889406 -0.0075524421
-0.23113088 -0.042979434 -0.0056250892
-0.0060489001 -0.045486901 -0.008966459
0.086424097 -0.046218861 -0.0071746521
0.13861834 -0.046745647 -0.0038608687
0.2137945 -0.040226795 -0.0069610565
0.25249127 -0.049258731 -0.0041876175
-0.22142479 -0.039291177 -0.0064907218
-0.0058813798 -0.033896014 -0.0098591158
0.08558239 -0.037473027 -0.00373501
0.19738303 -0.036040667 -0.0071905721
-0.26873589 -0.026193112 -0.0012298177
-0.15935436 -0.026346322 -0.0021671802
-0.14624137 -0.024325134 -0.0029942647
-0.13394429 -0.023264861 -0.0085501904
-0.25571126 -0.01625469 -0.003901788
-0.21228611 -0.011192862 -0.0053632101
-0.20494279 -0.017332375 -0.0053632101
-0.18977711 -0.010706513 -0.0019597278
-0.077421479 -0.013219931 -0.0066393409
-0.25803837 -0.0031808289 -0.0043489551
-0.23290475 -0.0045490628 -0.0053632096
-0.22931045 -0.0096660163 -0.0053632101
-0.21224165 -0.0015777503 -0.0053632101
-0.062046818 -0.0095928088 -0.00043116687
-0.058728181 -0.0089637283 -0.00028268807
-0.0021664812 -0.0020014178 -0.0063015474
0.013297568 -0.00030270623 -0.0062095341
0.083149031 -0.0018557967 -0.009015765
0.092468195 -0.0020126896 -0.0053716139
0.10870729 -0.0017938134 -0.0022128229
0.13452145 -0.0087382272 -0.00087645045
-0.28567937 0.0029261671 -0.00037181511
-0.25148636 0.0076365788 -0.0053632101
-0.2266214 0.0094519686 -0.0053632101
0.020530114 0.0026145726 -0.0063914852
0.046896845 0.0037310543 -0.0039232075
0.066392392 0.0031384989 -0.0031302588
0.077734232 0.0012084288 -0.0090139415
-0.26948637 0.011961884 -0.003487024
-0.2531082 0.017107042 -0.0053632101
-0.21518663 0.016706552 -0.001263934
-0.29012966 0.033899218 -0.0015985804
-0.29171163 0.053202368 -0.0025509582
-0.25084648 0.05401212 -0.0053632101
-0.29104811 0.062306333 -0.0032223342
-0.25179195 0.061704915 -0.0018897518
-0.27303743 0.073336221 -0.0053632101
-0.29665679 0.086953007 -0.0038726425
-0.3247256 0.098546959 -0.00016988393
-0.28754219 0.093971446 -0.0053632101
-0.30911461 0.10571254 -0.0030767377
-0.32886267 0.11506735 -0.00028073767
-0.036905378 -0.10162275 0.0061725075
0.02033324 -0.10378239 0.0094751306
0.057476461 -0.10491677 0.0026641404
0.073164381 -0.10605438 0.0070996843
-0.088733062 -0.09242595 0.0010627327
0.13431175 -0.099131286 0.0016464544
0.16760513 -0.094392061 0.0053163064
0.19577152 -0.094421826 3.0643096e-05
-0.15364741 -0.081683055 0.00043891094
-0.12573451 -0.089059323 0.0023578953
-0.11466614 -0.088296644 0.0014568159
0.17756 -0.085433021 0.0073792199
0.29714587 -0.083885252 0.0011147241
0.30801642 -0.080617428 0.0085336398
-0.16327509 -0.079548225 0.0031055983
0.17756 -0.079473451 0.0028816336
-0.24384041 -0.067229129 0.0016866331
-0.22180869 -0.068339661 0.0041975495
-0.21088994 -0.0672535 0.00034388423
-0.19224359 -0.0672535 0.0038887104
-0.18769246 -0.064488098 0.0054739751
-0.17511871 -0.065179452 0.0070286635
-0.15378748 -0.064488098 0.0024931114
-0.14964347 -0.0672535 0.0053494968
-0.13662532 -0.064488098 0.009636811
-0.11765008 -0.064488098 0.0053141997
-0.10685517 -0.065870799 0.0028517894
-0.09316615 -0.064488098 0.0088134697
-0.081355542 -0.0672535 0.0063939076
-0.040897999 -0.064488098 0.0066821519
-0.030059006 -0.064488098 0.0078400895
0.0092028677 -0.064488098 0.0022738981
0.02261287 -0.0672535 0.0037091235
0.090198897 -0.0672535 0.0084847305
0.1041441 -0.0672535 0.006603328
0.12128322 -0.0672535 0.0046956139
0.15595213 -0.064488098 0.0079189502
0.30714399 -0.06163314 0.0039093625
0.31021637 -0.060502946 0.0087282434
0.0127215 -0.057004377 0.007366919
0.035316009 -0.058563519 0.00387264
0.055653781 -0.056189924 0.00387264
0.13217723 -0.053652063 0.0042273346
0.15209846 -0.054931127 0.0048068203
0.26139873 -0.051949844 0.005282206
-0.01091542 -0.04698329 0.00387264
0.091143802 -0.049108092 0.0049290666
0.10313279 -0.049047623 0.006996226
0.14377601 -0.0465382 0.0027292336
-0.23472762 -0.035840321 0.0070519727
-0.2096317 -0.037077252 0.0038572447
0.17668729 -0.032800552 0.00073260145
0.18292148 -0.032294463 0.0072541148
0.19479124 -0.034417871 0.00088149472
-0.25406462 -0.021109186 0.0038588725
-0.22776702 -0.025595017 0.0053627999
-0.207791 -0.0210183 0.0053627999
-0.14521362 -0.026915815 0.0051796176
0.15878326 -0.02058289 0.0054297894
0.169956 -0.028166618 0.0051167365
0.17680928 -0.029775292 0.0013717437
-0.27327734 -0.016731758 0.001102925
-0.25564057 -0.016799498 0.0038787872
-0.23596257 -0.012539573 0.0053627999
-0.20047534 -0.015989423 0.0053627999
-0.098117709 -0.018772501 0.003295437
-0.085754141 -0.013874169 0.00055098429
-0.072948687 -0.014038384 0.0007970361
0.13937876 -0.010630923 0.00077142834
-0.25073135 -0.0047718198 0.0053627999
-0.19638489 -0.0065349825 0.0032106815
-0.054749705 -0.0084051061 0.0017645331
-0.032779161 -0.0065942775 0.0010177403
-0.02569058 -0.0052540801 0.0059578582
0.0061979033 -0.00029460064 1.4025126e-05
0.089489669 -0.0020223504 0.0073439814
0.10182486 -0.0028671487 0.00078295398
0.1155647 -0.0031292597 0.0014867975
0.12333404 -0.0066503799 0.0094569279
-0.22505076 0.0066897264 0.0053628003
-0.21103695 0.0059369509 0.0053627999
-0.20450003 0.0003903631 0.0048923818
0.025610967 0.0024552906 0.0083945543
0.046712235 0.0024709473 0.0043789409
-0.288463 0.021493511 0.0010889777
-0.23999092 0.026976692 0.0053627999
-0.24733844 0.045982961 0.0053627999
-0.23587894 0.042098165 0.0017274484
-0.29615387 0.066410758 0.0026730462
-0.31685722 0.092556238 0.0010372561
-0.30442324 0.10424537 0.0037249448
-0.0021897333 -0.10280696 0.014082178
0.017528323 -0.10099402 0.019004067
0.039734717 -0.10609595 0.011007122
0.091625541 -0.10389303 0.010212723
-0.064271867 -0.096353903 0.011048688
-0.023037206 -0.099426448 0.01554057
-0.010235181 -0.096863359 0.016454086
-0.0048424746 -0.096489929 0.017723475
0.050007276 -0.096516758 0.019594105
0.064614773 -0.097569108 0.018192429
0.12480843 -0.097406596 0.016794479
0.13181682 -0.094435528 0.015290892
0.14654008 -0.092534982 0.015448313
0.15428019 -0.096053317 0.013713342
0.2048073 -0.090436019 0.011748371
-0.16472103 -0.080177784 0.010440554
-0.15662219 -0.080648705 0.012950271
-0.1201371 -0.083991341 0.013174753
-0.11654698 -0.087329462 0.013664302
-0.090070225 -0.084523924 0.018621298
0.21894142 -0.085087255 0.016192159
0.22318172 -0.085925102 0.014469961
0.24078941 -0.080904081 0.016068935
0.30824098 -0.082483768 0.018103693
0.31007606 -0.086701721 0.019181734
-0.18866414 -0.072627261 0.016187252
-0.17271924 -0.078101411 0.011795154
-0.16003419 -0.077161029 0.01732422
-0.12969716 -0.078792088 0.017833821
0.17756 -0.072336204 0.017446646
0.28214222 -0.074917495 0.012527594
-0.22461873 -0.065814063 0.013384918
-0.21764624 -0.064488098 0.011075797
-0.18351263 -0.0672535 0.017276399
-0.17761049 -0.068597272 0.014225649
-0.12467553 -0.064488098 0.016247505
-0.094334319 -0.0672535 0.012800631
0.015472928 -0.0672535 0.018463047
0.073955528 -0.0672535 0.011170609
0.091373324 -0.064488098 0.017607402
0.11113883 -0.0672535 0.015890315
0.17272276 -0.064488098 0.016553534
0.25102565 -0.062716335 0.017155958
-0.25523293 -0.052579485 0.013149309
-0.24712755 -0.054817066 0.018634193
-0.0114121 -0.055491127 0.012212484
0.00040080631 -0.056443699 0.011595863
0.034824401 -0.052407023 0.014183792
0.083612576 -0.056443699 0.014012957
0.105195 -0.05654934 0.013946551
0.16377175 -0.058829598 0.017207822
0.17366329 -0.058829602 0.017771978
0.23111415 -0.050632138 0.015522164
0.30802232 -0.055416837 0.010741072
-0.23341087 -0.044294778 0.018503331
-0.21003057 -0.041413173 0.018071333
-0.0058670379 -0.049705286 0.012039534
0.086424097 -0.0464199 0.011825082
0.20256503 -0.043628525 0.017726483
0.21409684 -0.047088791 0.017263858
0.24461065 -0.049827807 0.010063951
0.30871889 -0.046520874 0.017049374
-0.18715884 -0.039955541 0.018593473
-0.17324205 -0.033402566 0.01476821
-0.14346957 -0.030771479 0.019973559
-0.0114121 -0.035385106 0.019425163
0.034824401 -0.03299864 0.01395123
0.086424097 -0.034932628 0.013596825
0.15601131 -0.032433357 0.018737581
0.17756 -0.036874343 0.014429209
-0.13462071 -0.028432444 0.013705784
-0.066091001 -0.013621906 0.014106877
-0.053997133 -0.012687876 0.016122704
-0.0086923884 -0.0049276883 0.012024736
0.0053757643 -0.003191866 0.014245373
0.013419741 -0.0053741853 0.017036434
0.044734459 -0.0026693672 0.015095621
0.052342892 -0.00031544076 0.010102718
-0.0053756414 -0.0970615 0.020896561
0.019734783 -0.092492148 0.022760496
0.023693565 -0.093481719 0.025257263
0.04287393 -0.092344441 0.025743436
0.072005562 -0.095189601 0.023244407
0.080769807 -0.095934905 0.022254243
0.10461339 -0.091357812 0.021058109
0.13040616 -0.094321802 0.020044599
0.31225038 -0.094120935 0.021659547
-0.090868235 -0.082426608 0.020139564
-0.08636193 -0.085440271 0.021723315
-0.061394319 -0.082558498 0.024459381
-0.05451503 -0.082217649 0.026440714
-0.044472404 -0.089181118 0.023373242
-0.032500681 -0.086154237 0.023091327
-0.0163459 -0.081201993 0.026819058
0.019547369 -0.087382972 0.024893548
0.034465224 -0.087423339 0.026272602
0.056264397 -0.086144015 0.025236182
0.13456543 -0.087141611 0.021998595
0.18605413 -0.083217867 0.022643397
0.2042816 -0.080019958 0.021905396
0.30981925 -0.087422967 0.020783179
-0.15679127 -0.071449272 0.020026699
-0.14272016 -0.077234775 0.020931207
-0.12848166 -0.077656396 0.022506151
-0.084020324 -0.078292713 0.023420546
-0.0050316975 -0.074496709 0.027445069
0.0075117908 -0.075458072 0.0261255
0.033844933 -0.076144829 0.0288302
0.07039728 -0.074482143 0.0261255
0.087509222 -0.079748802 0.028559582
0.1040333 -0.077839352 0.025937449
0.15330535 -0.076917425 0.02804672
0.17756 -0.075836435 0.02133337
-0.19981071 -0.06248755 0.02403973
-0.14674461 -0.068418697 0.026124615
-0.13974951 -0.069567166 0.023270404
-0.12139475 -0.0672535 0.02469874
-0.10193353 -0.064698629 0.026083816
-0.068342246 -0.062599584 0.0288302
-0.040766299 -0.064488098 0.021363137
-0.034418494 -0.06019225 0.026125502
-0.024965337 -0.0672535 0.021602046
-0.0040491177 -0.069845363 0.0288302
0.0098792166 -0.064488098 0.021906145
0.015235978 -0.069214076 0.026125498
0.026058314 -0.064488098 0.024601998
0.031623371 -0.060821444 0.0261255
0.048507974 -0.06914407 0.027967324
0.070468262 -0.066941105 0.028663356
0.080177955 -0.064488098 0.021711007
0.096336894 -0.065692626 0.028148152
0.10293722 -0.062194962 0.027928635
0.1183402 -0.064488098 0.024593784
0.1340514 -0.067426682 0.0261255
0.20058277 -0.060910214 0.025285311
-0.2131862 -0.055314772 0.026378658
-0.20853503 -0.059253573 0.02511907
-0.1965197 -0.055906944 0.027431738
-0.18809083 -0.052873433 0.028304137
-0.15072958 -0.055899139 0.02588835
-0.13704842 -0.057680078 0.0288302
-0.12025551 -0.057832383 0.0288302
-0.11235608 -0.05840037 0.0288302
-0.08396247 -0.057469897 0.0261255
-0.06613259 -0.05703859 0.0288302
-0.046262715 -0.058505192 0.0261255
-0.010375917 -0.056443699 0.024628654
0.045921519 -0.058386415 0.027928634
0.058954425 -0.052479874 0.022880075
0.071035452 -0.052362207 0.0288302
0.10976431 -0.054717597 0.0288302
0.1513232 -0.051547948 0.026125502
0.16786531 -0.058071472 0.026072666
0.2055582 -0.056592256 0.023891401
-0.22612089 -0.049747273 0.021604294
-0.19496498 -0.042146806 0.022774175
-0.17428949 -0.047880828 0.027896047
-0.16539183 -0.04183621 0.026968582
-0.15100855 -0.047198042 0.025646005
-0.14923 -0.043509759 0.027848326
-0.13964486 -0.042848103 0.0252747
-0.12164646 -0.042641498 0.025676925
-0.095480181 -0.044908561 0.0288302
-0.081941709 -0.043895122 0.0288302
-0.07671275 -0.047970507 0.0288302
-0.025959935 -0.043982707 0.0288302
-0.0043438817 -0.044493686 0.025082985
0.0035809556 -0.045549858 0.0288302
0.011359464 -0.040326145 0.0288302
0.036069863 -0.041241691 0.0288302
0.047070913 -0.049232058 0.026125498
0.053755369 -0.048764519 0.022147819
0.086424097 -0.047756422 0.025525829
0.096956916 -0.049662359 0.0288302
0.10821243 -0.04216614 0.027477849
0.11208341 -0.043385923 0.026125498
0.13654286 -0.042891908 0.026125498
0.16508606 -0.040558588 0.023255711
0.17522091 -0.042622216 0.024560429
-0.13070634 -0.031523917 0.022567708
-0.11241531 -0.039081581 0.028083181
-0.094215281 -0.032890514 0.025701603
-0.084335744 -0.030621734 0.024003271
-0.053805195 -0.038988873 0.027477849
-0.048411623 -0.033144664 0.0261255
-0.031599462 -0.032311216 0.027477849
-0.017248895 -0.037826948 0.0261255
-0.0060169632 -0.033200264 0.026639901
0.011061372 -0.031355243 0.0288302
0.02973914 -0.035281219 0.0288302
0.053227477 -0.032967955 0.026125498
0.070886329 -0.035151005 0.0261255
0.13430865 -0.034818694 0.026157029
-0.061311878 -0.025321525 0.023460805
-0.057938412 -0.020610265 0.020666257
-0.0237193 -0.024679879 0.025616707
0.042787261 -0.023028675 0.027393438
0.094313592 -0.026759438 0.0288302
0.1030753 -0.027632548 0.0288302
-0.021683503 -0.011638567 0.022218678
0.0058146436 -0.014727388 0.023948099
0.013157185 -0.013248395 0.02652584
0.020229504 -0.016191499 0.02524244
0.045288127 -0.015227591 0.025223531
0.09709017 -0.018138036 0.027605506
0.12621841 -0.017458301 0.023203101
0.31177896 -0.10478929 0.033262137
0.04282251 -0.075255319 0.030718181
0.040460989 -0.069851756 0.037668336
-0.21518783 -0.041362535 0.033050228
-0.19526619 -0.04199601 0.031832416
-0.18187857 -0.042420194 0.030779455
0.31271979 -0.042938378 0.030874567
-0.20068979 -0.039663248 0.039869785
0.018602818 -0.073208131 0.049578525
0.024638176 -0.071387097 0.042360593
0.044111487 -0.075502977 0.044846531
0.081187025 -0.078889832 0.043576427
0.090273887 -0.070264623 0.049621578
0.051356982 -0.068703175 0.043567423
0.073765486 -0.066411674 0.048634678
0.090787925 -0.064734064 0.046172887
-0.23012379 -0.040982235 0.046213888
-0.2180699 -0.040196933 0.049140401
-0.19045061 -0.042392362 0.047065552
-0.19216207 -0.03937136 0.044594668
-0.17880356 -0.038952101 0.040380806
0.034805737 -0.070199937 0.059402123
0.046376027 -0.07580556 0.055210527
0.05769331 -0.076822698 0.053001609
-0.22189169 -0.041305486 0.053634975
-0.2067976 -0.041776728 0.051587027
0.062288836 -0.077375382 0.067340627
0.086102702 -0.078884237 0.061539285
-0.22910747 -0.040477034 0.061984442
-0.21003009 -0.041774727 0.064789355
-0.20596321 -0.042036846 0.065606825
-0.1963241 -0.042611964 0.064220749
-0.21613151 -0.039984848 0.066161342
0.092133835 -0.078092851 0.077943474
-0.23681954 -0.040646072 0.074117415
-0.19674303 -0.038817663 0.071724497
0.015711516 -0.073258318 0.083966844
0.02941227 -0.074516267 0.084193535
0.03479702 -0.074974418 0.080328695
0.061157595 -0.077428892 0.084491208
0.032157376 -0.074872747 0.095632665
0.063722312 -0.077789128 0.098142967
0.087143339 -0.079530105 0.09019848
0.035185412 -0.069782093 0.097389199
0.086807482 -0.065997466 0.097076923
0.016387397 -0.073546931 0.10869341
0.05461441 -0.077022061 0.10553947
0.069468327 -0.078049295 0.10906608
0.072106667 -0.06579949 0.10704641
-0.22385478 -0.041056745 0.10512204
-0.21965249 -0.042506296 0.10437804
-0.2336086 -0.039952118 0.10480167
0.034382407 -0.075272799 0.11702512
0.067062505 -0.077701308 0.11593986
0.036043748 -0.069490746 0.11794128
0.052212644 -0.067872435 0.11808535
-0.2338835 -0.040580932 0.11278771
-0.23552397 -0.039989676 0.11129396
0.017294701 -0.073774986 0.12449986
0.030428454 -0.074986063 0.12528379
0.055081755 -0.07726296 0.12714648
0.062134787 -0.066850476 0.12106086
0.074908555 -0.080028705 0.13878165
0.036568448 -0.075655743 0.13694236
0.030796234 -0.069869354 0.13255507
0.078896433 -0.065528914 0.13172524
0.0064805709 -0.072980143 0.1459295
0.012996143 -0.073582187 0.14645258
0.078692742 -0.076553449 0.14324464
0.044497646 -0.068344876 0.14799134
0.023698932 -0.070349835 0.15547945
0.033696044 -0.069351904 0.15530257
0.070095979 -0.064317904 0.15553701
0.012101267 -0.072551414 0.16509786
0.048273742 -0.07694459 0.16049458
0.050630674 -0.077179849 0.16258967
0.074416652 -0.07663618 0.16194566
0.047506724 -0.067865983 0.16578974
0.06445346 -0.064918153 0.16054316
0.022836037 -0.07480339 0.18127941
0.066000484 -0.079483621 0.18455589
0.03218694 -0.069197506 0.18583342
0.06069538 -0.064628735 0.18363705
0.014811115 -0.07153742 0.19225161
0.050575476 -0.078349471 0.19133049
0.069323264 -0.073030308 0.19014907
0.062930077 -0.064552464 0.19339059
0.0090480605 -0.071348026 0.2021679
0.064930983 -0.068428941 0.20570891
0.0026010249 -0.071816102 0.21982998
0.0152346 -0.074429907 0.21654904
0.053044517 -0.079739392 0.21395633
0.0040300153 -0.071637154 0.22343558
0.056714162 -0.079108 0.22786339
0.01619643 -0.072488531 0.23565659
0.030042535 -0.076587141 0.23989655
0.018590728 -0.069982424 0.24330264
0.031413127 -0.067805484 0.24326347
0.001668076 -0.073506169 0.25144035
0.033842087 -0.078007624 0.25735438
0.054650739 -0.073902652 0.25378957
0.032313488 -0.067166254 0.25342581
0.0030622561 -0.071302302 0.26659861
0.017559584 -0.075364538 0.26576832
0.029165018 -0.077461265 0.26491475
0.035344038 -0.078465313 0.26174656
0.051189229 -0.07593634 0.26692879
0.009978733 -0.072706781 0.27903643
0.020778783 -0.076296002 0.27398571
0.036676422 -0.079432346 0.2791996
0.020765524 -0.068384975 0.27769533
0.014989501 -0.073420629 0.28574461
0.012222666 -0.069598131 0.28874779
0.0044888831 -0.072692007 0.29638362
0.012817744 -0.075743929 0.29598659
0.028634407 -0.07851918 0.29283422
0.032967918 -0.07945931 0.29631433
-0.0054791057 -0.071766615 0.30557978
0.0023528244 -0.071602143 0.30082476
0.006487716 -0.069650888 0.31303835
0.010852647 -0.077139117 0.33842415
0.016244331 -0.066692226 0.33875859
0.020236969 -0.065981045 0.33748633
-0.014397583 -0.072225779 0.34871954
0.017157357 -0.069359735 0.34741443
