# .PCD v0.7 - Point Cloud Data file format
VERSION 0.7
FIELDS x y z
SIZE 4 4 4
TYPE F F F
COUNT 1 1 1
WIDTH 903
HEIGHT 1
VIEWPOINT 0 0 0 1 0 0 0
POINTS 903
DATA ascii
-0.076400071 -0.036751535 -0.35201496
-0.093383066 -0.0389437 -0.34952626
-0.061107323 -0.030380275 -0.34107345
-0.045688156 -0.034543473 -0.34305376
-0.078009941 -0.0389437 -0.33818573
-0.046354394 -0.036493644 -0.33178219
-0.093153276 -0.036196705 -0.32086056
-0.066117138 -0.03128957 -0.32078975
-0.084440283 -0.036438666 -0.3156631
-0.053640179 -0.029024966 -0.31290612
-0.09455055 -0.036450315 -0.30924067
-0.090088144 -0.035640374 -0.29954466
-0.06956064 -0.031914577 -0.29362208
-0.096007332 -0.0389437 -0.28995144
-0.085138991 -0.0389437 -0.28137159
-0.065986358 -0.0389437 -0.2805413
-0.052920654 -0.028913707 -0.28425848
-0.1034366 -0.0389437 -0.27221578
-0.097605869 -0.0389437 -0.27585965
-0.076335147 -0.0389437 -0.27923936
-0.055777423 -0.0389437 -0.2764577
-0.049351469 -0.038767129 -0.27102262
-0.073923461 -0.036814082 -0.26497212
-0.066470295 -0.031353667 -0.26860079
-0.048825674 -0.028993182 -0.26985392
-0.095889494 -0.0389437 -0.25762615
-0.094455548 -0.0389437 -0.24231087
-0.10532624 -0.038406134 -0.23831539
-0.087669984 -0.0389437 -0.23118787
-0.057575531 -0.0389437 -0.2355537
-0.046065271 -0.031745821 -0.23661655
-0.1022104 -0.037840597 -0.22179313
-0.1025248 -0.037897665 -0.21861479
-0.081318185 -0.034048606 -0.21463583
-0.055060063 -0.0389437 -0.2149476
-0.097041875 -0.037712671 -0.20912518
-0.10646794 -0.0389437 -0.19652072
-0.096506104 -0.036805253 -0.19032419
-0.066451631 -0.031350281 -0.1917627
-0.064683653 -0.031029388 -0.1829547
-0.10065556 -0.037558392 -0.17057078
-0.09929648 -0.0389437 -0.17925924
-0.080613099 -0.033920631 -0.17226526
-0.062272459 -0.030591751 -0.17559125
-0.049274292 -0.038746752 -0.17130946
-0.05812984 -0.029839851 -0.17313015
-0.045725577 -0.032823928 -0.16827711
-0.047927618 -0.029515993 -0.16788483
-0.10648667 -0.038616754 -0.15990825
-0.07122238 -0.0389437 -0.14680807
-0.067447022 -0.0389437 -0.14535643
-0.09562692 -0.037421681 -0.13328244
-0.07565669 -0.050707031 -0.12966201
-0.051189404 -0.051938001 -0.12740773
-0.025417056 -0.050441705 -0.12966201
-0.061673857 -0.046137061 -0.12966201
-0.016864106 -0.04116891 -0.12714678
-0.13090968 -0.03405913 -0.1277805
-0.062764101 -0.033161059 -0.12966201
-0.13073418 -0.0221518 -0.12302377
-0.088674501 -0.051938005 -0.11271183
-0.13598722 -0.045644574 -0.11586256
-0.152678 -0.032069076 -0.11209967
-0.14476156 -0.034284391 -0.11763214
-0.13344553 -0.036138698 -0.11915618
-0.12084526 -0.029361485 -0.11120793
-0.066406615 -0.0221518 -0.11007344
-0.10371978 -0.051938001 -0.10271973
-0.028743949 -0.051938005 -0.10943001
-0.107475 -0.046150077 -0.10566526
-0.152678 -0.038603447 -0.1045599
-0.13097125 -0.033525683 -0.10272142
-0.11398166 -0.03431423 -0.10228779
-0.12288146 -0.02947678 -0.10873291
-0.098059952 -0.0221518 -0.10303811
-0.0643453 -0.0221518 -0.10647202
-0.080730177 -0.051938005 -0.099970296
-0.063125864 -0.051938001 -0.092824146
-0.056932464 -0.051938005 -0.09892793
-0.041973308 -0.051938005 -0.096873343
-0.02660675 -0.050696883 -0.092036903
-0.0057336697 -0.051938005 -0.097925931
-0.075761758 -0.041004982 -0.092036903
-0.0080500562 -0.049177259 -0.092577934
-0.085830919 -0.035842866 -0.092036903
-0.028728891 -0.031564038 -0.092036903
-0.076740824 -0.0221518 -0.095432594
-0.10338886 -0.051938001 -0.084711283
-0.063443646 -0.051938001 -0.081242144
-0.023737215 -0.051938005 -0.080245525
-0.10768682 -0.033057295 -0.08011125
-0.14335045 -0.022755589 -0.086570762
-0.045105696 -0.022151798 -0.089787692
-0.045495741 -0.051938005 -0.077597231
-0.023914751 -0.051937997 -0.075471699
-0.0090357438 -0.051938001 -0.074772112
-0.020231353 -0.038109474 -0.078972921
-0.10977688 -0.025772873 -0.075739011
-0.095579162 -0.022151798 -0.076838866
-0.076432794 -0.051937997 -0.060341053
-0.058225609 -0.051938001 -0.063129857
-0.011149337 -0.051938001 -0.062114462
-0.0033882316 -0.042127628 -0.060848214
0.0080689741 -0.042074595 -0.061266944
-0.029521309 -0.03673511 -0.061042055
0.053462014 -0.032255318 -0.064905658
0.079288021 -0.030008631 -0.064454891
0.089486897 -0.031444076 -0.063792832
0.13183719 -0.036353581 -0.061262704
-0.11426671 -0.029807301 -0.069838107
-0.10249192 -0.0221518 -0.063639931
-0.080522418 -0.0221518 -0.060026187
-0.073909558 -0.0221518 -0.060127616
-0.0087282192 -0.026973099 -0.062548727
0.028076543 -0.0269731 -0.062267751
0.040038496 -0.0269731 -0.060711976
0.012603105 -0.015857112 -0.06225881
0.077582404 -0.011487999 -0.060880207
0.11749725 -0.015839141 -0.061407477
0.13615738 -0.014686219 -0.060503244
0.0074246502 -0.055891342 -0.052158296
0.020407202 -0.056748334 -0.051838793
0.07837075 -0.051061075 -0.056125619
0.11465488 -0.055950828 -0.051556263
0.14043655 -0.054493021 -0.050658282
-0.091392495 -0.040466376 -0.05350998
-0.028837921 -0.049365316 -0.054411799
-0.011375796 -0.048535541 -0.056420878
0.099917822 -0.049828466 -0.05618526
0.14130266 -0.040714078 -0.059905853
0.21244964 -0.042208359 -0.051416185
-0.11384176 -0.037169941 -0.051697075
-0.10231519 -0.03940621 -0.052504517
-0.079051957 -0.038665563 -0.055338666
0.1660458 -0.035005245 -0.058392178
0.22765523 -0.033520557 -0.051067252
-0.12554404 -0.02714934 -0.053258713
-0.067778863 -0.02604243 -0.05872196
-0.012612855 -0.0269731 -0.059335053
0.010548408 -0.026973102 -0.05454953
0.033353548 -0.026973099 -0.05117204
0.10231125 -0.0269731 -0.05096402
-0.10710565 -0.017167956 -0.052563146
0.0047051809 -0.011488 -0.051965561
0.17386881 -0.011488 -0.053396806
-0.028292552 -7.9457997e-05 -0.051794358
-0.013757445 0.0027419941 -0.050701655
0.022836119 0.0034057877 -0.051130295
0.049039658 -0.06478814 -0.042279005
0.072493903 -0.063656524 -0.04322524
0.10520541 -0.06139598 -0.045035608
-0.091478691 -0.056955386 -0.041130401
-0.017321797 -0.059053913 -0.047316883
0.15098614 -0.05930163 -0.043821007
0.19182631 -0.05717276 -0.042064268
-0.097978219 -0.049187817 -0.047294825
0.1833517 -0.049730852 -0.049284749
0.22491288 -0.047447499 -0.044409595
-0.138974 -0.022876533 -0.047841705
-0.033288669 -0.026973102 -0.040920593
-0.012182883 -0.0269731 -0.043089658
0.039494272 -0.0269731 -0.046671759
0.15733638 -0.0269731 -0.044193603
0.205194 -0.0269731 -0.049401838
0.24978213 -0.026973102 -0.047543697
0.26971149 -0.024717461 -0.042867586
-0.11005318 -0.011488 -0.041293308
-0.082609147 -0.011488 -0.047207732
-0.060186893 -0.011488 -0.04381435
-0.020797241 -0.011488 -0.04341469
0.043606326 -0.011488 -0.04498747
0.0547943 -0.011488 -0.045830235
0.081322983 -0.011488 -0.040005863
0.097433075 -0.011488 -0.048921991
0.12111719 -0.011488 -0.047703195
0.23576969 -0.011488 -0.045233965
-0.054043807 -0.0048266277 -0.042086501
0.1984003 -0.001791971 -0.045760788
0.21934627 -0.0033833603 -0.042742476
-0.091861367 0.0098358216 -0.041657522
-0.054443497 0.0059084985 -0.042086497
-0.046740152 0.0078374417 -0.042406499
-0.0084126275 0.0095245354 -0.041893966
0.14057073 0.0025123421 -0.049159572
-0.040363401 0.011192597 -0.040654279
-0.070123993 -0.060717382 -0.03884612
-0.013635172 -0.067931205 -0.034205087
0.0041657896 -0.069049932 -0.033040326
0.032585882 -0.067320839 -0.036396712
0.041010704 -0.069022506 -0.034511045
0.071566179 -0.067514002 -0.032199103
0.12222157 -0.068743132 -0.031617098
-0.13776821 -0.053794317 -0.034166209
0.2050392 -0.057778787 -0.037981823
0.26136968 -0.051519826 -0.031475402
-0.17260866 -0.041482408 -0.036932204
-0.15500012 -0.049029041 -0.034757193
-0.13651681 -0.049084812 -0.038857721
0.27393508 -0.043827966 -0.036785081
-0.19158043 -0.032646455 -0.032199871
-0.18595922 -0.033376276 -0.034252405
-0.16220868 -0.035406351 -0.035234571
-0.19593169 -0.025106875 -0.032501694
-0.14133269 -0.026973102 -0.03517665
-0.1030244 -0.0269731 -0.038181826
-0.013433376 -0.0269731 -0.037080299
0.078595385 -0.026973102 -0.037365142
0.095103189 -0.0269731 -0.038326528
0.1075311 -0.0269731 -0.037271388
0.13124967 -0.0269731 -0.03984987
0.15149023 -0.0269731 -0.037155263
0.16978434 -0.026973099 -0.030447409
0.235176 -0.0269731 -0.031050624
-0.17398888 -0.01466755 -0.037616152
-0.1681712 -0.010232025 -0.036831871
-0.14002404 -0.013746783 -0.031580184
-0.13652235 -0.015473649 -0.035108924
-0.095658116 -0.011488 -0.033889785
-0.047613628 -0.011488 -0.03279233
0.031449508 -0.011488 -0.036826715
0.10606279 -0.011488 -0.034675375
0.21829028 -0.011488 -0.036056444
0.2798638 -0.013265217 -0.037252784
-0.1542456 -0.0057433229 -0.036120526
-0.1230412 -0.00091423886 -0.038222656
-0.10532213 -0.0051379399 -0.036305651
-0.064307533 -0.0051379399 -0.032611154
-0.039067917 -0.0051379399 -0.034455251
0.25755811 -0.0033397931 -0.034116354
-0.19760863 0.0075261481 -0.031797875
0.20455289 0.0073263547 -0.031669185
0.23399611 0.0028777618 -0.033230044
-0.10945604 0.019624159 -0.034409743
-0.080360651 0.010106564 -0.030614235
-0.079342559 0.010160299 -0.030742943
0.065425247 0.01390068 -0.037540495
0.070187666 0.013794754 -0.037644573
0.11545432 0.014725008 -0.032596514
0.034575857 -0.072633542 -0.024956886
-0.1359843 -0.061792672 -0.023163749
-0.086241975 -0.066172041 -0.025367701
-0.073254503 -0.067514002 -0.021378364
-0.026084911 -0.067514002 -0.021890074
0.046788286 -0.067514002 -0.020975739
0.055181053 -0.067514002 -0.028426068
0.13194786 -0.067514002 -0.0212196
0.14403175 -0.067514002 -0.029231934
0.20564878 -0.061886765 -0.0269606
0.25983852 -0.055979989 -0.025645036
0.27842844 -0.053995255 -0.02034286
0.20659965 -0.043056443 -0.025131933
0.30076692 -0.04636199 -0.021626614
-0.10527519 -0.039120905 -0.02594116
0.21598166 -0.03874502 -0.026663378
0.31472176 -0.03265477 -0.025611818
-0.1733489 -0.026973102 -0.028576981
-0.079295896 -0.0269731 -0.020375561
-0.0038035382 -0.0269731 -0.02132215
0.036698513 -0.0269731 -0.027429333
0.09526325 -0.026973099 -0.024249533
0.19536886 -0.027584802 -0.02329867
0.23812869 -0.0269731 -0.028231291
0.25561664 -0.0269731 -0.021830894
0.31243509 -0.029735414 -0.027943742
0.3287583 -0.025748298 -0.021443237
-0.19017467 -0.011328554 -0.029396595
-0.18507424 -0.011488 -0.021556221
-0.10602669 -0.01237505 -0.026030034
-0.083235785 -0.01165966 -0.022309937
0.1312291 -0.011488 -0.024839083
0.14871189 -0.011488 -0.029787736
0.21496092 -0.016064171 -0.026503107
0.25669631 -0.011488 -0.023269102
-0.20983356 -0.0073759509 -0.022237305
-0.19748431 -0.0090764854 -0.027033322
-0.10683016 -0.0051379399 -0.02846197
-0.087867722 -0.0034124714 -0.023064364
-0.06818229 -0.0051379399 -0.020779833
-0.047161419 -0.0051379399 -0.026235212
-0.016912399 -0.0051379399 -0.020897565
0.17540097 -0.0079642003 -0.020049782
0.21371153 -0.0035126442 -0.026297934
0.27258316 -0.0028032521 -0.027080035
0.28948188 -0.0068818307 -0.025577616
0.29353493 -0.009333333 -0.027366169
0.18537094 0.0060802116 -0.021672353
0.1911618 0.0024672861 -0.022618001
0.23247042 0.0054018162 -0.028699119
0.26598108 0.0016562511 -0.023486644
-0.22773314 0.014222117 -0.022591075
-0.20865241 0.0113431 -0.029905338
-0.15362415 0.018755896 -0.020287082
-0.13924941 0.012793121 -0.021541912
-0.072123341 0.014021905 -0.024476897
-0.06421978 0.014945002 -0.022923946
-0.020374851 0.018149333 -0.021181267
-0.017456707 0.017411362 -0.02395818
-0.21442463 0.023934364 -0.027210042
-0.11296201 0.021880403 -0.024415286
-0.10301872 0.029297635 -0.021394504
-0.083380789 0.026512258 -0.026316561
-0.055975437 0.0275039 -0.024974976
0.019424567 0.020029312 -0.020685896
-0.059890233 -0.071364924 -0.012923195
-0.010366257 -0.071075089 -0.010448888
0.037997909 -0.075563461 -0.01217762
0.075622313 -0.074941672 -0.017082321
0.088071421 -0.074621618 -0.018698581
0.1144257 -0.07377997 -0.017845929
0.1242227 -0.074012332 -0.014806623
0.14430565 -0.07203538 -0.017425586
0.16596387 -0.071207456 -0.013899759
-0.1461232 -0.062006146 -0.018351147
-0.13390978 -0.063681521 -0.019062867
-0.11702166 -0.068138607 -0.014414188
-0.05458314 -0.067514002 -0.018521529
-0.033980712 -0.069063634 -0.014303552
0.024630303 -0.067514002 -0.011655135
0.036146779 -0.067514002 -0.013144345
0.1257222 -0.063201651 -0.011930013
0.13956602 -0.064324245 -0.014189777
0.14200851 -0.067514002 -0.016456887
0.17083335 -0.064143836 -0.019293651
0.19026253 -0.068512216 -0.01832783
-0.036551885 -0.050115641 -0.014723281
-0.028623816 -0.051120121 -0.013429162
0.28967887 -0.053902682 -0.012031527
-0.21381791 -0.045089714 -0.010521925
-0.20764038 -0.04661357 -0.012924187
-0.055314187 -0.040650636 -0.017785875
-0.027781926 -0.043968029 -0.013291704
0.15262747 -0.046126969 -0.016321901
0.30848426 -0.047365982 -0.01302555
-0.22488207 -0.032478027 -0.014265647
-0.063402131 -0.035577234 -0.019106092
-0.0090089273 -0.036427207 -0.010227328
-0.10445669 -0.0269731 -0.013054405
-0.086842135 -0.026973102 -0.014304256
-0.066868424 -0.026973102 -0.013816223
-0.033640515 -0.025366368 -0.015556623
0.014940778 -0.0269731 -0.011992902
0.12025321 -0.0269731 -0.01930015
0.13372736 -0.026973102 -0.019904776
0.17115748 -0.027451131 -0.019346572
0.20548062 -0.026973102 -0.01100621
0.2410329 -0.0269731 -0.010179177
0.26880896 -0.0269731 -0.017019926
0.27104443 -0.0269731 -0.013696008
0.30037636 -0.0269731 -0.010985509
0.31007278 -0.026973099 -0.012241822
-0.21843734 -0.011984495 -0.017817859
-0.066700682 -0.011488 -0.019895783
-0.051295549 -0.013130689 -0.017103391
-0.033729058 -0.015030915 -0.01424297
-0.025093909 -0.011060263 -0.012824354
-0.011169795 -0.018304687 -0.010571908
-0.004849412 -0.011488 -0.012480862
0.027055657 -0.011488 -0.016577251
0.039941214 -0.011488 -0.015219741
0.054281346 -0.011488 -0.012390215
0.069845259 -0.011488 -0.014194734
0.13272527 -0.016840946 -0.01308734
-0.075021699 -0.0051379399 -0.016199989
-0.0090215392 -0.0090569034 -0.010202773
-0.2473833 0.0022252263 -0.01213048
-0.068846315 0.0078935958 -0.019958995
0.15080819 0.0068125641 -0.016036235
0.23402137 0.0082241418 -0.019936223
0.27870992 0.0029109758 -0.013331763
-0.11296199 0.010267953 -0.016122639
-0.075287297 0.016250985 -0.012807524
-0.017991183 0.016693117 -0.016276823
0.12468133 0.017934673 -0.011768067
0.15359141 0.010867858 -0.01648714
0.21061985 0.012283669 -0.018634334
0.23214641 0.011251451 -0.010095146
-0.112962 0.025572032 -0.014181538
0.016945504 0.021319414 -0.012691326
-0.18688805 0.032070741 -0.017847814
-0.20988819 0.040639378 -0.016774129
-0.2707532 0.055100862 -0.019229798
-0.30338967 0.062526837 -0.010097551
-0.010050437 -0.07505729 -0.0088539757
0.081157193 -0.076287068 -0.002136783
0.12975222 -0.075001277 -0.0006661762
0.16916172 -0.072175533 -0.0041959719
0.18562506 -0.070757046 -0.0039702663
0.011690296 -0.067514002 -0.0081870584
0.057407092 -0.068597503 -0.00077874586
0.079196103 -0.067514002 -0.0048770979
0.086906284 -0.067514002 -0.0055851559
0.1803906 -0.067514002 -0.0095121814
0.22551286 -0.066390343 -0.0096000237
0.1092514 -0.059670955 -0.0092414627
-0.20947406 -0.047735933 -0.0060835918
0.053119026 -0.043170594 -0.0002015247
0.30615601 -0.049790077 -0.0060673286
0.011274934 -0.037416033 -0.0069163358
0.037777305 -0.037100475 -0.0025902735
0.045608316 -0.039490625 -0.0013119904
0.33510298 -0.035135873 -0.0056747915
-0.20871949 -0.026973099 -0.0044230456
-0.19184457 -0.026973099 -0.0054818876
-0.096219942 -0.0269731 -0.0063172532
-0.0018268377 -0.029423751 -0.0090549663
0.017513227 -0.026973099 -0.005705703
0.072713315 -0.021826435 -0.0032913983
0.08664275 -0.024916133 -0.0032921708
0.095533237 -0.027911279 -0.0071536112
0.10515857 -0.02541092 -0.0081046931
0.18400845 -0.0269731 -0.0010971986
0.20149615 -0.026973099 -0.0065536015
0.2680693 -0.026973102 -0.0097276736
0.27644271 -0.0269731 -0.0051365234
0.32866374 -0.0269731 -0.0050794715
0.34109929 -0.025299566 -0.0057073701
-0.22940744 -0.011488 -0.0070289099
-0.18946126 -0.011488 -0.0049448926
-0.13638364 -0.011488 -0.0034993868
-0.088333644 -0.011488 -0.0017424151
0.017881326 -0.019750338 -0.0058366181
0.020074403 -0.011488 -0.0010010917
0.11829699 -0.011488 -0.0028276737
0.16533799 -0.011488 -0.0059681982
0.26340938 -0.011488 -0.0060059647
0.28211814 -0.011488 -0.0035906304
0.32166931 -0.011488 -0.0075044893
-0.11134902 -0.0051379399 -0.0051902663
-0.079847462 -0.0051379399 -0.0072483011
-0.067488804 -0.0051379399 -0.0090917516
0.07732445 -0.0023665838 -0.0040498232
0.08252088 -0.0024757234 -0.004897505
-0.27196974 0.0012179324 -0.0043095564
-0.11296201 0.0086270319 -0.0016074618
0.26139301 0.0068523502 -0.0051538232
0.27958956 0.0037795268 -0.0048690145
0.037769791 0.015794683 -0.0025710131
0.15324329 0.019484775 -0.0063001118
-0.29131687 0.023849687 -0.0039481842
-0.28583354 0.027657734 -0.0065785996
-0.036266491 0.020652553 -0.0028017061
-0.0045280941 0.020629166 -0.0094579961
0.011566161 0.021957701 -0.0031927011
0.061724707 0.022557786 -0.0044175307
0.11279483 0.021516476 -0.00037345898
-0.065053865 0.034364954 -0.0013409704
-0.22730985 0.049868725 -0.0003895984
-0.32373494 0.055930946 -0.0018982656
-0.31935802 0.051397931 -0.0021251841
-0.24978048 0.055447608 -0.0036465609
-0.32658955 0.071548879 -0.0050477213
-0.048391696 -0.073592395 0.0014808889
-0.006125106 -0.071838871 0.0095917769
0.0045054965 -0.075731128 0.0019013415
0.018394751 -0.07613568 0.00038290978
0.023753949 -0.07622841 0.0024274196
0.036494665 -0.076501608 0.0029381015
0.096447423 -0.073780335 0.0074831769
0.13125241 -0.074894913 0.0038283714
-0.13631447 -0.066577032 0.0029443533
0.052493498 -0.067514002 0.0022811648
0.078083873 -0.067514002 0.0032000728
0.12407568 -0.067514002 0.0070470013
0.044465385 -0.058362998 0.0013337685
0.05359713 -0.057399146 0.00043441122
0.069284655 -0.050966509 0.0025527508
0.080959141 -0.052842934 0.0044584279
0.28274167 -0.057561535 0.0015998641
0.0075559244 -0.04841987 0.0073585603
0.058185685 -0.040454149 0.0007410543
0.10888634 -0.047079109 0.0090170652
0.11143123 -0.040274356 0.0094324872
0.0083766486 -0.034142368 0.0072246054
0.041187234 -0.033672173 0.0018688329
0.072584525 -0.033108592 0.0030914135
0.098824956 -0.037333932 0.0073747206
0.10857367 -0.030242942 0.0089660287
-0.24062571 -0.024160756 0.0085623115
-0.13533066 -0.026973102 0.0026065172
-0.080191679 -0.0269731 0.0047945175
-0.051592775 -0.0269731 0.004563726
-0.049975395 -0.0269731 0.0018012021
-0.025809832 -0.026973102 0.00093352981
0.017165035 -0.026264602 0.0057881158
0.057601783 -0.021886425 0.00064575765
0.077991635 -0.025535814 0.0039740447
0.12472311 -0.026973102 0.0092233755
0.13816342 -0.0269731 0.0099975951
0.19353852 -0.0269731 0.0013123732
0.28380722 -0.0269731 0.0040926835
0.31276208 -0.026973102 0.0015399661
0.32789031 -0.026973099 0.00058663497
0.34315091 -0.026973102 0.0030242407
-0.26720488 -0.014335237 0.0025030959
-0.25093243 -0.019466925 0.0090588462
-0.23903452 -0.011488 0.0017822289
-0.19744663 -0.011488 2.1598302e-05
-0.12739442 -0.011488 0.0014869496
-0.11311355 -0.011488 0.0077672531
-0.10442931 -0.011488 0.00475155
-0.02841205 -0.011488 0.00023194402
-0.019594014 -0.011488 0.0026153754
0.0042498778 -0.011024072 0.0052264305
0.015898079 -0.011488 0.0063447021
0.08081986 -0.011488 0.0046370309
0.095625274 -0.010215444 0.0068694381
0.16764694 -0.011488 0.0015966799
0.22239116 -0.011488 0.0082807131
0.29515693 -0.011488 0.009142871
-0.27574825 -0.0019075884 0.002207801
-0.10222211 -0.0051379399 0.0051696678
-0.085077994 -0.0051379399 0.0050181318
-0.0062171398 -0.0051379399 0.0052910303
0.023872271 -0.0040219398 0.0046695117
0.084195845 -0.0027993494 0.005003253
0.017601468 0.0022149149 0.0056935446
0.082749836 0.0064142076 0.004766657
0.10847173 0.0035059 0.008964031
0.2691977 0.0057930467 0.0027178298
0.28060031 0.0035137662 0.0054779202
-0.27216572 0.01089582 0.0064775376
-0.083913818 0.019227728 0.0042154416
0.15069759 0.019775122 0.0050123609
0.24015383 0.010373725 0.0058633126
-0.09288206 0.023355165 0.00032970475
-0.03223202 0.026076522 0.0042258785
-0.013873758 0.020977287 0.0095299929
0.012667076 0.021887165 0.0047879582
0.057034317 0.021888692 0.0005836226
0.091200136 0.02077885 0.0061411373
-0.29112399 0.031199602 0.0056601837
-0.17600043 0.03825504 0.0010196615
-0.085380122 0.03432522 0.00088836782
-0.077783853 0.033477299 0.008744007
-0.047051184 0.03311757 0.0099080289
-0.19680731 0.043777071 0.0066417768
-0.3236208 0.058957081 0.0025166448
-0.31729072 0.055258431 0.0035725348
-0.25893843 0.057654016 0.0043165567
-0.27988967 0.063127868 0.0093448423
-0.32350585 0.072361708 0.0039970805
-0.02472268 -0.07422623 0.012189859
0.040211655 -0.075388595 0.013544388
0.063676797 -0.075606495 0.011819223
0.076885372 -0.075147048 0.014990523
-0.11776068 -0.066555366 0.018105986
0.14139822 -0.069361046 0.01432405
0.16616507 -0.063658081 0.018366838
0.17006554 -0.069912612 0.01913031
0.19262019 -0.06920144 0.013251292
0.22106229 -0.066609286 0.012780093
-0.034888893 -0.050931912 0.014286986
-0.22481871 -0.035014953 0.011117632
-0.065414593 -0.039361641 0.019269783
0.15634654 -0.036622383 0.016764143
0.32864183 -0.0359766 0.013568688
-0.14948958 -0.0269731 0.018982776
-0.10566537 -0.0269731 0.016756602
-0.084790729 -0.026973099 0.01929356
-0.047222599 -0.025051767 0.01629496
-0.0313037 -0.026973102 0.011147929
0.031129863 -0.026973102 0.015719697
0.058672085 -0.026973102 0.018122561
0.1196059 -0.0269731 0.015393117
0.2723062 -0.026973099 0.010629211
0.31551561 -0.026973102 0.014626575
0.33425045 -0.027748719 0.013196183
-0.1860238 -0.011488 0.01502768
-0.12069907 -0.011488 0.017898226
-0.055680111 -0.019237958 0.017659523
-0.042103514 -0.011488 0.019250736
-0.028884351 -0.013927544 0.013277657
-0.013670655 -0.011488 0.019734843
0.043000046 -0.011488 0.012370707
0.14171718 -0.011488 0.015905451
0.18664204 -0.011488 0.013985519
0.25878918 -0.011488 0.011961455
0.2663978 -0.011488 0.011939287
0.2833024 -0.011488 0.015881408
0.30272144 -0.011488 0.014092047
0.32427859 -0.012815818 0.012976261
-0.074307993 -0.0051379399 0.015525164
-0.065358758 -0.0051379399 0.015357987
-0.035335325 -0.0051379399 0.019486427
0.12016355 -0.0041673351 0.010871234
0.16171885 -0.0049088541 0.017650682
-0.23419371 0.0059032859 0.017004289
-0.112962 0.0029707581 0.01007612
0.13399126 0.0019117596 0.013127241
0.27019379 0.0033091628 0.017890844
-0.23238891 0.011884221 0.019480752
-0.035593137 0.014325415 0.015815403
0.1186257 0.019046456 0.019575998
0.1677714 0.016224951 0.018629054
0.17402013 0.0108812 0.019652516
-0.24976598 0.023927303 0.016832937
-0.16238192 0.022790404 0.018971758
-0.14597693 0.022899512 0.013759675
-0.0088175619 0.020691132 0.014412898
0.10701904 0.020694211 0.016167028
-0.10763476 0.030243374 0.018571757
-0.081925109 0.032683995 0.011579552
-0.22407871 0.048933484 0.012378315
-0.25840846 0.055020832 0.017894726
-0.26677793 0.060810234 0.014305079
0.01515861 -0.073612772 0.02107235
0.025328783 -0.070913777 0.02890422
0.14182942 -0.070909828 0.021877084
-0.13826175 -0.060763359 0.024752842
-0.062384538 -0.067412034 0.028284067
-0.036697332 -0.067514002 0.025189698
-0.017775355 -0.067514002 0.022021059
-0.0062547033 -0.067514002 0.023292212
0.090374589 -0.067514002 0.026282858
0.1578705 -0.069461554 0.023497187
0.17087491 -0.068436489 0.024272997
0.18960702 -0.067991659 0.02137664
0.19041714 -0.057032906 0.022325646
0.26927084 -0.053015418 0.025645224
-0.074853688 -0.040616564 0.020810558
-0.19989926 -0.036801882 0.026815455
0.23707466 -0.038528584 0.029941643
-0.16530703 -0.026973102 0.025723703
-0.10803797 -0.0269731 0.028010331
-0.088630565 -0.0269731 0.024827406
-0.074527383 -0.02153771 0.020742338
-0.068269402 -0.026973099 0.029760264
-0.059467886 -0.026973102 0.023106525
0.037892379 -0.0269731 0.020665381
0.077646635 -0.0269731 0.020837152
0.20392138 -0.0269731 0.028382324
0.2167936 -0.0269731 0.028602917
0.22829479 -0.022669058 0.028508473
0.23432533 -0.0269731 0.029948292
-0.20310646 -0.011488 0.02128089
-0.17564137 -0.011488 0.026849635
-0.098501697 -0.018103674 0.024646295
-0.015634919 -0.011488 0.028664846
-0.00037714909 -0.011488 0.021673806
0.045582846 -0.011488 0.027037296
0.05146027 -0.011488 0.026086697
0.079088829 -0.011488 0.022799509
0.084091142 -0.011488 0.024731588
0.15253814 -0.011488 0.020257153
0.1954598 -0.012058811 0.023154996
0.25415808 -0.011488 0.02939116
0.27069283 -0.011488 0.021243952
-0.11109079 -0.0051379399 0.028536167
-0.10364468 -0.0080781812 0.025473373
0.17892678 -0.0002714002 0.020456931
0.19763878 -0.007717194 0.023511238
0.21960495 -0.0044329423 0.027094042
0.22041202 -0.0052438993 0.027225884
0.27623403 -0.0023686369 0.024671532
0.30974263 -0.0095330076 0.020346055
-0.16738573 0.015201184 0.027822519
-0.112962 0.019849863 0.020280201
-0.098213539 0.010826449 0.025141472
-0.035572357 0.01710071 0.021406451
-0.027923964 0.01692665 0.027884295
0.004849053 0.016467778 0.029047891
0.036330245 0.017820962 0.027090888
0.18613352 0.012256909 0.026580829
0.20193596 0.012405611 0.021949545
-0.066641569 0.029143736 0.020821232
-0.0022157126 -0.068343513 0.034167223
0.019487534 -0.067016207 0.038130917
0.041272823 -0.069188684 0.033926472
0.096155912 -0.069808424 0.031217715
0.13109289 -0.067577317 0.033774003
0.14920177 -0.06540297 0.034961279
0.15903291 -0.061697245 0.039240789
0.16679224 -0.063694887 0.035072643
-0.10577905 -0.059456758 0.033155259
-0.091421366 -0.05886868 0.03746178
0.21842754 -0.053894542 0.039664134
0.24124782 -0.054429762 0.034035899
0.25335428 -0.054380171 0.030672874
-0.15167278 -0.040302105 0.033349972
-0.14081264 -0.048334874 0.038430057
0.26205468 -0.046657059 0.034348637
-0.18442065 -0.032542832 0.035080109
-0.17553061 -0.036076542 0.037990596
-0.15235518 -0.037017435 0.033461355
0.26808059 -0.037858326 0.035002835
0.28374654 -0.037425838 0.036866773
0.29607332 -0.031707454 0.034099419
-0.15891635 -0.02695182 0.034532283
-0.12533039 -0.0269731 0.03475431
-0.091731705 -0.026973099 0.039283086
-0.037724108 -0.0269731 0.033969611
0.031619765 -0.026973102 0.035863742
0.046143048 -0.0269731 0.031920068
0.077561483 -0.0269731 0.035525553
0.091937922 -0.0269731 0.035738271
0.10149078 -0.026973099 0.03524163
0.12046418 -0.026973099 0.039530911
0.20874491 -0.0269731 0.033233732
0.24331722 -0.024795234 0.030960621
0.25079745 -0.0269731 0.031313591
0.28310561 -0.020245707 0.038391709
-0.17072675 -0.017978434 0.039128989
-0.15347272 -0.01840793 0.033620209
-0.1322491 -0.011488 0.03619615
-0.048590727 -0.011488 0.035872675
0.10911467 -0.011488 0.035711274
0.12536132 -0.011488 0.036582816
0.139605 -0.011488 0.030281197
0.21027559 -0.011488 0.030292779
0.26876128 -0.012433656 0.039340366
0.27649 -0.015521283 0.038502742
-0.11582844 -0.00024150487 0.039039463
-0.10112099 -0.0051379399 0.038993172
-0.070360132 -0.0051379399 0.037903689
0.25885013 -0.00703638 0.033497032
-0.20009939 0.0048764967 0.031042904
-0.10577387 0.0051534083 0.033847686
-0.070805788 0.010858028 0.031204306
-0.023514926 0.011922974 0.036502086
-0.0010463807 0.014900308 0.032860059
0.084122673 0.012729795 0.038673103
0.12705684 0.013706498 0.033095598
0.16786253 0.010396488 0.034104984
0.13455097 -0.057547946 0.048095431
0.20508768 -0.048705518 0.047393575
-0.13770461 -0.036807105 0.046276525
-0.12835565 -0.03803096 0.048020743
0.26153016 -0.032867514 0.04348173
-0.17377527 -0.026208512 0.040812414
-0.14739898 -0.027563944 0.046789072
-0.1395407 -0.024945635 0.048136421
-0.10730952 -0.0269731 0.046460219
-0.055740081 -0.026973099 0.044177413
-0.016044278 -0.0269731 0.046904936
0.03224102 -0.026973102 0.044855446
0.10197929 -0.0269731 0.048763696
0.11367597 -0.0269731 0.045105122
0.24431407 -0.022237297 0.047686927
0.26779014 -0.024709446 0.043132134
-0.16200486 -0.017652158 0.040986817
-0.14182481 -0.011804786 0.043825679
-0.080297373 -0.011488 0.042788099
-0.079615973 -0.011488 0.045220248
-0.057056617 -0.011488 0.045602351
-0.029949782 -0.011488 0.049084652
0.12712657 -0.011488 0.044346705
0.15931985 -0.011488 0.049661338
0.1868722 -0.011488 0.0427869
0.22481588 -0.011306624 0.04876871
0.23580994 -0.015351908 0.047593258
-0.12338725 -0.0076121367 0.044236582
-0.11367169 -0.0042170612 0.043236367
-0.10905404 -0.0026297905 0.041198
-0.09997046 -0.001400243 0.041198
0.1655345 -0.002398236 0.049808621
0.20863138 -0.0076215034 0.048757061
0.23381926 -0.0048881643 0.040734965
-0.10508165 0.0010790639 0.040208872
-0.074141644 0.0013228639 0.041198
-0.024828246 0.0094024222 0.040028125
0.013105011 0.0090381149 0.043208353
0.087229148 0.0055439281 0.048017487
0.096388347 0.0094509628 0.04255081
0.12729335 0.0028684586 0.049995266
0.13365948 0.0082416302 0.041429393
0.19554554 0.0010106877 0.043809865
-0.089372233 -0.050724648 0.054411799
0.0027576229 -0.052739978 0.053940155
0.12144861 -0.053749841 0.052625336
0.14190333 -0.054249398 0.050506547
-0.069254667 -0.042879388 0.055106439
-0.043602105 -0.049823109 0.052882459
-0.036861159 -0.049658168 0.053776748
-0.0024158973 -0.049172983 0.056147497
0.13942711 -0.042428348 0.059559759
-0.10808685 -0.031150049 0.054411799
-0.099112108 -0.035747945 0.054411799
-0.088999927 -0.036662262 0.054497801
-0.072243191 -0.03620261 0.054411799
-0.062213618 -0.033651125 0.058259699
-0.053881794 -0.039889418 0.054411799
-0.038012974 -0.032063495 0.054411799
-0.12779646 -0.029928427 0.054411799
-0.10499769 -0.026973099 0.05327132
-0.083312184 -0.029203922 0.056871828
-0.070680141 -0.023164351 0.05795335
-0.044971619 -0.026973102 0.057394639
0.094970495 -0.026973102 0.054858375
0.15273751 -0.0269731 0.057321846
0.21248056 -0.0269731 0.05261448
-0.057787493 -0.011029482 0.055992424
-0.02113015 -0.011488 0.052712459
0.064140491 -0.011488 0.055958856
0.14921585 -0.011488 0.054407392
0.20380357 -0.014219711 0.052814402
0.0091060679 -0.0056894012 0.057171401
0.10250613 -0.0095413532 0.059564225
0.14465874 -0.0010964841 0.051231042
0.024683516 0.002472165 0.052253902
0.080980346 0.0032371213 0.051275067
-0.11373834 -0.0514712 0.064445056
-0.016998282 -0.0514712 0.069409132
0.022974743 -0.040847942 0.061888173
-0.13953726 -0.036791127 0.06467101
-0.0017999057 -0.030964047 0.063066348
0.073615097 -0.03386569 0.063688099
0.13210613 -0.032673866 0.061855108
-0.14401993 -0.024778254 0.062818222
-0.068996489 -0.021684499 0.062766843
-0.05419508 -0.026973102 0.060021728
-0.041454926 -0.022477567 0.061973188
0.12186811 -0.0269731 0.060672216
0.14406596 -0.020316513 0.061061181
0.036536027 -0.011488 0.061839696
0.085892692 -0.015725052 0.062343471
0.14481352 -0.016586339 0.060113918
-0.072225638 -0.051471196 0.079570547
-0.013389513 -0.046956699 0.07417541
-0.13377148 -0.034089744 0.071001701
-0.11088501 -0.036619559 0.074770398
-0.02995754 -0.031903122 0.075097814
-0.10120614 -0.021684499 0.072357297
-0.038694911 -0.023964418 0.079243638
-0.10181697 -0.051471204 0.08292181
-0.069936089 -0.0514712 0.088427998
-0.12160421 -0.045144606 0.082942493
-0.057879705 -0.050602697 0.092036903
-0.11998627 -0.035508644 0.092036903
-0.14309047 -0.025622731 0.097033918
-0.086712867 -0.021684499 0.095467471
-0.044692192 -0.021684501 0.099068917
-0.068250306 -0.0514712 0.10323084
-0.13512228 -0.040330064 0.102469
-0.012346047 -0.047904778 0.10949554
-0.12870459 -0.038693368 0.10807548
-0.10074332 -0.021684499 0.1064836
-0.075345717 -0.021684501 0.10272114
-0.02167042 -0.0514712 0.11595953
-0.12013113 -0.031286187 0.11752044
-0.14891727 -0.029897224 0.11557992
-0.05077856 -0.021684498 0.11844345
-0.0093556978 -0.0514712 0.12847997
-0.11057285 -0.040943265 0.12966201
-0.024415556 -0.045591842 0.12966201
-0.018229168 -0.046611462 0.12966201
-0.13324378 -0.032940321 0.12966201
-0.10630147 -0.039399035 0.12966201
-0.072982937 -0.03204051 0.12966201
-0.062394682 -0.030141255 0.12966201
-0.14004166 -0.028392807 0.12607634
-0.099640414 -0.021943104 0.12966201
-0.079493657 -0.026862519 0.12966201
-0.050458174 -0.021756295 0.12966201
-0.044985335 -0.022406831 0.12966201
-0.080731064 -0.035565116 0.13054314
-0.093436748 -0.03787135 0.14127427
-0.088308498 -0.041428298 0.15637028
-0.06973511 -0.041428298 0.15909031
-0.094556518 -0.038074605 0.15077651
-0.06494192 -0.032699201 0.159821
-0.109199 -0.041428298 0.16050604
-0.067873538 -0.041428298 0.16453701
-0.057829943 -0.041428301 0.16183643
-0.06606973 -0.03290391 0.16171101
-0.097662091 -0.038638297 0.17999198
-0.099563934 -0.041428301 0.18286693
-0.087988518 -0.041428301 0.18698829
-0.061576501 -0.041428301 0.1896067
-0.058620855 -0.041428301 0.18711302
-0.084518366 -0.036252558 0.18603474
-0.090945043 -0.037419077 0.20673671
-0.092332259 -0.037670869 0.22600307
-0.074180968 -0.034376197 0.22810525
-0.1089531 -0.040687751 0.2319216
-0.091994442 -0.041428301 0.23064345
-0.05692355 -0.041428301 0.2330645
-0.056272462 -0.031155508 0.23474789
-0.11020861 -0.041428301 0.24760002
-0.086747512 -0.036657177 0.25835556
-0.077740721 -0.035022333 0.25499153
-0.10522988 -0.041428301 0.26114085
-0.07340496 -0.034235343 0.26429433
-0.064475067 -0.032614462 0.26028493
-0.069431372 -0.041428301 0.27504033
-0.065891966 -0.032871641 0.27306268
-0.064856902 -0.041428301 0.28173009
-0.091823921 -0.037578601 0.28996393
-0.11035103 -0.041428301 0.29846036
-0.053524815 -0.041100625 0.2934216
-0.091583908 -0.037535034 0.29663831
-0.086391054 -0.036592472 0.29867136
-0.1115192 -0.041428301 0.30579501
-0.10505845 -0.041428301 0.30969217
-0.050424136 -0.035630338 0.30870673
-0.10649627 -0.040241808 0.31107682
-0.1043499 -0.041428305 0.32292956
-0.052276544 -0.040346809 0.32810453
-0.085706115 -0.036468148 0.32138062
-0.071756773 -0.033936176 0.32538745
-0.062411126 -0.032239832 0.33678532
-0.10543096 -0.041428301 0.34899026
-0.089235447 -0.041428301 0.34601742
-0.0505221 -0.034963369 0.34427702
