# .PCD v0.7 - Point Cloud Data file format
VERSION 0.7
FIELDS x y z
SIZE 4 4 4
TYPE F F F
COUNT 1 1 1
WIDTH 802
HEIGHT 1
VIEWPOINT 0 0 0 1 0 0 0
POINTS 802
DATA ascii
0.036703229 -0.015946582 -0.38673645
0.033376154 -0.01284036 -0.37520221
0.013896571 -0.019040149 -0.36494768
0.03291098 -0.013779896 -0.36005178
0.011957485 -0.019827522 -0.35429585
0.033854086 -0.018027145 -0.35558558
0.045755409 -0.016957521 -0.35781926
0.022700621 -0.019690434 -0.34240845
0.040939946 -0.018030718 -0.34617218
0.018661853 -0.01616808 -0.33879504
0.02440552 -0.015842536 -0.33667171
0.01347036 -0.02164026 -0.32187679
0.015863076 -0.017570607 -0.31895769
0.026271466 -0.017205808 -0.31133342
0.033243898 -0.016398229 -0.31567532
0.011375689 -0.02295159 -0.30263913
0.045407914 -0.020705979 -0.29537863
0.05033914 -0.020259257 -0.29636234
0.01263733 -0.019506643 -0.29073086
0.022384338 -0.019084489 -0.28494248
0.033935856 -0.01832643 -0.28240541
0.057181276 -0.017278405 -0.28375411
0.0030063516 -0.024176583 -0.27961588
0.015658118 -0.019917548 -0.27984536
0.010725949 -0.023404233 -0.26187891
0.0323935 -0.023644304 -0.26326072
0.060253147 -0.019275967 -0.26168713
0.048967332 -0.022645062 -0.25814044
0.057090484 -0.022083735 -0.25683197
0.01752609 -0.025984272 -0.24363016
-0.00097163569 -0.028226415 -0.23043314
0.013076125 -0.022511609 -0.2397269
0.045228243 -0.019969162 -0.23992762
-0.00020850892 -0.025322631 -0.22576569
0.0055262297 -0.02585553 -0.22761372
0.014746428 -0.027223146 -0.22651301
0.024743496 -0.0265061 -0.22534272
0.038032196 -0.021665787 -0.22096169
0.0093203634 -0.024427777 -0.21253365
0.018183332 -0.027682735 -0.21426226
0.024142463 -0.025110841 -0.21552293
0.032443039 -0.022639504 -0.21200396
0.067154445 -0.022381665 -0.21160711
-0.0034755073 -0.028974514 -0.20285058
0.033080339 -0.022943811 -0.20605609
0.045019567 -0.025856402 -0.20946793
0.056243554 -0.023192436 -0.20532057
-0.0049216053 -0.028601065 -0.19820911
0.011249133 -0.02528845 -0.19554579
0.020101063 -0.028796244 -0.1930452
0.034919605 -0.027430803 -0.19638772
0.04461097 -0.024930399 -0.19151977
0.052102324 -0.021953739 -0.19754867
0.068472572 -0.022531545 -0.19096637
0.07167007 -0.024625009 -0.19130641
-0.0016317178 -0.031085182 -0.18333685
0.0055610104 -0.026582193 -0.18134734
0.01943972 -0.025533315 -0.18061857
0.024213314 -0.025154263 -0.18067493
0.058714226 -0.022268265 -0.18353912
0.063216045 -0.026002854 -0.18298019
0.0058478368 -0.026646417 -0.17989105
0.0401548 -0.028244905 -0.17581357
0.063881718 -0.022504842 -0.17274517
0.036142573 -0.046585772 -0.16018197
0.045248125 -0.046469107 -0.16055655
0.065422907 -0.046058893 -0.16153984
0.1023531 -0.042037088 -0.16421996
0.01879942 -0.03930752 -0.16335875
0.045316547 -0.033003952 -0.16560408
0.052348167 -0.031916514 -0.1654731
0.065679222 -0.036592614 -0.16537581
0.095302016 -0.034813229 -0.16556987
0.017729089 -0.024209104 -0.16221772
0.034494359 -0.029130371 -0.1684307
0.05472853 -0.027866643 -0.16291465
0.11202492 -0.023688035 -0.16198894
0.085949719 -0.050999627 -0.15159598
0.095844708 -0.051087465 -0.15312004
0.11009151 -0.051654264 -0.15147975
0.033459365 -0.047730085 -0.15880243
0.057468981 -0.049555942 -0.15658659
0.11145658 -0.049204115 -0.15330943
0.039837886 -0.03324227 -0.15638934
0.044853915 -0.033382371 -0.15073237
0.070782237 -0.034106575 -0.15872523
0.087982759 -0.034587 -0.15990186
0.12292932 -0.032622386 -0.15434217
0.017035054 -0.027047139 -0.15839243
0.033003803 -0.025912046 -0.15635054
0.045423057 -0.024987541 -0.15546255
0.056607224 -0.026317697 -0.15239872
0.024621185 -0.016587161 -0.15280876
0.05334064 -0.01702073 -0.15310983
0.083860502 -0.018491507 -0.15628941
0.10718483 -0.018833276 -0.15337881
0.015729558 -0.044090591 -0.14687386
0.039063912 -0.046720266 -0.14533743
0.04463467 -0.046167552 -0.14622892
0.071115464 -0.046547573 -0.14425908
0.082309008 -0.041066788 -0.14100762
0.11280682 -0.042678986 -0.14720827
-0.0015669487 -0.031495664 -0.14771745
0.0023776635 -0.038856097 -0.14804967
0.028727088 -0.032931849 -0.14128259
0.036651049 -0.030503295 -0.14254504
0.046593275 -0.033430953 -0.14392112
0.063311651 -0.033897914 -0.14929965
0.076040097 -0.035640478 -0.14179364
0.082984746 -0.033017125 -0.14312948
0.095181949 -0.03478808 -0.14314315
0.10606284 -0.035091996 -0.14491104
0.11693543 -0.032735527 -0.14484701
-0.0012373112 -0.029259903 -0.14539376
0.01554632 -0.020575501 -0.14669973
0.024575032 -0.026251357 -0.14133033
0.032243066 -0.020316675 -0.14444908
0.062590398 -0.023905223 -0.14252685
0.10685842 -0.023242582 -0.14369324
0.11701329 -0.029944265 -0.14977045
0.079992771 -0.019063536 -0.14790434
0.029114377 -0.031668615 -0.13294414
0.047493115 -0.030160777 -0.13397446
0.023329992 -0.028033027 -0.1335361
0.047769297 -0.025910862 -0.13687088
0.053694867 -0.029501263 -0.13685097
0.067806467 -0.024287321 -0.13765331
0.077126704 -0.02637431 -0.13618815
0.010738929 -0.03341046 -0.12798285
0.050397143 -0.030253919 -0.12857652
0.027365958 -0.027949404 -0.12960936
0.046396449 -0.026812965 -0.12354665
-0.0028628728 -0.03138762 -0.11183748
0.004561448 -0.032613538 -0.1154874
0.013803726 -0.03401199 -0.11384183
0.020956874 -0.02958858 -0.11056809
0.03071793 -0.028296176 -0.11936384
0.048082396 -0.026979726 -0.11852199
0.057241075 -0.026558034 -0.11350277
0.060142055 -0.026284037 -0.11426938
0.080465786 -0.02855457 -0.1173791
0.017850222 -0.03411413 -0.10678404
0.030824162 -0.033153325 -0.10577292
0.060389191 -0.026596086 -0.10870682
0.072975911 -0.025857374 -0.10448141
-0.012683216 -0.034634463 -0.091645144
0.0087240078 -0.035634492 -0.093324706
0.013773332 -0.031012921 -0.096154496
0.022931391 -0.034158781 -0.099324748
0.038321257 -0.029120345 -0.095493309
0.073722146 -0.026644878 -0.090282112
0.070002511 -0.088706791 -0.080846965
0.02945012 -0.040726382 -0.080477722
0.036656417 -0.040124074 -0.082602486
0.077177726 -0.04243587 -0.083841853
0.11145048 -0.044002052 -0.083646581
0.12589973 -0.04191187 -0.084092274
0.13149625 -0.042744838 -0.081369355
0.0080486443 -0.036001235 -0.088062704
0.011391874 -0.035006683 -0.083323188
0.035209939 -0.03485132 -0.082443759
0.074166201 -0.038992614 -0.083501279
0.086557209 -0.03812081 -0.08261317
0.10182097 -0.038108371 -0.084322065
0.11386172 -0.036376059 -0.08394365
0.045454003 -0.029292507 -0.083184838
0.069587268 -0.026590152 -0.081016332
0.06940715 -0.098317958 -0.075978301
0.074694626 -0.092423074 -0.076963879
0.070948668 -0.089256719 -0.079772502
0.021474436 -0.043358784 -0.075277194
0.026450165 -0.036441945 -0.073152937
0.064989746 -0.032075662 -0.078736827
0.077553228 -0.037869319 -0.076099209
0.13947269 -0.037637357 -0.070155159
0.050247818 -0.02118054 -0.075212397
0.062125772 -0.0247554 -0.073241457
0.094278827 -0.02460935 -0.078620858
0.11034844 -0.022290312 -0.070469677
0.12821971 -0.022991866 -0.073631391
0.1350686 -0.024773985 -0.075327843
0.066105723 -0.10421701 -0.066699423
0.075495772 -0.10557823 -0.065312073
0.063743688 -0.092521481 -0.0611642
0.070736229 -0.095743164 -0.066659808
0.083347261 -0.095582291 -0.064796954
0.059425868 -0.052362397 -0.06606406
0.068291351 -0.053964909 -0.069640011
0.10106142 -0.051181734 -0.063207194
0.11376558 -0.052139014 -0.063815549
0.052542079 -0.046831317 -0.061018258
0.10374417 -0.046637725 -0.060178809
0.13163359 -0.047443058 -0.060187373
0.0039041881 -0.033716388 -0.063824013
0.035501249 -0.035273127 -0.064026237
0.044178814 -0.036937065 -0.066479966
0.051759321 -0.0300011 -0.062967829
0.068282045 -0.035229757 -0.063226156
0.079650663 -0.0379279 -0.064311601
0.084643133 -0.038067348 -0.067972429
0.12955952 -0.039321907 -0.068676807
0.13687831 -0.030133788 -0.067440242
0.14427583 -0.034935586 -0.069609404
0.042723648 -0.023771146 -0.06448134
0.078384139 -0.027141139 -0.065852687
0.10469469 -0.02745378 -0.061963432
0.12014346 -0.023650737 -0.066829093
0.057285238 -0.040334713 -0.058852501
0.10323766 -0.040013913 -0.05868905
-0.010415268 -0.035382666 -0.054774553
0.011951188 -0.033342354 -0.059473217
0.030453451 -0.036263049 -0.054081667
0.042506441 -0.037441768 -0.059067018
0.057658855 -0.03023508 -0.051250666
0.093075596 -0.031700198 -0.059718452
0.067399234 -0.029083928 -0.05770357
-0.0028733101 -0.037554659 -0.04239396
0.041072413 -0.031713057 -0.048354678
0.055231322 -0.034680363 -0.04791728
0.065736465 -0.030101448 -0.042825565
-0.038403429 -0.060692064 -0.032027945
-0.0037199892 -0.066502169 -0.03229887
0.0049057826 -0.066604286 -0.032220509
0.027423978 -0.064586744 -0.033768665
0.052320521 -0.064431064 -0.033888124
0.086286142 -0.062502876 -0.035002369
0.10289403 -0.065764636 -0.032864813
0.11205997 -0.067246988 -0.031727336
0.18947449 -0.067045502 -0.031881943
0.19159682 -0.062949508 -0.03481736
-0.060470887 -0.051569685 -0.031965133
-0.0042333412 -0.050036244 -0.039071932
0.0046587884 -0.058020733 -0.036858995
0.026022129 -0.058007888 -0.036864318
0.030392189 -0.05499883 -0.038110748
0.12807262 -0.055786818 -0.037784338
0.13435081 -0.058521859 -0.036651418
0.15757397 -0.059933558 -0.036066651
0.16334476 -0.051706195 -0.038852103
0.19999292 -0.056358546 -0.037547518
0.21347465 -0.05383458 -0.038174316
0.22329064 -0.0555057 -0.037900787
0.24387091 -0.053902049 -0.036752515
-0.082853615 -0.043428905 -0.030933011
-0.040433504 -0.043937661 -0.036935966
-0.03424314 -0.049429771 -0.037083488
-0.019112717 -0.041260939 -0.039617483
0.0098735318 -0.045594361 -0.039656661
0.053477079 -0.048143405 -0.039321106
0.16752322 -0.042381465 -0.039764993
0.18900397 -0.04500746 -0.03973392
0.19155617 -0.047418475 -0.039416529
0.22493125 -0.04833094 -0.039296418
-0.096356317 -0.03174663 -0.030075569
-0.0087712761 -0.033641178 -0.038614374
0.003963206 -0.036887962 -0.037359841
0.010904532 -0.035095222 -0.031443417
0.033293445 -0.032876704 -0.039102022
0.049007952 -0.036026489 -0.038601212
0.054801289 -0.035676613 -0.03888233
0.076829061 -0.035336159 -0.036301214
0.1217888 -0.031745024 -0.037941173
0.18642774 -0.035837986 -0.038903572
0.19717479 -0.038330406 -0.039231688
0.21954972 -0.036020901 -0.038927652
0.24322635 -0.032976486 -0.036914349
-0.042499248 -0.024235938 -0.032950513
-0.016760346 -0.020286595 -0.032019455
-0.0078177135 -0.023629662 -0.034579705
0.06425418 -0.022797678 -0.033946324
0.078526825 -0.023959773 -0.034716442
0.093866475 -0.020481914 -0.032169331
0.14420357 -0.02746129 -0.036166809
0.16866931 -0.025972402 -0.035550095
0.18723676 -0.021578878 -0.033011083
0.23754783 -0.025086276 -0.034830585
0.24077895 -0.024264462 -0.03381623
0.089534178 -0.017681319 -0.0300203
0.10399085 -0.019052219 -0.031072257
-0.034222957 -0.073830947 -0.020238753
-0.0021191081 -0.070202485 -0.029459445
0.057774879 -0.077577092 -0.02070782
0.096491113 -0.073984221 -0.025390085
0.11677375 -0.075959772 -0.022815526
0.14338137 -0.073385559 -0.025993718
0.21379074 -0.072557203 -0.027249796
-0.05036933 -0.067702405 -0.022343129
-0.049267579 -0.06808871 -0.022241086
0.037765406 -0.069688067 -0.029854178
0.26355848 -0.067558177 -0.02220243
-0.083096221 -0.059946079 -0.020528277
0.26776737 -0.059657998 -0.025740424
0.27891433 -0.042848922 -0.024438906
-0.14646429 -0.039872378 -0.020916566
-0.1336153 -0.038259935 -0.023959331
-0.12044299 -0.036796458 -0.02662497
0.055035956 -0.033919543 -0.02971038
-0.1611609 -0.028442346 -0.021998886
-0.15978919 -0.025056597 -0.022350136
-0.1307267 -0.025368201 -0.025527142
-0.088076398 -0.021895047 -0.028249025
-0.1469194 -0.017732047 -0.021706557
-0.1166384 -0.015274359 -0.022352919
-0.097115539 -0.018280927 -0.025830207
-0.076873787 -0.0112144 -0.020524772
-0.057172868 -0.0124029 -0.022870248
-0.028549608 -0.013078813 -0.024908509
0.0079284087 -0.016725905 -0.029287169
0.046852801 -0.01535216 -0.028233029
0.052529443 -0.014161534 -0.02668402
0.16637954 -0.012475887 -0.0244873
0.18769825 -0.011255583 -0.022897009
0.20833841 -0.01327076 -0.025523169
0.2102837 -0.010606143 -0.022050664
0.23570099 -0.012939705 -0.025091741
0.24858174 -0.016091743 -0.025354566
0.25182283 -0.016822221 -0.025327113
0.1664356 -0.080072165 -0.015320672
0.19685186 -0.080769062 -0.013638241
0.21997835 -0.08154317 -0.011769373
-0.039735537 -0.07659556 -0.011150465
-0.02517038 -0.078181759 -0.016379662
0.0019058939 -0.079102501 -0.017661652
0.1287611 -0.078482822 -0.019157682
0.22351341 -0.079651795 -0.016335536
0.26554033 -0.073300041 -0.010063325
-0.10640664 -0.058777601 -0.012701518
-0.14352712 -0.045658156 -0.016861489
-0.17636351 -0.032432992 -0.01847198
0.28989202 -0.037644088 -0.010911481
-0.2239297 -0.023855601 -0.012705891
-0.20311455 -0.024920616 -0.016554099
-0.19463667 -0.022325657 -0.017934732
-0.22354047 -0.011114277 -0.012311138
-0.20955291 -0.017887507 -0.016036596
-0.15934102 -0.014836421 -0.019457262
-0.14374718 -0.01016728 -0.016456066
-0.12404369 -0.010623315 -0.017847102
-0.11822066 -0.01073954 -0.018234026
0.25761449 -0.010020377 -0.012116889
0.2702958 -0.016993446 -0.013601828
-0.19313805 -0.0072454889 -0.010651302
-0.16547754 -0.0088149356 -0.013815008
-0.15402032 -0.0092333797 -0.014823608
-0.14727889 -0.0095304474 -0.015483342
-0.1358189 -0.0099489 -0.016492065
-0.030673441 -0.0080008777 -0.017297974
-0.026458275 -0.0074568111 -0.01607695
0.0064888271 -0.0066100406 -0.014184543
0.066478357 -0.0063163121 -0.013475416
0.078865312 -0.0061627524 -0.013104688
0.085074052 -0.005853116 -0.012357158
0.10224779 -0.0065386705 -0.014012241
0.18834731 -0.006313873 -0.013408385
0.19540131 -0.0061760563 -0.013136807
0.23308386 -0.0076126503 -0.016605068
0.2271554 -0.1063835 -0.0025764101
0.23314902 -0.10245337 -0.0025764101
-0.0040299436 -0.082288384 -0.0091924928
0.048388086 -0.083017871 -0.0036511999
0.056953225 -0.082457177 -0.0079103298
0.13619578 -0.082853235 -0.004901743
0.14510712 -0.082882747 -0.0046776198
0.18727705 -0.082771398 -0.0055234022
-0.051269133 -0.075382337 -0.0017426499
-0.074669041 -0.068417229 -0.00916823
-0.13305897 -0.055093147 -0.0014558026
-0.17286727 -0.045221448 -0.0012907394
0.29201028 -0.043756545 -0.0094871363
-0.22522828 -0.031257808 -0.0040765642
-0.24563736 -0.025235239 -0.0038833069
-0.13241071 -0.010442723 -0.0068577901
0.26501593 -0.010706035 -0.001207321
-0.28165931 -0.0050917687 -0.0046340432
-0.27306303 -0.0061054807 -0.0038428747
-0.2624751 -0.0059823943 -0.0068577901
-0.24416666 -0.004800329 -0.0044168308
-0.23982637 -0.0040849205 -0.002985874
-0.22774631 -0.00769947 -0.0054400992
-0.2179518 -0.0053488575 -0.0070751477
-0.20593691 -0.0080763008 -0.0057637058
-0.19574407 -0.0059530856 -0.0068577901
-0.17533775 -0.0053179557 -0.0045719258
-0.16500632 -0.0052308985 -1.9787299e-07
-0.14823377 -0.0092704417 -1.9787302e-07
-0.077180184 -0.0043935101 -0.0056150504
-0.050118364 -0.0038558005 -0.0015305789
-0.033768222 -0.0046894336 -0.0078631137
-0.02531304 -0.0044643097 -0.0061530476
0.21411611 -0.0045329044 -0.0066741351
0.22837125 -0.0047256178 -0.0081380317
0.24735001 -0.00712045 -0.0099757761
-0.22414333 0.0029995202 -0.0068577901
-0.19122103 0.0024117278 -0.0068577901
-0.13992161 0.00323846 -0.00093302305
-0.28175342 0.013491292 -0.0023317852
-0.25095966 0.011335404 -0.0068577901
-0.19741513 0.011086244 -0.0068577901
-0.162479 0.01317488 -0.0049869064
-0.24706933 0.021417882 -0.0068577901
-0.21545917 0.027752057 -0.0068577901
-0.25005966 0.034267347 -0.0068577901
-0.24287942 0.036153872 -0.0068577901
-0.21655691 0.030414155 -0.0068577901
-0.19891031 0.031803809 -0.0068577901
-0.27917156 0.04422399 -0.00020014743
-0.25456169 0.044572532 -0.0068577901
-0.2049457 0.040523611 -0.0049940953
-0.23676738 0.052144401 -0.0068577901
-0.21192291 0.055704746 -0.0068577905
-0.20840123 0.050372064 -0.0031839006
-0.22111341 0.061034478 -0.0068577901
-0.25681677 0.073591895 -0.0068577901
-0.25501332 0.081360631 -0.0068577901
-0.24550718 0.085694194 -0.0068577901
-0.22594438 0.087343141 -0.0068577901
0.22539665 -0.1075691 0.0076349401
0.23266321 -0.10327728 0.0040854523
0.22943911 -0.099084154 0.0034953901
-0.0041363072 -0.082559295 0.007134499
0.072594009 -0.083492123 4.8222053e-05
0.19802654 -0.082756855 0.0056337127
0.22007529 -0.08221139 0.0097773317
0.23384549 -0.082538307 0.0028325403
-0.046257168 -0.07612557 0.0055585373
-0.097003572 -0.062926494 0.0080646751
-0.084098078 -0.06631501 0.0083791604
-0.13130574 -0.055659004 0.00046677911
0.28473514 -0.059275087 0.0089872172
-0.17202859 -0.043492973 0.008789273
-0.15727741 -0.048681356 0.004439265
-0.19491968 -0.039297175 0.0046599889
-0.25473136 -0.022916894 0.0032085262
-0.24496672 -0.010558818 0.0096019357
-0.16139272 -0.010582977 0.0054918765
0.26758286 -0.012939141 0.007227554
-0.25636414 -0.0047976249 0.0047209258
-0.2247524 -0.0077939117 0.00303414
-0.2107248 -0.0083440663 0.002393428
-0.20453577 -0.0025634787 0.0068577901
-0.17289467 -0.0091445856 0.0068577901
-0.16232723 -0.0057516126 0.0037965772
-0.1540575 -0.0051819962 0.0068577901
-0.13215815 -0.0071983701 0.0071888496
-0.11156292 -0.0040442068 0.0029613648
-0.10136247 -0.004369936 0.0054358016
-0.051697552 -0.0043951604 0.0056275381
0.030293804 -0.0046859081 0.0078362916
0.049597152 -0.0039884206 0.0025378068
0.050739445 -0.0040170364 0.0027551865
0.074011713 -0.0038881407 0.0017760255
0.08385703 -0.004531201 0.00666105
0.19422314 -0.0040747793 0.0031938308
0.20033018 -0.0037780902 0.00094002491
0.21258047 -0.0047194185 0.00809085
0.2596916 -0.0083872173 0.0031285004
-0.27352732 0.0060753534 0.0068577901
-0.19251738 0.0076451902 0.0068577901
-0.17439121 0.0066233785 0.0068577901
-0.25286034 0.011462439 0.0068577901
-0.24319535 0.016612396 0.0068577901
-0.22058147 0.018621085 0.0068577901
-0.17829293 0.010255417 0.0068577901
-0.27693981 0.021928705 0.0048525822
-0.26361132 0.020210253 0.0068577901
-0.22217037 0.023768267 0.0068577901
-0.20862579 0.023281457 0.0068577901
-0.19426888 0.020868137 0.0068577901
-0.27160895 0.030340271 0.0068577901
-0.24594204 0.042852588 0.0068577901
-0.25846243 0.052918237 0.0068577901
-0.24151254 0.083119422 0.0068577901
-0.26651591 0.098023124 0.002923179
-0.25183895 0.095045671 0.0068577901
-0.2520602 0.10521843 0.0053548589
0.045728654 -0.081218369 0.012553512
0.063741483 -0.080961898 0.013172673
0.20945832 -0.080049351 0.015375749
-0.042873558 -0.075731851 0.011284016
-0.010000355 -0.078909554 0.018127477
0.18700068 -0.07885357 0.01826263
0.19724631 -0.078122914 0.019996502
0.24436881 -0.077633142 0.016305743
-0.080446489 -0.064074524 0.016059296
-0.078500025 -0.064585261 0.01603684
0.2775211 -0.064292111 0.013125012
0.2863836 -0.051197637 0.014468168
-0.15540086 -0.046276018 0.012001147
-0.14630874 -0.042384461 0.019030102
0.28468096 -0.040623643 0.018531686
-0.19058131 -0.031489171 0.01623505
0.28176573 -0.032009557 0.019695228
-0.21637386 -0.028776698 0.011704626
-0.18271264 -0.02770951 0.018962076
0.28260535 -0.027235366 0.014646949
-0.23460837 -0.015057574 0.01186936
0.24565527 -0.010218045 0.018256094
0.26586282 -0.014532192 0.014114531
-0.15152419 -0.0063864891 0.010748882
-0.081488751 -0.0078611085 0.015507519
-0.070666358 -0.0097967144 0.018928196
-0.052309413 -0.0055042766 0.010795872
-0.045962781 -0.0076410291 0.016093722
-0.014686491 -0.0061284024 0.013021762
0.0023798291 -0.0080616549 0.017689068
0.073484838 -0.0075066243 0.016349098
0.091008402 -0.0050303247 0.010370756
0.1138333 -0.0063344818 0.013519283
0.12363239 -0.0070998147 0.01536697
0.15290046 -0.0049760332 0.010040231
0.18230829 -0.0083013158 0.018267661
0.20828745 -0.0066538393 0.014290283
0.2236366 -0.0064672572 0.013839832
0.24297103 -0.0065184361 0.010595571
0.25417846 -0.0099644195 0.013608234
-0.020845437 -0.072520629 0.026820043
-0.013201815 -0.075112917 0.023919161
0.022745263 -0.0727273 0.027028115
0.064796619 -0.074946724 0.024135742
0.07485912 -0.077765405 0.020462407
0.16331995 -0.070171379 0.029483235
0.25167114 -0.073303863 0.020621723
-0.062603012 -0.065602429 0.020622853
-0.058582027 -0.06244348 0.025626268
-0.10790949 -0.052719843 0.020723986
-0.082117729 -0.057321273 0.02365765
-0.065735452 -0.055683505 0.029020285
-0.0009093401 -0.036995798 0.029631812
-0.13892974 -0.023405479 0.024320612
-0.12818554 -0.026190186 0.025909405
0.26619989 -0.027274132 0.027579674
-0.13507105 -0.016083425 0.02178636
-0.10493134 -0.018107004 0.025228051
-0.032639891 -0.010886753 0.021886423
-0.023666022 -0.013944674 0.026234362
0.12738428 -0.011199154 0.02282347
0.13528723 -0.015570316 0.028400421
0.17397283 -0.014327102 0.026899785
0.20704678 -0.012248591 0.024191087
0.2237433 -0.016439704 0.029067501
0.23917246 -0.011173821 0.021788808
0.2520842 -0.014385512 0.022072511
0.20500465 -0.0090891048 0.020073675
-0.035816185 -0.0622373 0.031490397
-0.026701279 -0.066693395 0.030355759
0.014610313 -0.066709608 0.032139443
0.069466099 -0.06412109 0.034125611
0.077677965 -0.066826105 0.032050055
0.10255174 -0.065194421 0.03330205
0.20695093 -0.062264781 0.035100594
0.22605197 -0.066709459 0.032139562
0.013250433 -0.054077171 0.038492125
0.031001275 -0.051600154 0.038865753
0.043260172 -0.054447435 0.038338751
0.12762672 -0.050697558 0.038984604
0.15727928 -0.051552765 0.038871992
0.16918451 -0.05273363 0.038716495
0.22922379 -0.057919815 0.036900394
0.23534021 -0.056139104 0.037087396
0.2471644 -0.053347871 0.036236849
0.25501597 -0.056370191 0.033209041
-0.054378066 -0.040968694 0.035365853
-0.035036519 -0.042666111 0.037862256
-0.023848653 -0.041707046 0.034440551
-0.015327987 -0.044615395 0.03486599
-0.008533394 -0.040749989 0.030273881
0.012034666 -0.045147307 0.03971545
0.021135353 -0.048107367 0.039325673
0.037966937 -0.044950828 0.039741319
0.046671156 -0.048941962 0.039215777
0.085526496 -0.041051291 0.039589785
0.10451292 -0.044279154 0.039487194
0.14401934 -0.044613257 0.039785773
0.15613122 -0.045252789 0.039701555
-0.068405569 -0.032380462 0.033174831
-0.047318891 -0.03837103 0.036238953
-0.018918552 -0.037391391 0.032299131
-0.0011119433 -0.037995905 0.039187439
0.0091549531 -0.034965411 0.035931814
0.018315407 -0.030200507 0.037301015
0.020752285 -0.038402155 0.03099576
0.031111585 -0.037454389 0.039116129
0.054949749 -0.033190958 0.035000894
0.063202053 -0.035022706 0.031643648
0.074093483 -0.035812497 0.037490264
0.12501465 -0.030296141 0.03734063
0.20905165 -0.0325846 0.03828853
0.21035796 -0.038308907 0.039228655
0.26219022 -0.032096788 0.032028809
0.0035025459 -0.026211223 0.035648614
0.07927943 -0.029496755 0.037009515
0.11602603 -0.026265908 0.035671264
0.12982467 -0.025697231 0.035435714
0.14085692 -0.027988266 0.036384683
0.16196218 -0.028904263 0.036764096
0.17956133 -0.021479109 0.03293423
0.19107983 -0.023124671 0.034196861
0.21277428 -0.0280855 0.036424957
0.22930092 -0.024353197 0.034879003
0.24756396 -0.024191432 0.032243181
0.0042207763 -0.01868549 0.030790687
0.11911747 -0.019770423 0.031623155
0.14590587 -0.018371738 0.030549947
-0.02336257 -0.041115619 0.043724008
-0.0046712589 -0.035350371 0.047731042
0.051977634 -0.031100551 0.044230506
0.061690152 -0.030255755 0.045579512
0.066121347 -0.029715123 0.048799329
0.13366656 -0.040204108 0.05862182
-0.0064886119 -0.039079152 0.055613488
0.0053141396 -0.038406752 0.051309332
0.012702204 -0.03372683 0.052029897
0.021523241 -0.034911998 0.054519404
0.038042165 -0.035358116 0.059244454
0.046914876 -0.033058882 0.056005046
0.057476379 -0.030297106 0.050450474
0.063365355 -0.033012867 0.05481673
0.10906856 -0.03686491 0.058735594
0.068432592 -0.028929548 0.058928922
0.06885241 -0.10553594 0.066266373
0.063520193 -0.096261948 0.064033449
0.10064037 -0.054302208 0.067539066
0.027061705 -0.045760285 0.066259228
0.0021588269 -0.035728488 0.066391751
0.01040623 -0.033279564 0.062567078
0.040304907 -0.030526457 0.069279037
0.050057054 -0.037101179 0.062672623
0.065879941 -0.035212055 0.06349425
0.1155777 -0.038931381 0.065645799
0.1234716 -0.039151866 0.060653031
0.14325814 -0.032680236 0.067656592
0.079863101 -0.024036419 0.064461179
0.094384529 -0.027818646 0.061575156
0.14149439 -0.022225669 0.060737379
0.072885491 -0.094503172 0.074969016
0.071594536 -0.088292971 0.073164977
0.073717251 -0.078125902 0.071262285
0.038651425 -0.05057098 0.076598488
0.073324084 -0.054348186 0.071841881
0.083780132 -0.051469404 0.078924917
0.095454745 -0.054972291 0.071807176
0.10863888 -0.05518499 0.070187293
0.12976019 -0.055415571 0.07480976
0.13434738 -0.041471485 0.072028086
-0.013928623 -0.037827641 0.074800462
-0.0099162292 -0.038054399 0.077335253
0.011638771 -0.033853911 0.073149547
0.027364429 -0.036467429 0.073110409
0.041068718 -0.030139036 0.074771196
0.054580219 -0.033127297 0.074837103
0.074609756 -0.034423769 0.077172264
0.092485636 -0.038286395 0.079504475
0.1426791 -0.035915811 0.07468681
0.039304495 -0.025252614 0.079228275
0.042590898 -0.021126263 0.070137694
0.093696959 -0.024704825 0.078733638
0.10258792 -0.023940958 0.077541269
0.12907974 -0.022647649 0.071463548
0.14307559 -0.028132973 0.072140321
0.077677123 -0.085127696 0.081645995
0.1183413 -0.040454309 0.084219232
0.0032451092 -0.036482677 0.086327679
0.025667649 -0.030617962 0.087073877
0.054135397 -0.03217477 0.082714796
0.066983789 -0.035088744 0.084113076
0.074876435 -0.035956945 0.084979199
0.10097124 -0.038523406 0.081979558
0.14252113 -0.017615886 0.086568385
-0.01574499 -0.036902174 0.09137848
0.0030623758 -0.032168213 0.090913884
0.058522779 -0.031652212 0.094382308
0.069748983 -0.030860567 0.092840627
0.035701104 -0.029061459 0.09994144
0.04673532 -0.028670622 0.09192761
0.058079153 -0.027615927 0.094644338
0.0029122806 -0.035396937 0.10498572
0.031152144 -0.033245809 0.10378774
0.04828719 -0.031877294 0.10412265
0.05501394 -0.031032842 0.10940907
0.054516084 -0.027495317 0.10137361
0.073853791 -0.027755372 0.10549946
0.055304687 -0.030379787 0.11998327
0.066758096 -0.025678143 0.11569854
-0.011998603 -0.035159476 0.12865901
0.043044426 -0.0308672 0.12799555
0.011818375 -0.029384229 0.12606551
0.027425762 -0.028091092 0.12715276
0.040233403 -0.027445732 0.12106769
0.0089203473 -0.032974213 0.13770455
0.09866789 -0.033870742 0.13992451
0.019087045 -0.028504502 0.13122801
0.027711596 -0.027562734 0.13564102
0.048874699 -0.025966793 0.13447231
0.06534975 -0.024905451 0.13052416
0.0074378229 -0.041558165 0.14739098
0.066394843 -0.042958483 0.14193355
0.071272239 -0.047904707 0.14562507
-0.0041493829 -0.033489093 0.14917514
0.014763749 -0.032368138 0.14400353
0.039594237 -0.038252942 0.14048737
0.090336941 -0.034652755 0.14341953
0.12157641 -0.034067024 0.14769381
-0.0037552589 -0.02936168 0.1470122
0.04594139 -0.02768844 0.14348306
0.051526062 -0.024417503 0.14203845
0.067401215 -0.022223599 0.14739987
0.074497104 -0.026382526 0.14458594
0.11386907 -0.025445729 0.14356788
0.04649584 -0.018266799 0.14764455
0.061347842 -0.047654904 0.15981328
0.096226655 -0.049174625 0.1592624
0.11635588 -0.047112972 0.15826537
0.037837595 -0.033186395 0.15729588
0.058135204 -0.033753328 0.15297158
0.092941359 -0.034725502 0.15247732
0.0057989731 -0.026772624 0.15394872
0.025403081 -0.026471872 0.1569943
0.07476034 -0.026201362 0.15239798
0.11698727 -0.027123142 0.15637994
0.12108979 -0.02393911 0.15616791
0.018359378 -0.018345248 0.15626399
0.021568762 -0.017427992 0.15539917
0.054842439 -0.017311899 0.15457681
0.08974272 -0.01803939 0.15312114
0.096007995 -0.042838085 0.16401255
-0.010383512 -0.032854814 0.16519596
0.0015482052 -0.032099269 0.16212101
0.015411317 -0.032028984 0.16340625
0.06621673 -0.038510516 0.16513374
0.081291169 -0.034400098 0.16558048
0.095641077 -0.034800906 0.16465694
0.10067883 -0.033361167 0.16539668
0.11242966 -0.035128698 0.16542065
-0.0052668434 -0.028705858 0.16416116
0.0094847213 -0.025525872 0.16052158
0.015153604 -0.026686929 0.16692136
0.036536109 -0.025897777 0.16563468
0.056873411 -0.023611389 0.16343245
0.069387116 -0.026551165 0.16562982
0.072613321 -0.026076851 0.16932642
0.087569043 -0.023944404 0.16254759
0.12301093 -0.022812186 0.16012287
0.019000687 -0.030121835 0.17225501
0.0090118917 -0.026421282 0.17949113
0.01681786 -0.026016619 0.17597121
0.032318696 -0.028877955 0.17553936
0.041866925 -0.024214705 0.17312676
0.06612689 -0.024404276 0.17193362
0.0098561756 -0.026004134 0.18537596
0.026570849 -0.024692476 0.18531018
0.033572488 -0.024380786 0.18129373
0.070107989 -0.025207 0.18723138
-0.0037752462 -0.030272035 0.19591475
0.0062787533 -0.025869479 0.19235879
0.022269975 -0.026413592 0.19613567
0.035758264 -0.027368754 0.19632128
0.043779466 -0.026675304 0.19736439
0.00013474468 -0.025779717 0.20198092
0.024026437 -0.02753469 0.20902997
0.031594664 -0.027038625 0.20735924
0.041674595 -0.026101001 0.20978087
0.055693895 -0.023225119 0.20549779
0.026910847 -0.023159977 0.21057631
0.048488624 -0.020905897 0.21990347
0.053851649 -0.024751913 0.21633734
0.064271122 -0.020197008 0.21095595
0.017695107 -0.022803646 0.22872725
0.026804421 -0.02442199 0.22356632
0.036405146 -0.021401931 0.22753783
0.053833444 -0.020336628 0.22239724
0.065793984 -0.02186075 0.22223873
0.0071843648 -0.027509026 0.23170352
0.019865427 -0.025813539 0.24340755
0.057172421 -0.018361475 0.25113088
0.026130307 -0.020104719 0.26287484
0.035250943 -0.019349597 0.26350003
0.050460856 -0.017985869 0.26629668
0.0315613 -0.022997657 0.27521038
0.045705717 -0.021815669 0.27636477
0.050502345 -0.021522796 0.27494472
0.022098698 -0.019773731 0.27375492
0.013766295 -0.023373524 0.29240516
0.020241775 -0.022466229 0.29907751
0.040608529 -0.020848891 0.29931861
0.052573226 -0.020341057 0.29203933
0.056736525 -0.019553827 0.29975057
0.04494356 -0.020347662 0.30200428
0.046656936 -0.019887889 0.30745655
0.05383743 -0.019559503 0.30348423
0.026041055 -0.017165765 0.31230941
0.035995349 -0.01596294 0.31934562
0.045604493 -0.015267118 0.31833047
0.0096135587 -0.018986514 0.32486784
0.038086381 -0.018239293 0.32375571
0.051275015 -0.014981436 0.3268587
0.014440315 -0.016808888 0.33361951
0.017826162 -0.01996471 0.3442409
0.027772371 -0.01433936 0.35744882
0.032228928 -0.018268313 0.35368606
0.026188346 -0.01400196 0.36520213
0.04849517 -0.016128723 0.36810744
0.033929463 -0.012720011 0.37649104
