# .PCD v0.7 - Point Cloud Data file format
VERSION 0.7
FIELDS x y z
SIZE 4 4 4
TYPE F F F
COUNT 1 1 1
WIDTH 824
HEIGHT 1
VIEWPOINT 0 0 0 1 0 0 0
POINTS 824
DATA ascii
-0.092450723 -0.0039841165 -0.33166853
-0.099222094 0.012378711 -0.33653468
-0.076174334 -0.025719376 -0.32432052
-0.089108162 -0.012218652 -0.32988054
-0.086859971 -0.032249056 -0.31370711
-0.072263904 -0.030690623 -0.31097141
-0.074809223 -0.033275772 -0.30054647
-0.068673745 -0.030610165 -0.30906695
-0.068320967 -0.035636768 -0.29032189
-0.049800768 -0.031600434 -0.29529482
-0.073217832 -0.034375764 -0.287606
-0.058605198 -0.032759465 -0.28831294
-0.047454726 -0.037036151 -0.288735
-0.034490917 -0.03570798 -0.28495392
-0.072924778 -0.036445092 -0.27797323
-0.045064874 -0.037347168 -0.26738375
-0.024437025 -0.038373388 -0.26787117
-0.024695668 -0.040552303 -0.25627142
-0.045954168 -0.036336422 -0.25681871
-0.039322492 -0.035644356 -0.25757629
-0.01587972 -0.037747651 -0.25339532
-0.062095389 -0.039813094 -0.2478191
-0.051096909 -0.040187277 -0.23470908
-0.024212871 -0.043749299 -0.23597626
-0.039716296 -0.051417343 -0.2269094
-0.041835152 -0.04040144 -0.22704469
-0.026710961 -0.044192933 -0.22866584
-0.046624549 -0.042931698 -0.21411341
-0.035278186 -0.044848401 -0.2140308
-0.015003681 -0.046205048 -0.21734667
0.0068183895 -0.046266776 -0.20595077
0.011071151 -0.045222938 -0.20895565
-0.019877397 -0.048163705 -0.19090569
-0.0044944454 -0.04712721 -0.19642518
0.022563925 -0.044840805 -0.19143501
0.0015379592 -0.050848626 -0.18129347
0.0076688211 -0.043581821 -0.18256757
0.022527438 -0.044897072 -0.18112019
-0.025634255 -0.048744496 -0.17943531
0.01543444 -0.04443055 -0.17458227
0.024388492 -0.049170062 -0.17942122
0.020288778 -0.051957309 -0.16691251
0.035500191 -0.047248874 -0.16273196
-0.036967441 -0.057230249 -0.15521847
-0.010297165 -0.04818878 -0.1558657
0.030655082 -0.046760198 -0.15650897
-0.0096818833 -0.050436769 -0.14031103
0.012329953 -0.055140674 -0.14370637
-0.0052907765 -0.054870225 -0.13019384
0.048049703 -0.049936168 -0.13109575
0.094806083 -0.091831811 -0.12697084
0.1122501 -0.096918687 -0.12547801
0.12116156 -0.095074564 -0.12645809
0.096013866 -0.074045584 -0.12353007
0.10848395 -0.073559999 -0.12359838
0.11236228 -0.077932969 -0.12639122
-0.014987186 -0.055152129 -0.12273566
0.014639573 -0.05404631 -0.12414271
0.046183504 -0.056697853 -0.12473779
0.051402863 -0.055298671 -0.12954175
0.063875847 -0.053671129 -0.12192508
-0.32963994 -0.010944346 -0.12191738
0.092654079 -0.10238183 -0.11102957
0.046863142 -0.091859773 -0.11206134
0.072843127 -0.094374716 -0.11665224
0.046816628 -0.080457881 -0.11092086
0.074925333 -0.0767373 -0.11511101
0.083852589 -0.078914747 -0.11971472
0.094192237 -0.07282684 -0.11726176
0.033940382 -0.06068239 -0.11034299
0.086643651 -0.068685219 -0.11092114
-0.014089795 -0.055178192 -0.11359604
-0.0080679599 -0.054784972 -0.1108465
0.033921558 -0.059379317 -0.11910348
0.040350161 -0.050069358 -0.11310134
-0.32488936 -0.011417395 -0.1133884
0.081697911 -0.10308175 -0.10740614
0.093997791 -0.10543114 -0.10324435
0.10661174 -0.10638191 -0.10501699
0.12342722 -0.10498378 -0.10768769
0.073175795 -0.097129382 -0.10285326
0.121525 -0.093261719 -0.10795683
0.097785197 -0.086985111 -0.10372588
-0.023704056 -0.060490642 -0.10657313
-0.0091056963 -0.065612309 -0.1060598
0.018323986 -0.060698718 -0.10067082
0.021494467 -0.061724864 -0.10528243
0.041288618 -0.066348307 -0.10548013
0.073350675 -0.068697572 -0.10518254
0.084028333 -0.068705775 -0.10518821
0.11742271 -0.066424496 -0.10487206
0.00029888609 -0.055145171 -0.10055595
0.068029575 -0.057604402 -0.10430533
-0.32908326 -0.013186648 -0.10885639
0.11600962 -0.10314167 -0.096380532
0.093800433 -0.095114738 -0.092415117
0.11441776 -0.096502542 -0.090191826
0.12301274 -0.090164714 -0.092536926
0.070959762 -0.085098401 -0.096742764
0.086114876 -0.075857311 -0.09809231
0.097468488 -0.075987861 -0.092758507
0.11304241 -0.070450604 -0.095550224
0.12698878 -0.078565925 -0.094093427
-0.011530521 -0.060337558 -0.095128328
0.011635184 -0.06056435 -0.097310156
0.049515121 -0.06309019 -0.090245076
0.054349419 -0.061082207 -0.095395818
0.098218881 -0.06907104 -0.097410247
0.11937663 -0.068414941 -0.098535083
-0.011579286 -0.05808337 -0.094083659
-0.0048694713 -0.059872411 -0.098659791
-0.31135052 -0.014115088 -0.095321357
0.015683739 -0.09357442 -0.081554405
0.11360139 -0.093398228 -0.0889301
0.10313055 -0.086913012 -0.087716937
-0.014931895 -0.064713739 -0.085631579
-0.0015800544 -0.062878743 -0.08141952
0.008811852 -0.063228115 -0.080546372
0.0107751 -0.068122961 -0.089783847
0.03856355 -0.064438388 -0.084701613
-0.011233413 -0.059602652 -0.08460696
-0.0024346821 -0.058423422 -0.083317041
0.041167952 -0.052409586 -0.081557974
0.059846848 -0.051812969 -0.081447057
0.0685516 -0.051935364 -0.088162929
0.079397343 -0.059669077 -0.084124357
0.082253784 -0.05660791 -0.085730813
-0.30998281 -0.013637969 -0.085656978
-0.28886861 -0.014443884 -0.081799835
0.0066205487 -0.11472236 -0.079594001
0.010079777 -0.10500579 -0.072086498
0.003615269 -0.099154145 -0.076120161
0.016744792 -0.078823537 -0.078510724
-0.0041866265 -0.064142995 -0.073718935
0.010694641 -0.058404662 -0.070711657
0.091511138 -0.058401719 -0.07616438
-0.31986147 -0.015275567 -0.074699655
-0.28351554 -0.017390685 -0.074920274
0.016868653 -0.11249923 -0.060780592
0.007711445 -0.10528459 -0.066692904
0.011510756 -0.094956174 -0.064570956
-0.0051828111 -0.064624198 -0.06138628
0.012189653 -0.066496417 -0.067847081
0.063827679 -0.065704226 -0.06729237
0.050719243 -0.053432796 -0.063148677
0.096348524 -0.056286681 -0.066168547
-0.30715907 -0.015715117 -0.063071728
0.0045692795 -0.11501226 -0.056095801
0.0075656818 -0.10113811 -0.056831699
0.015516348 -0.098028049 -0.058948915
0.026447646 -0.067861974 -0.055391837
0.078467362 -0.065673947 -0.055884421
-0.30541906 -0.016791826 -0.050908562
0.034515344 -0.070228204 -0.042441051
-0.0093014594 -0.069619298 -0.041059975
0.073986232 -0.068951622 -0.044788077
0.10324159 -0.063924439 -0.044159286
0.028577605 -0.059014812 -0.049685992
0.045233071 -0.057211958 -0.04448764
-0.27645439 -0.020938246 -0.048109535
-0.30884886 -0.019945381 -0.043868776
-0.015612978 -0.075256154 -0.035525359
0.04061142 -0.072998837 -0.036240041
0.056207716 -0.071211286 -0.038464367
0.070106067 -0.070785053 -0.039664123
0.085578673 -0.073953025 -0.0362515
0.093494341 -0.071392417 -0.0362515
-0.062029425 -0.060841657 -0.031974565
-0.01373975 -0.067641556 -0.038753498
-0.0028914697 -0.069238648 -0.036223695
0.0079288827 -0.066858418 -0.036405299
0.013342685 -0.06509959 -0.036945287
0.07583563 -0.065427765 -0.036328398
0.080218635 -0.062651061 -0.0362515
0.10531038 -0.064871073 -0.038302884
0.14087108 -0.06409774 -0.030335793
0.24369742 -0.060008056 -0.030930504
-0.1523059 -0.052450508 -0.031787459
-0.079466268 -0.056575619 -0.033235665
-0.041974496 -0.053678356 -0.034565736
-0.025913194 -0.055362437 -0.03486843
-0.0013996869 -0.053898558 -0.033795305
0.084347807 -0.056888469 -0.0362515
0.094878212 -0.056865253 -0.034720439
0.10432675 -0.05217674 -0.03420306
0.12235272 -0.053410605 -0.033982303
0.1455975 -0.053090744 -0.034083121
0.16828288 -0.056727365 -0.032896787
0.1861048 -0.056695819 -0.032583177
0.1965048 -0.05488468 -0.033662748
0.20309925 -0.058063075 -0.032287873
0.23847052 -0.053453255 -0.033930872
-0.17437869 -0.044052467 -0.031870127
-0.16563417 -0.046198815 -0.032274302
-0.12173754 -0.043444615 -0.035475805
-0.11707329 -0.04185449 -0.035928313
-0.10837226 -0.046413898 -0.03529226
-0.091350004 -0.047222115 -0.035130616
-0.080027573 -0.044906922 -0.035593674
-0.050537337 -0.041784957 -0.035993773
-0.0064504705 -0.044998989 -0.035575222
0.044352233 -0.048593629 -0.034856357
0.16860013 -0.043400839 -0.035953667
0.17353596 -0.043922003 -0.035849698
0.23411393 -0.048082124 -0.035019796
0.26883212 -0.044812191 -0.034193546
-0.17671724 -0.032266185 -0.031232603
-0.15372427 -0.03578442 -0.033098575
-0.1461 -0.038308736 -0.033885196
-0.092636809 -0.034974083 -0.034631632
-0.082821667 -0.03928927 -0.035494726
-0.015374939 -0.037771374 -0.035191119
0.045562182 -0.036063381 -0.034849647
0.079440504 -0.032667205 -0.034210745
0.083524406 -0.036854446 -0.035059907
0.10627472 -0.035430562 -0.034810189
0.13237883 -0.031200584 -0.033964418
0.1536034 -0.034342583 -0.03459283
0.18469276 -0.033252217 -0.034374572
0.22766156 -0.032523979 -0.03422891
0.2657896 -0.038102645 -0.033713222
-0.16560903 -0.027980993 -0.031090876
-0.13230301 -0.029163266 -0.03267999
-0.075368315 -0.02709521 -0.032552361
-0.030792192 -0.023574071 -0.030194283
-0.018043609 -0.02618785 -0.031944711
-0.0017018244 -0.025786024 -0.031675607
0.028944202 -0.02717188 -0.0326037
0.15008217 -0.027099624 -0.032680877
0.16914809 -0.023561971 -0.030325977
0.20492274 -0.026809568 -0.032479838
-0.26595759 -0.018010465 -0.03910625
-0.019959321 -0.082725234 -0.024772812
0.02758597 -0.082453854 -0.027970254
0.043756615 -0.082326353 -0.028323289
0.08343339 -0.082595587 -0.027597096
0.10344316 -0.083207183 -0.022838073
-0.078496635 -0.070799544 -0.021805516
-0.06331338 -0.072072931 -0.023805454
-0.052688386 -0.076749906 -0.023116697
-0.043632537 -0.077505797 -0.026303481
0.11115599 -0.071616888 -0.020158559
0.16634715 -0.07087069 -0.021633901
-0.13262191 -0.065667234 -0.025508946
-0.090879589 -0.066906802 -0.026295718
-0.025243614 -0.068030857 -0.025512014
-0.015719516 -0.065641508 -0.027065014
0.074955054 -0.06701123 -0.025856204
0.11752895 -0.06367515 -0.028404148
0.15635532 -0.063869543 -0.02825764
0.20466676 -0.064778797 -0.027790494
0.24832943 -0.062610738 -0.029143428
0.26706487 -0.068362847 -0.024257284
0.27226439 -0.061397135 -0.028479422
0.28258383 -0.066784129 -0.023892138
-0.18281755 -0.05419419 -0.027470462
0.30829576 -0.049965173 -0.025929471
-0.22723547 -0.034366902 -0.026809148
-0.3148216 -0.020815888 -0.02171519
-0.29523772 -0.022323724 -0.0270236
-0.24622189 -0.022408253 -0.022640347
-0.21392126 -0.023126526 -0.025906738
-0.093146309 -0.021765195 -0.028982891
0.16737625 -0.023060227 -0.029991984
0.1936283 -0.021769047 -0.029132489
-0.31195253 -0.019982405 -0.024347194
-0.11034594 -0.014425272 -0.022630826
-0.021938749 -0.014108977 -0.022158546
-0.00031855237 -0.014458894 -0.02268103
0.013378095 -0.01659262 -0.025518861
0.058292259 -0.016919961 -0.025738079
0.065658599 -0.019593358 -0.02753016
0.13596165 -0.013948038 -0.022198418
0.19806185 -0.016421814 -0.025572982
0.042625774 -0.084007412 -0.011307599
0.073750257 -0.083889909 -0.013524894
0.10536465 -0.083442882 -0.014244469
0.12228265 -0.081932358 -0.01679204
-0.129475 -0.074626669 -0.013803726
-0.030775441 -0.074645132 -0.016106179
-0.0046180189 -0.075573601 -0.014874753
0.067588434 -0.077064469 -0.010652147
0.11579359 -0.074251533 -0.016310766
0.13604884 -0.076374404 -0.019647395
0.14257282 -0.074339345 -0.016210102
0.16120543 -0.074177906 -0.016690141
0.17508091 -0.076223135 -0.013689118
0.24131483 -0.074231759 -0.016716354
0.25738284 -0.07492958 -0.015392721
0.2643685 -0.072393768 -0.018508343
0.28756756 -0.071962565 -0.017064806
-0.20733297 -0.060372617 -0.016208092
-0.14970699 -0.069684744 -0.017924782
0.31630149 -0.065852448 -0.016866017
0.32082886 -0.064112462 -0.016806811
0.33430713 -0.065482229 -0.01030144
-0.2401399 -0.055669151 -0.010059616
-0.22041339 -0.053867482 -0.019997396
0.32978356 -0.059592113 -0.016403629
0.34026182 -0.055384323 -0.011204255
-0.27540243 -0.041035235 -0.014349319
-0.24123836 -0.047116656 -0.019670568
-0.27134532 -0.036808953 -0.018369216
-0.31413931 -0.021052057 -0.019392937
-0.30216193 -0.021794662 -0.012580995
-0.28502381 -0.023097269 -0.018120218
-0.29173553 -0.019738361 -0.016161002
-0.28523937 -0.018846681 -0.014177657
-0.27161652 -0.017350804 -0.016053818
-0.25147188 -0.017055061 -0.018830709
-0.24406613 -0.011565272 -0.014250716
-0.21235752 -0.010048665 -0.013779588
-0.18550967 -0.011486616 -0.016784657
-0.14149004 -0.010749958 -0.016262645
-0.087457448 -0.010905519 -0.017375244
-0.021186026 -0.011804175 -0.01871709
0.12460184 -0.01024152 -0.016647073
0.24139604 -0.012229569 -0.01920234
-0.19455378 -0.0078265257 -0.011023205
-0.18893576 -0.007825138 -0.010817521
-0.036315389 -0.0077786054 -0.01145522
-0.024072986 -0.0085711833 -0.013889687
-0.01420371 -0.0091678193 -0.014780565
-0.0056774728 -0.0094751753 -0.015239498
0.043880213 -0.0093895197 -0.015111749
0.065400496 -0.0086282352 -0.013975296
0.080965966 -0.0093169995 -0.015133252
0.19904184 -0.0098688379 -0.016088806
0.21736985 -0.0078608692 -0.012627018
0.22865476 -0.0094628865 -0.015480792
0.25195235 -0.0092796981 -0.013562983
-0.047368526 -0.081218161 -0.0061652563
0.0014765349 -0.084373064 -0.0019716676
0.02397084 -0.084273852 -0.0045420933
0.034148641 -0.084339991 -0.0024973124
0.081994534 -0.084242448 -0.0049028341
0.24985409 -0.089634448 -0.00040058128
-0.068592712 -0.078144372 -0.0015609721
-0.033156708 -0.078769997 -0.0019397255
-0.025459472 -0.077284947 -0.009567583
0.12455399 -0.078718029 -0.0024700572
0.16991489 -0.078922451 -0.0015788726
0.29488996 -0.075812176 -0.0074358573
-0.3308025 -0.030561041 -0.0045592915
-0.32168716 -0.032160535 -0.0065121586
-0.31634843 -0.03462065 -0.0043720459
-0.34268796 -0.02666666 -0.0021166853
0.29137 -0.021452365 -0.0092720985
-0.31441379 -0.015461925 -0.0084776096
0.29041976 -0.01617578 -0.0089454381
-0.27462071 -0.0028518853 -0.0024342278
-0.21110924 -0.0075213928 -0.0089394562
-0.15199159 -0.0066345893 -0.0041136388
-0.10718755 -0.0057723024 -0.00142365
-0.065738901 -0.0071278885 -0.0082016196
-0.0018571524 -0.0067805964 -0.0064651463
0.056475721 -0.0070454534 -0.0077894386
0.063892782 -0.0073516117 -0.0093202367
0.074151278 -0.0074449508 -0.0099993562
0.11682405 -0.0069785519 -0.0082041062
0.18513013 -0.0064995615 -0.0058030426
0.21003252 -0.0072813975 -0.0097221984
0.22100081 -0.005790568 -0.0022501827
0.26768127 -0.0094783567 -0.0076793632
-0.30568969 0.0083095916 -0.00019759318
-0.27051318 0.0093981931 -0.0026737191
-0.26001367 0.0024302856 -0.0029218912
-0.30332673 0.017337644 -0.00049542059
-0.29818231 0.019708624 -0.00089416467
-0.27479529 0.012134917 -0.0025273799
-0.23692612 0.018048977 -0.0011017086
-0.26953116 0.020148069 -0.0025343397
-0.30077708 0.039527595 -0.00097549381
-0.28390115 0.030438837 -0.0021254208
-0.29187322 0.046970628 -0.0017698263
-0.26413774 0.043296404 -0.0013078266
-0.30293703 0.060942009 -0.0012357582
-0.30820316 0.084517047 -0.0010966614
-0.32357189 0.096204489 -0.00018154664
-0.30867302 0.099176884 -0.00097945856
-0.29808992 0.095335007 -0.00041147351
-0.32382897 0.11088374 -0.00038337492
0.24829212 -0.11453901 0.0069019757
0.25811571 -0.11151653 0.0070147598
0.25313962 -0.10348706 0.0070147598
-0.024618492 -0.082820676 0.0040699546
0.042242035 -0.084312171 0.0050742705
0.051622398 -0.084332198 0.0043724813
0.094454877 -0.084305033 0.0049745985
0.12603664 -0.08259093 0.00083367585
0.13894556 -0.080193207 0.00049769884
0.24921238 -0.085473269 0.0048011183
-0.15601081 -0.074800313 0.0037209541
-0.11431483 -0.0788121 0.0028861675
-0.063005894 -0.079071388 0.0041215075
-0.0082499962 -0.078758419 0.0036118976
0.19485778 -0.079164371 0.0024595957
0.28486198 -0.07772471 0.0040767137
0.32541078 -0.072033241 0.0043095797
-0.20805067 -0.065714605 0.0031992162
0.34395248 -0.062647752 0.006692661
-0.26318374 -0.051326748 0.0045203036
-0.28625327 -0.044729881 0.0041236393
0.34359229 -0.047985189 0.0029530688
-0.30725551 -0.036782645 0.0083171921
0.32223281 -0.032458927 0.0030632385
0.32052055 -0.02957996 0.0010034542
-0.34265113 -0.014975225 0.0020442125
-0.30642521 -0.011392083 0.0050620106
0.27432421 -0.010839224 0.0084509943
0.28179047 -0.012058715 0.004351683
-0.31628874 -0.0078241192 0.001130803
-0.28659308 -0.009328207 0.00058503769
-0.27342787 -0.0069799693 0.0041017863
-0.26585072 -0.0089789862 0.0093345996
-0.23282911 -0.0031771995 0.0040515289
-0.22224084 -0.0067125959 0.0035912148
-0.21259627 -0.0069589731 0.0079361135
-0.20743856 -0.0070502488 0.0086637102
-0.18960267 -0.006399944 0.0054412149
-0.17958108 -0.0057883849 0.0020827958
-0.15611699 -0.0063945595 0.004758602
-0.14157462 -0.005806799 0.0018498593
-0.12274414 -0.0057431264 0.0026981272
-0.084912404 -0.0044885096 0.0034645367
-0.064650029 -0.0055449349 0.0021632386
-0.044969521 -0.0057587186 0.0024731413
-0.031371679 -0.0066231564 0.0075403731
-0.028040495 -0.0057132784 0.0030025905
-0.0086547565 -0.0066851005 0.0078493031
0.048405789 -0.006490116 0.0068768701
0.098534212 -0.0068779378 0.0095571298
0.14038686 -0.0060233814 0.0052843411
0.22353286 -0.0045915861 0.0056187846
0.24481475 -0.0058327266 0.0017614994
-0.31189954 0.0065216571 0.00036108968
-0.29801258 0.015280938 0.0026602317
-0.25710356 0.027545657 0.0035082479
-0.23675448 0.02565293 0.0018465433
-0.26433989 0.031448923 0.0037354967
-0.32522538 0.047872055 0.00078849168
-0.30184385 0.049731962 0.0028336886
-0.26857653 0.045791525 0.0031741115
-0.32538593 0.063368268 0.00065919716
-0.30755475 0.068268016 0.002724777
-0.33536243 0.078840114 0.0011010305
-0.32599252 0.078969412 0.00014308587
-0.30283457 0.07512854 0.0031707273
-0.33333653 0.091646694 0.0014392564
-0.31876644 0.094043791 0.0022577283
-0.29290149 0.090625361 0.0019549322
-0.31784397 0.10407023 0.0025576805
-0.34216192 0.11008663 0.0010791097
-0.30965024 0.11297853 7.4627169e-05
0.022017246 -0.083785295 0.017981704
0.057942167 -0.083707228 0.019259667
-0.12288799 -0.076426059 0.011836428
-0.11927531 -0.074309468 0.01775529
-0.060239598 -0.077889629 0.016039876
-0.040875815 -0.076621592 0.014813086
-0.0047799498 -0.075520366 0.016682032
0.067808591 -0.073569931 0.019441588
0.070747957 -0.075106896 0.017197896
0.10362172 -0.07575427 0.014388997
0.14709583 -0.074281275 0.018337922
0.15281574 -0.076936871 0.012941075
0.16448745 -0.073254846 0.019878969
0.18909696 -0.077545293 0.01020409
0.23432064 -0.077376962 0.010829868
0.27889454 -0.072567046 0.018946704
0.29304671 -0.073464535 0.015735729
-0.19748327 -0.064211324 0.016063351
-0.18687469 -0.065602794 0.017269237
-0.17373061 -0.066729441 0.019618062
-0.15089116 -0.069861934 0.019300535
0.33310923 -0.053284515 0.017273316
-0.25494969 -0.046270706 0.018573809
0.32384408 -0.040185653 0.014529212
0.33490658 -0.044387169 0.011228699
-0.29621327 -0.036016561 0.013505252
-0.31734237 -0.021235209 0.012764404
-0.28367013 -0.023618206 0.019039011
-0.27661332 -0.023859005 0.019664189
-0.31076229 -0.017655462 0.012372627
-0.24369891 -0.010301059 0.01421977
-0.21592817 -0.011218793 0.017172234
-0.091790691 -0.010707615 0.018922873
0.29540122 -0.017961886 0.011609597
-0.20713092 -0.0082089547 0.013125181
-0.15786827 -0.0079712998 0.012634115
-0.096575975 -0.007679149 0.012806864
0.091014303 -0.0092912186 0.017027456
0.17440063 -0.0077246372 0.013790634
0.20632717 -0.0072846524 0.011590706
0.22977054 -0.0089555504 0.01656412
0.23577604 -0.0089767575 0.01659588
0.25835925 -0.00870803 0.010663637
0.26125401 -0.0090810433 0.010981573
-0.022042759 -0.082257189 0.027120121
0.037693582 -0.083676614 0.02008488
0.052844208 -0.083412267 0.025417786
-0.12757683 -0.070420116 0.022218168
-0.062014289 -0.07263092 0.020953594
-0.041159566 -0.070632175 0.023906384
0.11183435 -0.071706951 0.022182457
0.27236766 -0.071994603 0.020272298
-0.081022434 -0.067936331 0.02744746
0.087354541 -0.066523895 0.028417293
0.12785521 -0.065517515 0.029120117
0.14513031 -0.06640175 0.028564759
0.16219516 -0.067243747 0.027951663
0.17574456 -0.064910762 0.029545253
0.2418879 -0.067253761 0.027934916
0.27261856 -0.068233013 0.025723733
-0.20394789 -0.050853338 0.027617764
-0.16655239 -0.058129206 0.029348105
0.30108926 -0.059810229 0.027085645
0.31107199 -0.053993776 0.025953762
-0.22527146 -0.045438532 0.026347809
-0.31217444 -0.020518012 0.020821605
-0.30997458 -0.020272499 0.02187751
-0.24870074 -0.020258104 0.023961255
-0.2369706 -0.023072276 0.025349529
-0.21119589 -0.028325716 0.029414656
0.10300365 -0.020194491 0.029927492
0.27993405 -0.02310086 0.026472304
-0.30912024 -0.019961182 0.02438941
-0.15946537 -0.019144915 0.027693979
-0.039051544 -0.0126666 0.021847991
0.022389621 -0.019756351 0.029480772
0.038833536 -0.015781986 0.026499825
0.072580926 -0.016150882 0.027106808
0.089385733 -0.016886078 0.027690005
0.10190368 -0.012285734 0.021551955
0.1239971 -0.015493384 0.02635652
0.14748831 -0.011742588 0.020738423
0.15188038 -0.018843312 0.029028047
0.19581714 -0.012333337 0.021623518
0.25247633 -0.013081246 0.021048537
0.059322827 -0.081256211 0.032787841
0.083692215 -0.08185894 0.031649206
-0.036868244 -0.071631193 0.035193149
-0.010380959 -0.07944876 0.034685083
-0.00017903 -0.070428632 0.038285099
0.048750602 -0.072323479 0.038123276
0.07488443 -0.070505217 0.03902531
0.083625659 -0.076183543 0.037174631
-0.053572185 -0.06006334 0.035114579
-0.037208255 -0.061093509 0.036968075
-0.016626675 -0.068573788 0.03835699
-0.0022308186 -0.064944185 0.038112104
0.0070749908 -0.064409643 0.038117375
0.019483073 -0.069930866 0.038112212
0.020620473 -0.062209155 0.039896302
0.038453382 -0.066267505 0.038128003
0.046238817 -0.066190653 0.038130902
0.063845664 -0.068942472 0.038285099
0.073202386 -0.062640429 0.038285099
0.081032224 -0.064798988 0.038233701
0.17540267 -0.063507095 0.030485269
-0.14846635 -0.052235413 0.033895582
-0.12593701 -0.054831587 0.034774017
-0.048220381 -0.056437779 0.035130598
-0.030681644 -0.051090702 0.036692075
0.0045203911 -0.054706294 0.038130902
0.011764158 -0.05610197 0.038130008
0.022561217 -0.052537154 0.038094502
0.032353573 -0.050744358 0.037013754
0.043796811 -0.05259347 0.038128525
0.086321227 -0.055450991 0.037563376
0.12364693 -0.057111941 0.034931965
0.15886164 -0.059001677 0.033585005
0.20941418 -0.05172386 0.036136501
0.23769173 -0.054349855 0.035612643
0.25805339 -0.050656915 0.035695564
0.292198 -0.051543243 0.031405509
-0.15949346 -0.040783532 0.035543811
-0.070794262 -0.046657193 0.037086811
-0.061512515 -0.042956777 0.037826803
-0.009287077 -0.044988766 0.037420385
0.054818317 -0.046245098 0.037094392
0.11251622 -0.044237558 0.037337363
0.15469617 -0.043883409 0.037700597
0.18681036 -0.04618115 0.037242223
0.19328094 -0.040618822 0.037691176
0.24262741 -0.045716114 0.037224483
0.26550522 -0.042985003 0.036563519
0.29403305 -0.041598991 0.030753115
-0.1656284 -0.030389667 0.033411719
-0.15529925 -0.032771848 0.034276333
-0.12924463 -0.038521264 0.036531709
-0.03048379 -0.038280535 0.037136108
0.019342154 -0.030161723 0.035512604
0.11017278 -0.030319707 0.035631381
0.13197786 -0.031226015 0.035812669
0.2356576 -0.032343473 0.03603619
0.27642918 -0.038368408 0.034108523
-0.2839244 -0.022607192 0.030222161
-0.27138063 -0.022444455 0.036567822
-0.16026554 -0.029341193 0.033406727
-0.14533083 -0.025948819 0.032276876
-0.05199331 -0.027132675 0.034420561
-0.035271581 -0.026612975 0.034072526
-0.027588209 -0.028241122 0.03512812
-0.0026696126 -0.023987416 0.032314233
0.0021705867 -0.023236953 0.031811662
0.044783443 -0.029296156 0.035339329
0.092692763 -0.025056817 0.032768622
0.14655505 -0.02260799 0.031534098
0.16497073 -0.023385953 0.032051973
0.18858644 -0.027180884 0.034578163
0.22758482 -0.023937995 0.032419451
0.2326497 -0.025894875 0.033518299
0.26609641 -0.02704148 0.032029547
-0.31065434 -0.019105021 0.033651572
-0.29470849 -0.017885515 0.0385965
0.066680342 -0.070608512 0.044459179
-0.0094356099 -0.065793239 0.047271047
0.011246104 -0.069351532 0.04682881
0.078736395 -0.068048596 0.046953052
0.10928833 -0.062646538 0.047634602
-0.27670938 -0.0210141 0.049136754
-0.3166104 -0.018666454 0.041530073
-0.26154983 -0.018370453 0.044462912
0.014544552 -0.11050878 0.057975605
0.0073640933 -0.0834108 0.059331506
0.010861487 -0.08236967 0.058948286
0.010680204 -0.07776884 0.059541754
-0.0077011175 -0.06356521 0.05910676
0.10049456 -0.062105324 0.056916181
0.029727021 -0.057498742 0.059649389
0.095273212 -0.055304974 0.051005587
-0.28242213 -0.020790886 0.050991915
-0.27844566 -0.020103298 0.056653816
-0.28497472 -0.016497247 0.051212147
-0.27602696 -0.016468717 0.057806149
0.010359132 -0.087563857 0.061211683
0.018735887 -0.07374841 0.068774238
-0.0050609582 -0.063728005 0.065183081
0.041643135 -0.068102017 0.060659919
0.062715486 -0.066666096 0.065755904
0.072858848 -0.065659225 0.062252194
0.023930691 -0.057393074 0.065905668
0.042261839 -0.053999253 0.068735361
0.074198969 -0.052755415 0.06621737
0.091687411 -0.055000253 0.060663141
-0.32310691 -0.017179701 0.062354855
-0.31596673 -0.018040448 0.061296921
-0.30314559 -0.018929124 0.062736288
-0.28121454 -0.019436691 0.062509805
0.0079658991 -0.10619098 0.074949518
0.018828966 -0.10215303 0.077307113
0.010896929 -0.09419401 0.073001362
0.0032224322 -0.072436869 0.079511337
-0.0011185443 -0.062707424 0.078377128
0.0091463169 -0.069193728 0.072534293
0.014405678 -0.065461263 0.078286223
0.023152009 -0.064185455 0.078773394
0.038885035 -0.066509962 0.071152598
0.043795422 -0.065619409 0.078518875
0.086912394 -0.061389901 0.070529498
0.04687066 -0.052933905 0.073309794
-0.32308379 -0.016090272 0.078157634
-0.29355651 -0.018095834 0.075832032
0.0081126066 -0.10763279 0.080737904
0.013549335 -0.10651436 0.080761969
0.0010566874 -0.097760983 0.08397644
0.011882669 -0.092132106 0.082783595
0.0015050858 -0.086894564 0.081853107
0.10052529 -0.088934243 0.089894243
0.11590183 -0.087793447 0.089568295
-0.017182721 -0.060948461 0.083536096
-0.0047694426 -0.062089786 0.087443441
0.016645936 -0.062932529 0.085042581
0.032760747 -0.063926578 0.087094411
0.051685497 -0.064965598 0.082042947
0.003899772 -0.057174519 0.086636677
0.029556982 -0.053014308 0.087386571
0.062956251 -0.051900312 0.081741229
0.083493553 -0.058651336 0.089292839
-0.32477644 -0.015315298 0.086545885
-0.29899871 -0.013755281 0.084155753
-0.28729051 -0.015340714 0.087733395
0.083994925 -0.092624165 0.096197702
0.097785197 -0.095659159 0.096985959
0.10105892 -0.091787145 0.090315387
0.12445839 -0.099837497 0.095355958
0.075873598 -0.087868795 0.094736397
0.086747512 -0.089989699 0.09554331
0.097785197 -0.08979445 0.093093745
0.12548253 -0.087480895 0.090461589
0.085127443 -0.077993289 0.096633881
0.10896938 -0.072682112 0.094907947
0.12706114 -0.074871182 0.098893747
0.13216373 -0.073635675 0.099499822
0.00012423005 -0.060858406 0.095327497
0.011245885 -0.061517168 0.092724241
0.026798774 -0.0626458 0.093073651
0.031037537 -0.063096941 0.092374191
-0.32354167 -0.014650885 0.098335698
0.097234771 -0.10229632 0.10446513
0.10582098 -0.10417564 0.10003624
0.12889738 -0.10285011 0.10837007
0.09778519 -0.094308503 0.10438883
0.061238579 -0.086521834 0.10028633
0.097785197 -0.083253987 0.10022286
0.076960325 -0.074016154 0.10889202
0.097785197 -0.073632501 0.10938363
-0.008167089 -0.060561121 0.10819554
0.016169252 -0.06637916 0.10790814
0.021082548 -0.065335914 0.1077319
0.037940573 -0.061622955 0.10703516
0.098259628 -0.064286798 0.10778165
0.11616702 -0.066648118 0.10505383
-0.0029697558 -0.059793554 0.10121623
0.0094094388 -0.05980394 0.10360425
0.057930592 -0.059440341 0.10211325
0.071427174 -0.055075929 0.10131501
-0.33100975 -0.01354 0.10193995
0.046249133 -0.090267785 0.11530786
0.048928991 -0.085787348 0.11620789
0.053102635 -0.081815138 0.11444037
0.097785197 -0.086139292 0.11941136
0.121525 -0.086523816 0.11331314
0.037823319 -0.073534131 0.11139494
0.073880211 -0.075872228 0.11372211
0.080490597 -0.072166383 0.11811996
0.090375409 -0.074648865 0.11992308
0.12874389 -0.073347136 0.11885788
0.0073578791 -0.066541195 0.11258237
0.015588844 -0.066119269 0.11232084
0.025618868 -0.060454682 0.1119944
0.093582898 -0.068912148 0.11836782
0.0054220622 -0.058074474 0.11435062
0.010098197 -0.05183563 0.11585987
0.066262744 -0.056603834 0.11339613
0.077452458 -0.059017867 0.11291467
-0.32543853 -0.012130906 0.11552391
0.11581598 -0.09343145 0.12893894
0.078980878 -0.086060002 0.12562945
0.081087388 -0.08683002 0.126535
0.097785197 -0.086447448 0.12542485
0.121525 -0.087055296 0.12215692
0.085504681 -0.079675846 0.12252237
0.12906528 -0.07328245 0.12213776
0.10663638 -0.069889158 0.12153819
-0.017592035 -0.055022195 0.12328941
0.0064581423 -0.051055476 0.12676619
0.018483197 -0.057788432 0.1251523
0.044562057 -0.056861944 0.12674734
0.057323445 -0.050991431 0.12026846
0.060467433 -0.0514648 0.12203258
0.04573578 -0.049499985 0.126155
-0.33339769 -0.010966499 0.12616727
0.097225167 -0.086545862 0.13006063
-0.00057720661 -0.050114822 0.13906249
0.026544387 -0.057723802 0.13095389
0.043833118 -0.056129534 0.13163817
0.028349616 -0.048680149 0.13647982
0.037011538 -0.048594836 0.13728246
0.040078513 -0.048661903 0.13853611
-0.014148246 -0.05153355 0.1443502
0.017835319 -0.056030788 0.14088844
0.037887637 -0.054373279 0.14487523
0.048564296 -0.053483192 0.14307959
-0.014343031 -0.053000867 0.15852943
0.016119868 -0.054735791 0.15368965
0.032314278 -0.052919623 0.15616566
-0.017833546 -0.049426559 0.15381913
0.023828115 -0.046232481 0.15950881
0.038110759 -0.047937028 0.1536926
0.042888373 -0.048505444 0.15740539
-0.014205481 -0.051104978 0.16539401
0.029790513 -0.051642321 0.16461927
0.036296904 -0.050876699 0.16472961
-0.022941865 -0.048385441 0.16406626
0.0015111826 -0.045549259 0.16870841
0.031042051 -0.04647208 0.16987604
0.024098873 -0.050160415 0.17613524
-0.033646692 -0.048352912 0.177222
-0.016780548 -0.049644899 0.17921954
-0.0012247665 -0.045490753 0.17069805
0.0038661188 -0.045114651 0.1713523
0.021958319 -0.044920683 0.17954785
-0.037671834 -0.047207948 0.18645181
-0.025129078 -0.045051917 0.18759239
-0.0060040178 -0.043640107 0.18599284
-0.037225313 -0.045999113 0.19407082
-0.028659195 -0.047046658 0.19690613
-0.012112858 -0.042455498 0.19756
-0.03013224 -0.046485804 0.2018133
0.0024917806 -0.04713247 0.20583297
-0.041590951 -0.044326924 0.21792267
-0.030918406 -0.04026508 0.22332403
-0.002664227 -0.040054061 0.22798255
-0.0087816101 -0.039255455 0.22622614
-0.067694008 -0.051296856 0.23116502
-0.04546671 -0.042629041 0.23309065
-0.024342891 -0.046076894 0.23085952
-0.01185886 -0.043082975 0.23655862
-0.043813229 -0.039079558 0.23888485
-0.0324797 -0.039312828 0.23067085
-0.015476773 -0.038128372 0.23575649
-0.061101168 -0.039980136 0.24374637
-0.033812046 -0.041447602 0.25439984
-0.022670366 -0.040800389 0.25556058
-0.018947335 -0.04000622 0.25754544
-0.027913224 -0.035705734 0.25854999
-0.06057084 -0.034962349 0.27707702
-0.047222797 -0.034477495 0.27194729
-0.033431545 -0.039164294 0.2709536
-0.073135003 -0.035899535 0.28666818
-0.029021589 -0.036634371 0.28040057
-0.04906445 -0.031931914 0.29405606
-0.078978062 -0.03358214 0.3076514
-0.064226732 -0.030494291 0.30878064
-0.052420232 -0.034858871 0.30577907
-0.055382706 -0.032762896 0.31185091
-0.058753867 -0.029660745 0.31786737
-0.084366009 -0.027619155 0.32252896
-0.074567422 -0.025392978 0.32370353
-0.090934068 -0.018831495 0.3276054
-0.085743546 -0.014644494 0.32862705
-0.08644931 -0.0063185515 0.3315309
