# .PCD v0.7 - Point Cloud Data file format
VERSION 0.7
FIELDS x y z
SIZE 4 4 4
TYPE F F F
COUNT 1 1 1
WIDTH 860
HEIGHT 1
VIEWPOINT 0 0 0 1 0 0 0
POINTS 860
DATA ascii
0.044811357 -0.041445646 -0.36381596
0.046378616 -0.043960199 -0.35031611
0.042911638 -0.037197199 -0.32881197
0.043765448 -0.043960199 -0.31298473
0.038159974 -0.039533708 -0.31339347
0.044945274 -0.037197199 -0.31854054
0.052332774 -0.042967089 -0.30364436
0.053152792 -0.042659525 -0.29708415
0.035027921 -0.043263216 -0.28833726
0.054092772 -0.040837899 -0.28956431
0.039170939 -0.043960199 -0.2730259
0.050016567 -0.043960199 -0.27875876
0.037832275 -0.037197199 -0.27120262
0.041018039 -0.037197199 -0.27769193
0.035511699 -0.043960199 -0.26841581
0.056728911 -0.037197199 -0.25504088
0.030805836 -0.043960199 -0.24313316
0.057315238 -0.043960199 -0.24056324
0.029503159 -0.039834764 -0.24413958
0.054902077 -0.037197199 -0.24209844
0.029699635 -0.043960199 -0.23333867
0.033963792 -0.043960199 -0.23904309
0.0418979 -0.043960199 -0.23114599
0.031828035 -0.043960199 -0.22355765
0.054808609 -0.043960199 -0.22382148
0.040167261 -0.037197199 -0.22570673
0.053950641 -0.037197195 -0.22357439
0.025998862 -0.043510988 -0.21610543
0.037288949 -0.043960199 -0.21463406
0.059639651 -0.043960199 -0.21276619
0.026882241 -0.037197199 -0.21464601
0.037673593 -0.037197195 -0.21110024
0.041365948 -0.037197199 -0.21764821
0.032146901 -0.037197199 -0.20614341
0.038093358 -0.043960199 -0.19224526
0.032604467 -0.037197199 -0.19121291
0.037288934 -0.043960199 -0.18804477
0.030401271 -0.037197199 -0.18887955
0.068058632 -0.040519163 -0.17783692
0.064024046 -0.037197199 -0.17357665
0.069828361 -0.042309374 -0.16367905
0.023126684 -0.037197199 -0.15941262
0.016667429 -0.04208374 -0.14145464
0.016828723 -0.038262654 -0.14274499
0.028912771 -0.037197195 -0.14319354
0.037698135 -0.043960199 -0.13716078
0.073984377 -0.041926533 -0.13043077
0.054647759 -0.037197199 -0.13950861
0.07060504 -0.037197199 -0.13758494
0.015300023 -0.043769021 -0.12357479
0.034686901 -0.043960199 -0.12288206
0.043849893 -0.043960199 -0.12857479
0.064240143 -0.043960199 -0.12644222
0.016517673 -0.037197199 -0.12612416
0.04796233 -0.037197199 -0.12101697
0.054970194 -0.043960199 -0.11266668
0.061076201 -0.043960199 -0.11948438
0.041278545 -0.037197199 -0.1190081
0.062435281 -0.037197199 -0.11298697
0.013145544 -0.043960199 -0.1013715
0.042857118 -0.043960199 -0.10318006
0.057961963 -0.043960199 -0.10236622
0.063874245 -0.037197202 -0.10360344
0.014748303 -0.043960199 -0.093042634
0.053230789 -0.037197199 -0.093708545
0.065598637 -0.043960199 -0.087369926
0.079425372 -0.043960199 -0.086259648
0.015590454 -0.037197199 -0.081126176
0.067133367 -0.037197199 -0.082255498
0.018468419 -0.043960199 -0.071516261
0.026717225 -0.043960199 -0.071405761
0.040600222 -0.043960199 -0.077098086
0.050130919 -0.043960199 -0.079861313
0.08029893 -0.040445518 -0.079914086
0.044599839 -0.037197199 -0.077170722
0.0068944539 -0.040345587 -0.063271537
0.080022782 -0.043960199 -0.065453745
0.076312974 -0.037197199 -0.067332134
0.031276777 -0.043960199 -0.057668097
0.063691966 -0.043960199 -0.052082274
0.056658357 -0.037197199 -0.054536771
0.07066974 -0.037197199 -0.052143417
0.072868548 -0.09237802 -0.040578999
0.099436715 -0.092655197 -0.040564135
0.10642729 -0.091095559 -0.040578999
-0.12310769 -0.083764948 -0.040578999
-0.067171916 -0.089718953 -0.040578999
-0.054055244 -0.085008085 -0.040578999
-0.0225517 -0.087797873 -0.040578999
-0.011275362 -0.083862841 -0.040578999
0.099107131 -0.083152026 -0.040578999
0.1077876 -0.083147243 -0.040578999
0.12031104 -0.081743732 -0.040578999
0.14826077 -0.085709445 -0.040578999
0.16038431 -0.089111805 -0.040578999
0.18750489 -0.080029435 -0.040578999
0.19673322 -0.087216571 -0.040578999
0.27330801 -0.083993763 -0.040578999
-0.12086738 -0.072981402 -0.040578999
-0.091868296 -0.070800304 -0.040578999
-0.073907316 -0.070460781 -0.040578999
-0.05532153 -0.074969769 -0.040578999
0.0073927343 -0.074982479 -0.040578999
0.033037033 -0.07050053 -0.040578999
0.048770934 -0.075405978 -0.040578999
0.059618399 -0.076372802 -0.040578999
0.11973591 -0.07369791 -0.040578999
0.14620616 -0.078996405 -0.040578999
0.18960992 -0.070322677 -0.040578999
0.20273933 -0.075845823 -0.040578999
0.29082358 -0.072657242 -0.040578999
0.30554688 -0.075648069 -0.040578999
-0.15414509 -0.068726212 -0.040578999
-0.14610967 -0.065482512 -0.040578999
-0.13823916 -0.066063367 -0.040578999
-0.099680148 -0.067226902 -0.040578999
-0.087306261 -0.067575179 -0.040578999
-0.077433556 -0.060550123 -0.040578999
-0.041545335 -0.067851476 -0.040578999
-0.032095712 -0.069050238 -0.040578999
-0.029471107 -0.06102033 -0.040578999
0.01132793 -0.069991238 -0.040578999
0.024111327 -0.066211715 -0.040578999
0.085460983 -0.065036707 -0.040578999
0.098063514 -0.061448433 -0.040578999
0.12025169 -0.060974602 -0.040578999
0.18439367 -0.06933599 -0.040578999
0.21705477 -0.061563376 -0.040578999
0.25487223 -0.068262547 -0.040578999
0.27355218 -0.068278283 -0.040578999
0.3062427 -0.068759277 -0.040578999
0.32383531 -0.06414523 -0.040578999
-0.13049473 -0.052608982 -0.040578999
-0.048369106 -0.058150478 -0.040578999
-0.039822619 -0.058156766 -0.040578999
-0.019940149 -0.053621113 -0.040578999
0.027115129 -0.057326455 -0.040578999
0.063170016 -0.057717808 -0.040578999
0.094541945 -0.05887939 -0.040578999
0.11265185 -0.057713591 -0.040578999
0.17934546 -0.053475998 -0.040578999
0.23480237 -0.053731933 -0.040578999
0.30105504 -0.050733693 -0.040578999
-0.12623277 -0.045263655 -0.040578999
-0.074401587 -0.04121457 -0.040578999
-0.062302124 -0.042205051 -0.040578999
-0.050455827 -0.046064869 -0.040578999
0.010734573 -0.048984259 -0.040578999
0.053471256 -0.042098489 -0.043723606
0.061881363 -0.043009527 -0.040578999
0.080552138 -0.045938578 -0.040578999
0.11518732 -0.044170469 -0.040578999
0.13182122 -0.046224654 -0.040578999
0.18128718 -0.049386546 -0.040578999
0.2172633 -0.048587471 -0.040578999
0.2283307 -0.048108704 -0.040578999
0.23455557 -0.04997823 -0.040578999
0.24444437 -0.042017199 -0.040578999
0.27188057 -0.048134957 -0.040578999
0.28108865 -0.047145799 -0.040578999
0.32054454 -0.040443935 -0.040578999
-0.15644768 -0.035158817 -0.040578999
-0.014136855 -0.034809496 -0.040578999
0.016747611 -0.031637203 -0.040578999
0.033933554 -0.037197195 -0.049264178
0.11473075 -0.034105357 -0.040578999
0.12095866 -0.038249042 -0.040578999
0.17777458 -0.031178495 -0.040578999
0.27882278 -0.038240377 -0.040578999
0.28786802 -0.030102266 -0.040578999
-0.15447178 -0.021887641 -0.040578999
-0.1378877 -0.029963424 -0.040578999
-0.10961241 -0.028691603 -0.040578999
-0.050462805 -0.02557423 -0.040578999
0.0079328502 -0.025459567 -0.040578999
0.045575276 -0.02189162 -0.040578999
0.060468324 -0.027797021 -0.040578999
0.10389022 -0.024362013 -0.040578999
0.16023962 -0.021963587 -0.040578999
0.19661373 -0.024237983 -0.040578999
0.23291889 -0.024971563 -0.040578999
-0.14244853 -0.016023817 -0.040578999
-0.13672958 -0.014882954 -0.040578999
-0.10538271 -0.018367285 -0.040578999
-0.077261642 -0.016123064 -0.040578999
-0.0139946 -0.018463597 -0.040578999
0.0054702889 -0.015380183 -0.040578999
0.095479362 -0.011569817 -0.040578999
0.13585544 -0.013811233 -0.040578999
0.15252762 -0.013128259 -0.040578999
0.21263158 -0.019045414 -0.040578999
0.28634453 -0.013407661 -0.040554844
-0.15223682 -0.008791904 -0.040578999
-0.11988329 -0.0074427729 -0.040578999
-0.10531088 -0.0052943327 -0.040578999
-0.084521815 -0.0019214547 -0.040578999
-0.06790787 -0.005863565 -0.040578999
-0.054461226 -0.0037338773 -0.040578999
-0.010212485 -0.0053224657 -0.040578999
0.00090236589 -0.0054814764 -0.040578999
0.024854649 -0.0048300182 -0.040578999
0.05207796 -0.0064043282 -0.040578999
0.097699404 -0.0073509966 -0.040578999
0.1227641 -0.0074034389 -0.040578999
0.26741564 -0.0033841822 -0.040578999
-0.15747111 0.0043455991 -0.040578999
-0.10184824 0.0032981872 -0.040578999
-0.060688522 0.0078461198 -0.040578999
-0.021169432 0.0048884121 -0.040578999
-0.00020565838 0.00977246 -0.040578999
0.0066946894 0.0032397606 -0.040578999
0.073164955 0.0064056558 -0.040578999
0.096169412 0.00020289933 -0.040578999
0.11611808 0.0045212945 -0.040578999
0.19625214 0.0045187785 -0.040578999
0.21365887 0.0033460988 -0.040578999
0.22490627 0.0081295203 -0.040578999
0.25698927 0.0032071583 -0.040578999
0.05015301 0.011305191 -0.040578999
-0.14115573 -0.092655197 -0.037460022
-0.096565478 -0.092655197 -0.030546889
-0.042969968 -0.092655197 -0.030910432
-0.034917645 -0.092655197 -0.034039453
-0.0028211251 -0.092655197 -0.034332499
0.0033679418 -0.092655197 -0.034939423
0.018022008 -0.092655197 -0.039692286
0.036975987 -0.092655197 -0.039423659
0.057008602 -0.092655197 -0.033645045
0.067760617 -0.092655197 -0.038590871
0.073966846 -0.092655197 -0.032224592
0.099599786 -0.092655197 -0.032085098
0.12516402 -0.092655197 -0.031080922
0.13695051 -0.092655197 -0.034858398
0.14509717 -0.092655197 -0.033590935
0.19979936 -0.092655189 -0.039803814
0.21964554 -0.092655197 -0.037319787
0.2742478 -0.092655197 -0.03330446
0.3194499 -0.072545208 -0.031538084
0.27007356 -0.040578701 -0.035992593
0.31142199 -0.040578701 -0.037332099
0.25600693 -0.030975904 -0.036341008
-0.15825801 -0.029206686 -0.032610003
0.25716111 -0.018666437 -0.035763912
0.26584953 -0.017818825 -0.031419668
0.29038197 -0.015998349 -0.033140711
0.25712454 -0.0036145551 -0.035782188
0.26355872 0.0012132414 -0.037548102
-0.15117896 0.0114977 -0.031576358
-0.14024468 0.0114977 -0.038727392
-0.1256253 0.0114977 -0.035209782
-0.11365807 0.011497701 -0.037722111
-0.084908828 0.011497699 -0.032921776
-0.065716192 0.0114977 -0.034116905
-0.044525791 0.011497699 -0.03595002
-0.039977103 0.0114977 -0.036322549
-0.0025804043 0.0114977 -0.033217452
0.0065243384 0.0114977 -0.033754714
0.018809006 0.0114977 -0.030191824
0.11642117 0.0114977 -0.039619781
0.13414113 0.0114977 -0.034138016
0.18752749 0.0114977 -0.039144672
0.19389173 0.0114977 -0.03903712
0.20775235 0.0114977 -0.03525921
0.24696904 0.010977486 -0.037312467
-0.14259914 -0.092655197 -0.028853416
-0.11250209 -0.092655197 -0.022871032
-0.096629977 -0.092655197 -0.027175181
-0.085897401 -0.092655197 -0.025019892
-0.059699502 -0.092655197 -0.025075359
-0.016729392 -0.092655197 -0.021050878
0.0090829954 -0.092655197 -0.023872733
0.017283667 -0.092655197 -0.02734118
0.022984352 -0.092655197 -0.027943663
0.040566023 -0.092655197 -0.022957116
0.09237989 -0.092655197 -0.025826022
0.14258231 -0.092655197 -0.029692559
0.16899222 -0.092655197 -0.020204566
0.17599337 -0.092655197 -0.022922305
0.23677191 -0.092655197 -0.024557889
0.24959022 -0.092655197 -0.020294454
-0.15825801 -0.088420674 -0.024620377
0.31415799 -0.075940862 -0.023480132
-0.15825801 -0.056160852 -0.02389933
0.3081789 -0.040578701 -0.026841557
0.28116822 -0.033701375 -0.023760285
0.28651872 -0.021546323 -0.021085013
0.27250269 -0.01605404 -0.028093077
0.26937407 -0.0025181042 -0.021899603
0.25802279 0.0047655567 -0.027015651
-0.14398007 0.0114977 -0.022309257
-0.13557377 0.0114977 -0.025160998
-0.1189785 0.011497699 -0.027192198
-0.091673702 0.0114977 -0.026907539
-0.042982422 0.0114977 -0.02148555
-0.015106036 0.0114977 -0.027795248
0.22749488 0.0114977 -0.027961627
-0.29799277 0.0527528 -0.021640634
-0.28846753 0.0527528 -0.021404212
-0.15415686 -0.092655197 -0.013967907
-0.14901015 -0.092655197 -0.018148612
-0.12503232 -0.092655197 -0.013764694
-0.11425396 -0.092655197 -0.015766717
-0.10921788 -0.092655197 -0.010095255
-0.076679192 -0.092655197 -0.013171595
-0.047412694 -0.092655197 -0.016075408
0.053560689 -0.092655197 -0.019762147
0.13678014 -0.092655197 -0.013164019
0.18169595 -0.092655197 -0.015243672
0.20681174 -0.092655197 -0.011394794
0.2216191 -0.092655197 -0.018767815
0.29421547 -0.088737465 -0.014233318
0.30761862 -0.080137029 -0.01359399
-0.15825801 -0.062138155 -0.010217479
-0.15825801 -0.049166877 -0.016011778
0.3040278 -0.040578701 -0.014801813
0.32868901 -0.049558543 -0.019047372
0.3119843 -0.029859841 -0.010252248
-0.1452525 0.0114977 -0.011065149
-0.1166278 0.011497699 -0.016909242
-0.1064472 0.0114977 -0.018360082
-0.042162761 0.0114977 -0.016780205
-0.039720695 0.0114977 -0.019928155
0.037188783 0.0114977 -0.016697031
0.083402537 0.0114977 -0.010581416
0.14418317 0.0114977 -0.017521128
0.1754982 0.011497701 -0.012389912
0.21985923 0.011497701 -0.019308778
0.23738185 0.0114977 -0.014904418
0.027854212 0.034646329 -0.010912892
-0.0040578698 0.049163267 -0.012495903
0.0052568736 0.046146948 -0.014679207
-0.31144464 0.0527528 -0.015601109
-0.27824247 0.0527528 -0.011572031
0.020098973 0.055777006 -0.012205464
0.032711852 0.055219803 -0.010103266
0.0066724373 0.068119295 -0.014443275
0.016682595 0.060456049 -0.012774873
0.020458693 0.063794054 -0.012145508
-0.15825801 -0.092577875 -0.0092623727
-0.091594256 -0.092655197 -0.0045469478
-0.072232813 -0.092655204 -0.0043623187
-0.028216776 -0.092655197 -0.0070085707
-0.015373157 -0.092655197 -0.0064525539
-0.0068283603 -0.092655197 -0.0064211851
0.0025191531 -0.092655197 -0.0025361888
0.015876563 -0.092655197 -0.0042795613
0.090409368 -0.092655197 -0.0091320574
0.10190307 -0.092655197 -0.0081629036
0.11983731 -0.092655197 -0.0066186585
0.12417543 -0.092655197 -0.006919533
0.15979488 -0.092655197 -0.0068840571
0.16412723 -0.092655197 -0.0080567785
0.18606803 -0.092655197 -0.00062716473
0.21254316 -0.092655197 -0.0087321587
0.23997346 -0.092655197 -0.0031830687
0.2885679 -0.092361361 -0.0092529766
0.30734581 -0.080312066 -0.004552044
-0.31934333 -0.073041692 -0.0068786927
-0.28371567 -0.072590522 -0.0057149925
-0.27295771 -0.0730417 -0.0034825741
-0.26396382 -0.0730417 -0.0066522346
-0.15825801 -0.072908878 -0.0042747175
0.31180322 -0.077451855 -0.0031265616
-0.30416432 -0.06660568 -0.00811549
-0.27133653 -0.066126816 -0.00811549
-0.25908586 -0.066805705 -0.0020540834
-0.32868901 -0.050199047 -0.0049955514
-0.2591756 -0.053903628 -0.00811549
-0.28562102 -0.046971604 -0.00811549
-0.26417816 -0.04716929 -0.00811549
-0.25928944 -0.042262167 -0.00811549
-0.24468485 -0.041498818 -0.00811549
-0.15825801 -0.046814628 -0.0069719939
0.31991053 -0.040578701 -0.0091852816
-0.30065691 -0.033769421 -0.00811549
-0.26260078 -0.034506902 -0.00811549
0.3113423 -0.038715523 -0.0086731594
-0.31042844 -0.027401075 -0.00811549
-0.28751206 -0.02430097 -0.00811549
-0.27426457 -0.02517548 -0.00811549
-0.25441036 -0.024224125 -0.00811549
0.30956069 -0.028304677 -0.0090325838
0.31154463 -0.029577719 -0.0086862734
-0.32785934 -0.011190398 -0.0081496304
-0.31917092 -0.01838932 -0.00811549
-0.30450094 -0.01637822 -0.00811549
-0.28248632 -0.017646626 -0.00811549
-0.27032837 -0.012813561 -0.0081496304
-0.26454258 -0.018798461 -0.00811549
-0.25487217 -0.012225242 -0.00811549
-0.15825801 -0.013413286 -0.0063868798
-0.30703065 -0.0029900121 -0.00811549
-0.28546658 -0.0041455743 -0.00811549
-0.25507504 -0.0096727181 -0.00811549
0.27200967 -0.0042092372 -0.0049244021
-0.31581336 0.0030648857 -0.00811549
-0.30869091 0.0054798499 -0.00811549
-0.27087936 0.0028714109 -0.00811549
-0.15129629 0.011497701 -0.0028757937
-0.14513721 0.011497701 -0.0063929334
-0.049797438 0.0114977 -0.0013640523
-0.0040578698 0.018894717 -0.0091886092
0.0017854273 0.0114977 -0.0062139183
0.022478499 0.0114977 -0.0031012632
0.054708045 0.015366824 -0.0064371452
0.069791391 0.013876798 -0.0039231931
0.077161871 0.0114977 -0.0069914237
0.092179328 0.011497701 -0.0015168749
0.1087284 0.0114977 -0.0043217167
0.11148857 0.0114977 -0.0017902418
0.15648749 0.011497701 -0.0015850365
0.16699494 0.0114977 -0.0080968589
0.18450387 0.0114977 -0.0052154902
0.20418248 0.0114977 -0.0016199276
0.21127604 0.011497701 -0.0018502045
0.2356389 0.0114977 -0.0012307595
-0.30714732 0.021572044 -0.00811549
-0.0040578698 0.023274573 -0.0034281486
0.050146833 0.02734416 -0.0071973652
0.073800921 0.026365105 -0.0032549226
-0.32798102 0.030295284 -0.00811549
-0.28674909 0.032583714 -0.00811549
-0.26584411 0.035405211 -0.0073840423
0.038058825 0.036631122 -0.0092120823
-0.3110919 0.053908195 -0.0050947373
-0.29153442 0.0527528 -0.00053139811
-0.27677262 0.056810699 -0.00071932189
0.039787516 0.05611752 -0.0022127021
0.013861414 0.07772252 -0.0082684066
-0.15384942 -0.092655197 0.0079041254
-0.14358702 -0.092655197 0.0055100415
-0.13530347 -0.092655197 0.0063147582
-0.12605578 -0.092655197 0.0089030676
-0.094040036 -0.092655197 0.0097089531
-0.068567663 -0.092655197 0.0082351565
0.022257896 -0.092655197 0.0084448624
0.0627307 -0.092655197 0.0063104704
0.077788025 -0.092655197 0.00023744628
0.080292687 -0.092655197 0.004602775
0.12161499 -0.092655197 0.0067468742
0.13325323 -0.092655197 0.003499452
0.17561799 -0.092655197 0.0091344938
0.19952717 -0.092655197 0.0070253965
0.26600403 -0.092655197 0.00072174519
0.28950262 -0.091761604 0.0051911026
-0.15825801 -0.080524869 0.0033853641
0.32062632 -0.071790315 0.0058595054
-0.29613543 -0.065421589 0.0081160003
-0.15825801 -0.063245751 0.0011617998
0.32868901 -0.061480332 0.0090533802
-0.32754889 -0.052989569 0.0081160003
-0.30048329 -0.05069967 0.0081160003
0.32868901 -0.058141753 0.0026151263
-0.32868904 -0.045654286 0.0042287521
-0.29520866 -0.042906206 0.0081160003
-0.22276621 -0.043224569 0.0022392664
-0.21420315 -0.043197416 0.0018392125
-0.17792588 -0.042708687 0.00270534
-0.15825801 -0.040139519 0.0097286711
0.32868901 -0.048002206 0.0058470792
-0.32619682 -0.032331005 0.0081160003
-0.31333315 -0.036266804 0.0081160003
-0.27034631 -0.037569068 0.0081160003
-0.2036044 -0.0378736 0.001386221
-0.31756291 -0.022218853 0.0081160003
-0.30969131 -0.026737519 0.0081160003
-0.25424063 -0.027571157 0.0081160003
-0.24472862 -0.02530222 0.0030891083
-0.15825799 -0.027105412 0.0060693575
-0.31606817 -0.0170158 0.0081160003
-0.29731008 -0.01132932 0.0081160003
-0.2582373 -0.01607627 0.0081160003
-0.15825801 -0.01228961 0.0093669845
0.28886631 -0.015026029 0.00077868754
-0.31793606 -0.0081065986 0.0081160003
-0.26638958 -0.0027580322 0.0081160003
0.26633886 -0.00057052169 0.0038295747
-0.31955451 0.008298764 0.0081160003
-0.15825802 0.0047618239 0.0092666624
0.25551507 0.0063746497 0.0036711823
-0.32706904 0.017817497 0.0081160003
-0.29616967 0.015795771 0.0081160003
-0.25945041 0.010130269 0.0081160003
-0.10780234 0.011497699 0.0079302024
-0.087597862 0.011497701 0.0085857436
-0.067577325 0.011497699 0.0063835569
-0.0019128933 0.0114977 0.0068172473
0.017287448 0.011497701 0.0011838153
0.022786502 0.0114977 0.0020227851
0.032015145 0.0114977 0.0062375367
0.051849231 0.01778728 0.0069139162
0.062996596 0.0114977 0.00032348419
0.11977658 0.0114977 0.0080900341
0.15393262 0.011497701 0.001287763
0.17383315 0.0114977 0.0085944701
0.18962055 0.011497701 0.00028538797
-0.32868898 0.025109872 0.0028469115
-0.26902065 0.02420024 0.0081160003
-0.0040578698 0.024728213 0.0061967578
0.072047606 0.027856674 0.0030988844
-0.28874931 0.037761059 0.0081160003
0.037216261 0.033990193 0.0093527269
-0.28064594 0.041525021 0.0081160003
-0.26971895 0.046545509 0.0067828838
0.052768931 0.04286702 0.006760634
-0.32346323 0.050332408 0.0081160003
-0.30350947 0.0527528 0.003904243
-0.29284328 0.056810699 0.0029115009
-0.0040578698 0.06225371 0.0063562025
0.029056398 0.065060079 0.0082278959
-0.0040578698 0.070505232 0.0079163611
-0.1442062 -0.092655197 0.018264513
-0.10384873 -0.092655197 0.010829901
-0.070899501 -0.092655197 0.015654856
-0.020200083 -0.092655197 0.017230637
-0.0098220408 -0.092655197 0.011994289
0.0001928471 -0.092655197 0.010103124
0.019060198 -0.092655197 0.016629461
0.029834714 -0.092655197 0.011626975
0.049275063 -0.092655197 0.011432168
0.074233085 -0.092655197 0.017668743
0.12950087 -0.092655197 0.013809752
0.14371802 -0.092655197 0.014615744
0.19496517 -0.092655197 0.010065599
0.20136406 -0.092655197 0.019391706
0.24882716 -0.092655197 0.015988555
0.25703448 -0.092655197 0.014832127
0.27818885 -0.092655197 0.011927377
0.28615731 -0.092655204 0.019911602
0.30206406 -0.083701231 0.018508252
0.32729346 -0.067512184 0.018725067
-0.15825801 -0.059361972 0.011245573
-0.15825801 -0.046062749 0.012428171
0.29856041 -0.021246186 0.017138319
0.28308353 -0.011315038 0.019173298
0.29385766 -0.018228585 0.017499933
0.2681075 -0.0017054398 0.01674794
-0.10008325 0.011497699 0.013644539
-0.094436489 0.0114977 0.012476072
-0.086888246 0.0114977 0.01324439
-0.0075848456 0.0114977 0.016912488
0.027589096 0.01928211 0.010957244
0.058275975 0.0114977 0.017623946
0.098680042 0.0114977 0.011420574
0.17009458 0.011497701 0.017632581
0.19440101 0.011497699 0.013971142
0.20973189 0.011497701 0.015663553
0.22240284 0.0114977 0.016504036
0.24491228 0.011497701 0.016271833
0.032963205 0.028562283 0.010061565
0.0025631292 0.038387671 0.015128208
0.028256709 0.036425464 0.010845975
-0.0037944859 0.046092968 0.016187804
-0.32364261 0.0527528 0.011288136
-0.28506786 0.0527528 0.012984149
-0.27641964 0.05478175 0.01840103
-0.0012182489 0.055596508 0.015758434
-0.0040578698 0.062399529 0.010270488
0.026897097 0.06030589 0.011072575
0.0041864114 0.072908647 0.014857663
-0.15758705 -0.092655204 0.022391543
-0.005549185 -0.092655197 0.027448639
0.023855291 -0.092655197 0.029570971
0.067208588 -0.092655197 0.021022119
0.10434495 -0.092655197 0.029988451
0.19355467 -0.092655197 0.022306208
0.22344659 -0.092655197 0.02634953
0.25354719 -0.092655197 0.025943063
0.29703102 -0.086930811 0.023115106
-0.15825799 -0.071318492 0.022171214
-0.15825801 -0.052003928 0.025706723
0.32868901 -0.058315743 0.020370198
0.3263616 -0.040578701 0.021307709
0.27416465 -0.032244217 0.027262256
0.28325167 -0.028420873 0.022718772
0.28565562 -0.012965608 0.022789054
0.26867992 -0.0020727618 0.027488967
0.26156986 0.0024893156 0.022142215
-0.044088155 0.0114977 0.026516031
-0.02743155 0.0114977 0.023918737
0.07207562 0.0114977 0.029330239
0.085998476 0.0114977 0.020366749
0.090746067 0.0114977 0.020023081
0.13335422 0.011497699 0.020157263
0.17514616 0.011497701 0.020507723
0.20766447 0.011497699 0.023852961
0.21764475 0.0114977 0.025190949
0.22648205 0.011497701 0.029730193
0.23028463 0.0114977 0.023385927
-0.29662901 0.056810699 0.022849616
-0.28101847 0.053778835 0.024347501
-0.12495384 -0.092655197 0.035285711
-0.091219567 -0.092655197 0.03579437
-0.078192443 -0.092655197 0.035387099
-0.035493061 -0.092655197 0.038866889
-0.025126994 -0.092655197 0.032552414
0.07855738 -0.092655197 0.039052695
0.081691489 -0.092655197 0.034991033
0.16006854 -0.092655197 0.03503225
0.19653292 -0.092655197 0.033214636
0.22294538 -0.092655197 0.035379704
-0.15825801 -0.082886569 0.039754789
0.3221322 -0.070824057 0.030235834
0.32413936 -0.069536097 0.030841893
0.32868904 -0.054233842 0.038708732
0.29402226 -0.040578701 0.033014003
0.31255978 -0.040578701 0.03263947
0.32852149 -0.042990256 0.036225375
0.26360714 -0.037893243 0.03254097
0.29444835 -0.018607594 0.033658423
-0.15825802 -0.0013089264 0.035304755
-0.11093543 0.0114977 0.034881279
-0.10146742 0.0114977 0.037164968
-0.08578904 0.0114977 0.033712871
-0.042234115 0.0114977 0.036155038
-0.028129501 0.0114977 0.034541503
0.010337338 0.0114977 0.038859785
0.0508307 0.011497701 0.035172783
0.077448353 0.0114977 0.031468771
0.087155476 0.011497699 0.036386576
0.122302 0.0114977 0.039866284
0.15091972 0.0114977 0.032584071
0.17601387 0.0114977 0.037928369
0.22282028 0.0114977 0.039101917
-0.051704921 -0.09139692 0.040578999
0.012143143 -0.092655197 0.04047367
0.027720943 -0.091216624 0.040578999
0.08925768 -0.090673693 0.040578999
0.093323618 -0.09261445 0.040578999
0.14454208 -0.092564054 0.040555149
0.15400402 -0.092655197 0.040404201
0.24754462 -0.092655197 0.040447623
-0.1195122 -0.083194457 0.040578999
-0.10282441 -0.083368786 0.040578999
-0.052589793 -0.088057764 0.040578999
-0.016018949 -0.083238088 0.040578999
-0.0058487058 -0.086553723 0.040578999
0.059144869 -0.081793532 0.040578999
0.076238863 -0.085513346 0.040578999
0.090895995 -0.088942759 0.040578999
0.12113225 -0.086967885 0.040578999
0.22462986 -0.08074937 0.040578999
0.28296569 -0.081417605 0.040578999
0.30204758 -0.08371181 0.040448233
-0.13212483 -0.07485871 0.040578999
-0.1161513 -0.074877061 0.040578999
-0.10871939 -0.072069257 0.040578999
-0.046254572 -0.075286403 0.040578999
-0.031696007 -0.076228105 0.040578999
-0.027678648 -0.079007871 0.040578999
0.021121278 -0.074560866 0.040578999
0.055913229 -0.073088638 0.040578999
0.11297608 -0.071711652 0.040578999
0.13016523 -0.075679176 0.040578999
0.18502344 -0.073967144 0.040578999
0.19666286 -0.076202363 0.040578999
0.24500695 -0.077710792 0.040578999
0.26250851 -0.074360579 0.040578999
0.30940729 -0.074777223 0.040578999
-0.15183315 -0.063380368 0.040578999
-0.14339185 -0.064607985 0.040578999
-0.1168027 -0.061821245 0.040578999
-0.068325624 -0.068585902 0.040578999
-0.044980094 -0.068122834 0.040578999
-0.034759589 -0.068514794 0.040578999
-0.0022460632 -0.062477857 0.040578999
0.006928362 -0.061591197 0.040578999
0.013687488 -0.062336467 0.040578999
0.051089533 -0.063508473 0.040578999
0.078573972 -0.065979905 0.040578999
0.16617307 -0.062500462 0.040578999
0.22932445 -0.069591582 0.040578999
0.24822514 -0.061291937 0.040578999
0.25265151 -0.062185585 0.040578999
-0.15539145 -0.05142628 0.040578999
-0.10720985 -0.055701382 0.040578999
-0.045618813 -0.059267163 0.040578999
-0.0080787204 -0.055360626 0.040578999
0.048782792 -0.052079782 0.040578999
0.063595347 -0.050219603 0.040578999
0.088320158 -0.05287867 0.040578999
0.098725073 -0.05349759 0.040578999
0.10113098 -0.055243246 0.040578999
0.11323512 -0.057117775 0.040578999
0.13035469 -0.055758175 0.040578999
0.1897455 -0.053861782 0.040578999
0.1951859 -0.053375311 0.040578999
0.20562655 -0.058103971 0.040578999
0.25166541 -0.056092776 0.040578999
0.26190105 -0.058128119 0.040578999
0.32647693 -0.051963616 0.040578999
-0.15702502 -0.042865705 0.040578999
-0.13585114 -0.047385886 0.040578999
-0.10606187 -0.040273055 0.040578999
-0.014882822 -0.047028825 0.040578999
0.0045847432 -0.043003298 0.044794023
0.030664336 -0.045041528 0.040990703
0.17229061 -0.044854671 0.040578999
0.22135341 -0.046831142 0.040578999
0.24376079 -0.047970891 0.040578999
0.25443619 -0.043507189 0.040578999
0.26174176 -0.046352684 0.040578999
0.28095502 -0.04732804 0.040578999
0.29892254 -0.046205819 0.040578999
0.32435176 -0.04407347 0.040578999
-0.15282825 -0.037067693 0.040578999
-0.13702142 -0.038238503 0.040578999
-0.066115782 -0.036981467 0.040578999
-0.0021669015 -0.036144767 0.040578999
0.017036449 -0.037197202 0.042785913
0.050986096 -0.037718706 0.040578999
0.075130664 -0.037206825 0.042914897
0.099619478 -0.033843018 0.040578999
0.10520729 -0.03400797 0.040578999
0.1218355 -0.035391744 0.040578999
0.17729273 -0.030393716 0.040578999
0.19390233 -0.03946013 0.040578999
0.20381279 -0.036472488 0.040578999
0.21223569 -0.038061827 0.040578999
0.24208276 -0.038810156 0.040578999
0.26621526 -0.037702553 0.040578999
0.28842694 -0.030748297 0.040578999
-0.1515106 -0.023137705 0.040578999
-0.10281976 -0.023747876 0.040578999
-0.092554867 -0.020463554 0.040578999
-0.062730499 -0.020577472 0.040578999
-0.038445689 -0.026873449 0.040578999
-0.012163196 -0.022733977 0.040578999
0.016828755 -0.021767322 0.040578999
0.027085755 -0.02367851 0.040578999
0.05604944 -0.021147614 0.040578999
0.077406317 -0.021947633 0.040578999
0.086660057 -0.024690408 0.040578999
0.12747978 -0.024967143 0.040578999
0.13689695 -0.028445879 0.040578999
0.18188664 -0.023649512 0.040578999
0.20075026 -0.025440967 0.040578999
0.27093327 -0.026329491 0.040578999
0.28782836 -0.029024616 0.040578999
-0.11691163 -0.017632989 0.040578999
-0.10781077 -0.019704198 0.040578999
-0.082274862 -0.010476763 0.040578999
-0.074615493 -0.012221362 0.040578999
-0.056434333 -0.014555167 0.040578999
-0.015340468 -0.01406578 0.040578999
0.014205465 -0.011116898 0.040578999
0.075937808 -0.011229473 0.040578999
0.083281361 -0.011997854 0.040578999
0.12925613 -0.018610938 0.040578999
0.17404962 -0.010944593 0.040578999
0.19694155 -0.014389349 0.040578999
0.24894643 -0.01573322 0.040578999
-0.12965994 -0.0062484979 0.040578999
-0.10768914 -0.0014402065 0.040578999
-0.092216276 -0.0072075222 0.040578999
-0.074693374 -0.0045857467 0.040578999
0.0091363005 -0.0079438016 0.040578999
0.10363549 -0.0035995492 0.040578999
0.11525895 -0.0075700232 0.040578999
0.17647195 -0.0040818462 0.040578999
0.27783313 -0.0079859188 0.040578999
-0.15648833 0.0049743061 0.040578999
-0.13536599 0.0018638503 0.040578999
-0.091470391 0.0048716725 0.040578999
-0.07550136 0.00056082546 0.040578999
-0.050441116 0.0093497634 0.040578999
-0.048448972 0.0030749186 0.040578999
-0.023615398 0.0067948494 0.040578999
0.011249337 0.0044296817 0.040578999
0.031970039 0.00088892435 0.040578999
0.19178683 0.0071244678 0.040578999
0.20536143 0.0043357667 0.040578999
0.22174482 0.0088570751 0.040578999
0.2364057 0.0052214088 0.040578999
-0.059422273 0.010218331 0.040578999
0.022664763 0.010414766 0.040578999
0.1390233 0.010073954 0.040578999
0.18790261 0.010495933 0.040578999
0.072568096 -0.043960199 0.055978023
0.023644298 -0.037197199 0.057330392
0.033971325 -0.037197199 0.054830924
0.049512736 -0.037197195 0.052877713
0.054801352 -0.037197199 0.056812748
0.071770474 -0.037197195 0.056597471
0.052608743 -0.043960199 0.068424493
0.022855647 -0.037197199 0.0645492
0.010902004 -0.043960199 0.079774268
0.02108011 -0.043960199 0.07812275
0.046403289 -0.043960199 0.077596709
0.079209588 -0.043960199 0.079796806
0.01894246 -0.037197199 0.07372582
0.042342603 -0.037197199 0.073988408
0.068769544 -0.037197199 0.073086575
0.029769368 -0.043960199 0.083981231
0.069231987 -0.043960199 0.086459294
0.072185993 -0.043960199 0.085738525
0.009510532 -0.039444968 0.084199987
0.024465434 -0.037197202 0.084386922
0.078314029 -0.038102061 0.08570677
0.015709601 -0.043960199 0.092187583
0.026822455 -0.043960199 0.091819674
0.065526895 -0.043960199 0.095774464
0.056705959 -0.037197199 0.09835095
0.075694703 -0.037197199 0.09937045
0.011990761 -0.043194834 0.10404163
0.049755417 -0.043960199 0.1018912
0.065254413 -0.043960199 0.10163748
0.049237259 -0.037197199 0.10951923
0.0640506 -0.037197199 0.10179504
0.016082415 -0.043960199 0.1121379
0.041868836 -0.043960199 0.11174266
0.049898848 -0.037197199 0.11985508
0.050641522 -0.037197199 0.11310995
0.050328027 -0.043960199 0.12984332
0.074559279 -0.041828003 0.1258315
0.057241347 -0.037197199 0.12802331
0.062735289 -0.037197199 0.12858294
0.019602209 -0.037197199 0.1312964
0.03713014 -0.037197199 0.13776544
0.02865102 -0.043960199 0.15068157
0.034555875 -0.043960199 0.15810333
0.04852964 -0.043960199 0.15288161
0.05725918 -0.043960199 0.15590212
0.067047298 -0.043960199 0.16841488
0.039353948 -0.037197199 0.16124848
0.039885268 -0.043960199 0.17846034
0.023570208 -0.037197199 0.17886549
0.024189517 -0.043960199 0.1875069
0.031772029 -0.037197199 0.18430375
0.029513808 -0.043960199 0.19880491
0.023229884 -0.037676722 0.19395381
0.054422952 -0.037197199 0.19537757
0.054353498 -0.037197199 0.20649093
0.027957281 -0.037197199 0.21818799
0.044683084 -0.037197199 0.21022266
0.063961983 -0.037896283 0.21061021
0.028364319 -0.04320699 0.2279323
0.027394531 -0.037197199 0.22469786
0.036927011 -0.037197199 0.22681242
0.028516103 -0.041406196 0.23624319
0.035419956 -0.043960199 0.23898569
0.061264269 -0.04312107 0.23219207
0.045549311 -0.043960199 0.24630243
0.033831015 -0.04380206 0.26398763
0.051986597 -0.043960199 0.26270711
0.047418237 -0.037197199 0.26792181
0.043962277 -0.043960199 0.27418494
0.046210486 -0.037197199 0.27309364
0.036029983 -0.043000225 0.28424883
0.034911226 -0.03874623 0.2874037
0.047854427 -0.037197199 0.28654751
0.053019036 -0.042699482 0.29815423
0.03683082 -0.038839847 0.30276033
0.038880762 -0.042232603 0.31477273
0.042675875 -0.043960199 0.31108171
0.040908251 -0.037538394 0.33290708
0.04264028 -0.042838804 0.34923559
0.042414673 -0.037206497 0.34743077
0.045554776 -0.037197202 0.35215423
0.044791128 -0.042737529 0.36397776
