# .PCD v0.7 - Point Cloud Data file format
VERSION 0.7
FIELDS x y z
SIZE 4 4 4
TYPE F F F
COUNT 1 1 1
WIDTH 899
HEIGHT 1
VIEWPOINT 0 0 0 1 0 0 0
POINTS 899
DATA ascii
-0.16368146 -0.034065235 -0.19415827
-0.18155244 -0.032404058 -0.18258014
-0.17608783 -0.025363343 -0.18394493
-0.22002208 -0.0082633747 -0.18143983
-0.21966955 -0.0091515249 -0.18097506
-0.14784503 -0.039172199 -0.17923206
-0.13049325 -0.038294859 -0.17368859
-0.084502131 -0.032254387 -0.17311484
-0.14037235 -0.026647244 -0.17651075
-0.20086627 -0.035086699 -0.16216587
-0.15557805 -0.039172199 -0.16511472
-0.076893158 -0.031255741 -0.16862044
-0.054835524 -0.032235537 -0.16146781
-0.070151299 -0.029858712 -0.16346639
-0.067503572 -0.028792836 -0.16025889
-0.2316051 -0.010575371 -0.16623354
-0.18047327 -0.0126298 -0.16794407
-0.23419183 -0.0093565853 -0.16419625
-0.19193122 -0.0059222318 -0.16792628
-0.16764215 -0.0055555459 -0.16003393
-0.15925194 -0.0072255791 -0.16141815
-0.17471853 -0.039172199 -0.15167867
-0.15891874 -0.039172199 -0.1566819
-0.11402538 -0.0368632 -0.15079826
-0.058689594 -0.032504443 -0.15495843
-0.23433095 -0.021750463 -0.15852799
-0.12361594 -0.020223645 -0.15694827
-0.26818603 -0.010544418 -0.15081504
-0.14482085 -0.010214791 -0.15873539
-0.13167109 -0.019499781 -0.15763132
-0.17537279 -0.002883103 -0.15616487
-0.13228647 -0.0073681842 -0.15391374
-0.22904722 0.00054548145 -0.15061314
-0.21596785 0.0015408446 -0.15783241
-0.10201512 -0.044737726 -0.14271219
-0.20668963 -0.039172199 -0.14187886
-0.13737434 -0.038666073 -0.14246587
-0.040626585 -0.025521949 -0.14497051
-0.039265074 -0.023746241 -0.14051251
-0.024481907 -0.028905293 -0.14802299
-0.28916079 -0.0036085802 -0.1460246
-0.13315304 -0.0018513249 -0.14154392
-0.12129891 -0.0060939989 -0.1478079
-0.10272673 -0.055530936 -0.13097908
-0.092783347 -0.052955434 -0.139275
-0.078923263 -0.051089931 -0.1337491
-0.074396715 -0.042286232 -0.13173348
-0.23501483 -0.034808971 -0.13493101
-0.18998665 -0.039172199 -0.13313618
-0.1663589 -0.039172199 -0.13509156
-0.14902502 -0.039172199 -0.13287263
-0.10973926 -0.036442317 -0.13616915
-0.066666335 -0.032997951 -0.13017292
-0.040463351 -0.030955791 -0.13605174
-0.0291238 -0.030033085 -0.1316084
-0.2501474 -0.025698379 -0.13872065
-0.015471727 -0.028996505 -0.13958928
-0.0080234855 -0.028376766 -0.13421792
-0.061308723 -0.017719507 -0.13312538
-0.075363688 -0.0045475261 -0.13093048
-0.32171017 0.0083446009 -0.13658287
-0.23750505 0.0056614643 -0.13079859
-0.090983458 -0.056015164 -0.12423712
-0.086894967 -0.055684306 -0.12296452
-0.20826876 -0.039172199 -0.12014212
-0.14737907 -0.039172199 -0.12448726
-0.027913447 -0.020272911 -0.12926947
0.0046416186 -0.02237525 -0.12462554
0.036163829 -0.024582878 -0.12052257
-0.29223573 -0.011642855 -0.12935123
-0.041718286 -0.0098792752 -0.12895381
-0.3146404 0.0092745004 -0.125322
-0.26138359 0.0092745004 -0.12232748
-0.13884979 0.0070924498 -0.12273648
-0.22001357 0.016573885 -0.12461305
-0.10193761 -0.056815296 -0.11213779
-0.098204598 -0.056521453 -0.11244392
-0.10416394 -0.04943971 -0.11742748
-0.11452442 -0.036677528 -0.11033554
-0.036937032 -0.035208821 -0.11674618
-0.2820065 -0.02251411 -0.11847327
-0.017841876 -0.029025763 -0.11116501
-0.30709103 -0.015361888 -0.110728
-0.29981965 -0.014767201 -0.11768086
-0.00062681007 -0.015788784 -0.11108637
-0.24096242 0.0092744995 -0.110797
-0.20235015 0.0092745004 -0.11103795
-0.11976108 0.0069287973 -0.11756765
-0.1999097 0.016276127 -0.11945625
-0.12560093 0.010311952 -0.11152305
-0.03039749 -0.051104642 -0.10400094
-0.019891813 -0.050263561 -0.10383754
-0.25502428 -0.039172199 -0.1059006
-0.12412354 -0.037397977 -0.10318346
-0.11438384 -0.036634006 -0.10451592
-0.39517838 -0.027786948 -0.10286929
-0.29127452 -0.026336676 -0.10420362
-0.28882512 -0.027082851 -0.10487563
0.019553367 -0.026046501 -0.10792527
0.053046532 -0.023385487 -0.10634585
-0.024615105 -0.010572649 -0.10928747
0.00083557575 -0.014433843 -0.10756174
0.018088322 -0.013775756 -0.101046
-0.2780365 0.0092745004 -0.10597228
-0.1815832 0.0092745004 -0.10264327
-0.067153789 0.0035883854 -0.10993324
-0.079801083 -0.054961033 -0.093923196
-0.40416989 -0.044659093 -0.097198702
-0.10626587 -0.042095013 -0.095836893
-0.0092784744 -0.049383793 -0.095293045
-0.39751524 -0.034784362 -0.09425652
-0.24181034 -0.039172199 -0.093089022
-0.16650376 -0.039172199 -0.09917403
-0.11317395 -0.036461465 -0.090731829
-0.38756886 -0.020390188 -0.093750447
-0.3407014 -0.010236595 -0.092484102
0.046014953 -0.013369758 -0.092007361
-0.33322471 -0.00079392898 -0.09384615
-0.40921465 0.0098653752 -0.09372136
-0.15964261 0.0092745004 -0.095444702
-0.13615248 0.0092745004 -0.092282563
-0.4150387 0.013761008 -0.093539074
-0.40874797 0.015656505 -0.097301573
-0.1155726 0.017309984 -0.090932041
-0.40157682 -0.043721296 -0.082811996
0.0041984022 -0.048283581 -0.089365199
-0.22381327 -0.039172199 -0.08416827
-0.19542235 -0.039172199 -0.086258247
-0.11370997 -0.03648074 -0.086566515
-0.10959046 -0.03614106 -0.084154963
-0.38044375 -0.020637454 -0.08951363
-0.36990505 -0.02413 -0.081507534
0.065172091 -0.011600795 -0.082397021
0.097745985 -0.019745721 -0.088374108
0.10015658 -0.01950822 -0.080011234
-0.32580534 -0.0060081356 -0.083602458
0.053068716 -0.0099907815 -0.082228258
-0.44053298 0.0059580891 -0.08483389
-0.4253034 0.0094943931 -0.084173456
-0.29830772 0.0092745004 -0.083063744
-0.20217168 0.0092745004 -0.08452449
-0.17451225 0.0092745004 -0.080226451
-0.1605574 0.0092745004 -0.085118435
-0.13278066 0.0092745004 -0.082594469
-0.12893322 0.0092745004 -0.082506955
-0.40339231 0.015052142 -0.089128397
-0.071570657 -0.053248219 -0.075451873
-0.05765827 -0.05311837 -0.077901952
-0.04375422 -0.052023325 -0.078992784
-0.027945543 -0.050312839 -0.07238628
-0.41790321 -0.048337672 -0.074916698
-0.10789066 -0.04330283 -0.071346894
-0.089335874 -0.048158526 -0.076700397
-0.060128786 -0.045033202 -0.074648008
-0.031763796 -0.045836844 -0.072654694
-0.028106526 -0.047063868 -0.072397672
0.011979224 -0.04756368 -0.07073579
0.025139771 -0.046553865 -0.076547891
-0.21447927 -0.039172202 -0.0795516
0.057075046 -0.030103635 -0.079458468
-0.38639164 -0.024157915 -0.077796899
-0.3730171 -0.026278064 -0.076855265
-0.35471237 -0.014913458 -0.076996602
0.10065428 -0.019413687 -0.070121154
0.12948082 -0.016082786 -0.073976591
-0.40133837 -0.0052744225 -0.072197691
-0.33902964 -0.005226464 -0.076040171
0.034719754 -0.0043215556 -0.074586146
-0.33711392 0.002515685 -0.071984559
-0.31586707 0.0092555759 -0.078399092
-0.24072137 0.0092745004 -0.078407317
-0.11044925 0.0092745004 -0.075791046
-0.096421659 0.0092745004 -0.073510073
-0.089729354 0.0092745004 -0.076338306
-0.034789972 0.0057920679 -0.071632586
-0.013796772 0.0024043992 -0.073286869
-0.36119872 0.016131554 -0.074253842
-0.34220958 0.019661648 -0.071492046
-0.036422729 0.013774711 -0.077703789
-0.36438537 0.024997309 -0.072726294
-0.33762801 0.020450354 -0.071736336
-0.38649571 0.035423353 -0.075568587
-0.37128726 0.034379564 -0.072808444
-0.34769648 0.035880964 -0.070989035
-0.4125523 -0.051482774 -0.062423013
-0.42048705 -0.046881549 -0.066767707
-0.08151342 -0.043590698 -0.065130949
-0.4166941 -0.034332845 -0.063511975
-0.29671109 -0.039172199 -0.068138443
-0.24383157 -0.039172199 -0.061460391
-0.22995497 -0.039172199 -0.068255991
-0.032041665 -0.039667636 -0.064154372
0.096796237 -0.033668023 -0.062941067
-0.43467218 -0.022392148 -0.065138683
-0.35032058 -0.021976918 -0.063957997
0.10137367 -0.02875817 -0.061915718
-0.40127009 -0.018690698 -0.060761221
0.099289156 -0.019519571 -0.069723532
0.12382217 -0.012126431 -0.066568077
0.13146068 -0.012502445 -0.06521029
0.14144297 -0.016142484 -0.062714361
0.041306607 -0.0026648538 -0.068882994
0.096096314 -0.0067866808 -0.062402617
-0.27867463 0.0092745004 -0.069251686
-0.23307258 0.0092745004 -0.067118302
-0.20405129 0.0092745004 -0.061426759
-0.13692826 0.0092745004 -0.064504527
-0.092073902 0.0092745004 -0.069481909
-0.070733279 0.0092745004 -0.060150117
-0.42091051 0.017164497 -0.064057514
-0.41374192 0.021514039 -0.06194447
-0.38960081 0.036451411 -0.061036084
-0.094636612 -0.054782722 -0.058732718
-0.40771505 -0.047781218 -0.058029067
-0.1090503 -0.040130481 -0.058437344
0.066644937 -0.043160602 -0.057412799
0.079315811 -0.042124432 -0.051524684
-0.41690055 -0.033654246 -0.057571918
-0.3850134 -0.034936309 -0.050822064
-0.31138873 -0.039172199 -0.059143122
-0.11774111 -0.036618561 -0.053963825
0.10017849 -0.035086382 -0.057754524
-0.421186 -0.023740476 -0.056211308
-0.36532342 -0.022405602 -0.057534456
-0.42737818 -0.012168473 -0.055195771
-0.40706936 -0.016840357 -0.053879756
-0.41034383 -0.0089633362 -0.055869136
-0.41819 0.0015491005 -0.053445496
-0.29208326 0.0092745004 -0.052522827
-0.27990502 0.0092745004 -0.05341728
-0.26237184 0.0092745004 -0.057267718
-0.23167482 0.0092745004 -0.050155759
-0.20756188 0.0092745004 -0.055146638
-0.10490371 0.0092745004 -0.058242954
0.15117364 0.0024299524 -0.05397163
-0.31161231 0.010313853 -0.058998771
-0.091990918 -0.044325359 -0.048046213
-0.08751063 -0.043958426 -0.045858167
-0.069316059 -0.042511925 -0.044845849
-0.040905107 -0.04028286 -0.04857105
0.046395004 -0.044708792 -0.047470462
0.057799332 -0.043792821 -0.045163929
0.06272544 -0.043407813 -0.046074174
0.092866629 -0.041018352 -0.04559467
-0.38338834 -0.034148626 -0.046092607
-0.35330293 -0.031541102 -0.044660196
-0.33179912 -0.039172199 -0.040764716
-0.31229395 -0.039172199 -0.047640443
-0.30669922 -0.039172199 -0.045875937
-0.27700716 -0.039172199 -0.043976679
-0.26680249 -0.039172199 -0.040891774
-0.10993086 -0.037394434 -0.049003799
0.18353042 -0.012729308 -0.048286997
-0.42109025 0.0075011845 -0.045377888
-0.27135843 0.0092745004 -0.048733115
-0.23740585 0.0092745004 -0.046633206
-0.19263807 0.0092745004 -0.043702301
-0.067757294 0.0092745004 -0.041257452
0.022635587 0.0092745004 -0.042161342
0.048540294 0.0062101423 -0.046477631
0.087999657 0.0022469908 -0.044086013
-0.41087645 0.022539107 -0.045808006
-0.35166892 0.049868498 -0.046470989
-0.36456397 0.051219504 -0.044593647
-0.2334488 -0.055539899 -0.035778455
-0.21962881 -0.055539899 -0.031339362
-0.060932763 -0.041807614 -0.037575487
-0.32170111 -0.039172195 -0.035232499
-0.31602815 -0.039172199 -0.035460122
-0.21030131 -0.039172199 -0.032740291
-0.19841522 -0.039172199 -0.039007708
-0.18709433 -0.039172199 -0.033074573
-0.024290148 -0.038884439 -0.033703722
-0.0065689622 -0.037484162 -0.034254227
0.0072681219 -0.036398329 -0.0360476
0.15114044 -0.032450855 -0.030177247
0.154406 -0.027185079 -0.03914709
0.19680886 -0.011604957 -0.035211749
0.15001056 -0.00073406426 -0.032899112
-0.38863736 0.0037585993 -0.031051625
-0.26567006 0.0092745004 -0.036765162
-0.22552967 0.0092745004 -0.030792266
-0.20117308 0.0092745004 -0.039986741
-0.17299597 0.0092745004 -0.034763385
-0.1613742 0.0092745004 -0.031952772
-0.1175964 0.0092745004 -0.037995689
-0.10979318 0.0092745004 -0.031666175
-0.088571556 0.0092745014 -0.035572954
-0.068970531 0.0092745004 -0.032843828
0.015294602 0.0092745004 -0.039166629
0.051494084 0.0092745004 -0.030299088
0.06009008 0.0087077823 -0.03740913
0.1557596 0.0004934211 -0.036137879
-0.40777332 0.010587059 -0.037903391
-0.35882714 0.054250311 -0.033256475
-0.11149921 -0.042484228 -0.020921208
0.028974431 -0.045938954 -0.020626023
0.07961072 -0.041958094 -0.025851455
-0.35120586 -0.03142963 -0.025340745
-0.19119585 -0.039172199 -0.021215912
-0.16596054 -0.039172199 -0.0255013
-0.34804896 -0.029367834 -0.027546648
-0.33567399 -0.014958081 -0.028968358
-0.32824349 -0.017215595 -0.024605814
0.2055061 -0.014803461 -0.021999517
0.21557695 -0.010085097 -0.029169511
-0.36484978 -8.2841143e-05 -0.026774576
-0.35346237 -0.0022111437 -0.027630821
-0.34794891 -0.0020981082 -0.028045392
-0.31630313 -0.0099961795 -0.020540975
0.16667099 -0.00083332683 -0.028288137
-0.22999412 0.0092745004 -0.027797107
-0.11103896 0.0092745004 -0.020833993
-0.099904254 0.0092745004 -0.028538853
-0.07338348 0.0092745004 -0.027145375
-0.020820934 0.0092745004 -0.028961394
0.12220364 0.0072775111 -0.022644052
0.13559957 0.0036792392 -0.026986724
-0.39235702 0.017649595 -0.028045461
-0.35216022 0.011180054 -0.027728748
-0.31029943 0.010047283 -0.021317011
-0.27297711 0.01016734 -0.028235476
-0.25773486 0.016167475 -0.025189869
-0.35185128 0.02272903 -0.027751997
-0.30130956 0.020618699 -0.020268582
-0.37250555 0.044059813 -0.026198968
-0.35297909 0.054046057 -0.029225122
-0.21282618 -0.055539899 -0.016029065
-0.20861363 -0.055539899 -0.017659402
-0.10669759 -0.056679286 -0.019952817
-0.23107103 -0.040200286 -0.015560584
-0.22197935 -0.046991795 -0.011185086
-0.025251543 -0.044149674 -0.015200369
0.033191718 -0.045559101 -0.012365503
-0.32795826 -0.039172199 -0.016597088
-0.22034143 -0.039172199 -0.010134383
-0.16493075 -0.039172199 -0.014579743
-0.15605345 -0.039172199 -0.017781384
-0.12813303 -0.037224624 -0.01497829
0.16579379 -0.033468608 -0.018507417
0.18636748 -0.03014469 -0.012135051
-0.33535185 -0.022294467 -0.010286488
0.18176366 -0.029093459 -0.017342404
0.19603872 -0.02511113 -0.016451616
0.20445471 -0.022437003 -0.016613796
-0.32215503 -0.014032132 -0.01186501
0.22723685 -0.010205392 -0.011693414
-0.31914896 0.0031492799 -0.014181459
-0.20075983 0.0095138177 -0.013805485
-0.15809523 0.0092745004 -0.010710648
-0.12075418 0.0092745004 -0.018150743
-0.047060896 0.0092745004 -0.018172543
-0.012390997 0.0092745004 -0.010451516
0.02732808 0.0092745004 -0.017896561
0.21820588 0.0098301563 -0.012735996
0.22326204 0.0051977169 -0.01159903
-0.21128814 0.017193608 -0.015909184
0.018001702 0.012533899 -0.014297155
-0.21836832 -0.043843992 -0.0094472179
-0.061868083 -0.047008846 -0.0079408409
-0.044152923 -0.045579456 -0.0031689471
-0.37716678 -0.039172199 -0.0056383354
-0.36631113 -0.033283085 -0.0037844845
-0.35207379 -0.035753407 -0.0074870083
-0.32487792 -0.039172199 -0.0084352437
0.16244176 -0.035273679 -0.0033730851
-0.36931589 -0.027522026 -0.0029085211
-0.33825761 -0.024481392 -0.002058713
0.19527823 -0.029225411 -0.0082789026
0.21529567 -0.023682781 -0.0069420366
0.2200042 -0.022614766 -0.0061310064
-0.33032736 -0.019526701 -0.0027865218
0.24151228 -0.018230403 -0.0013850275
-0.31906995 0.0021946195 -0.0085599888
-0.14136179 0.0092745004 -0.0027846135
-0.096015878 0.0092745004 -0.0013699085
-0.077533811 0.0092745004 -0.0090094684
-0.050315771 0.0092745004 -0.0032399374
-0.036446933 0.0092745004 -0.0019269006
-0.014910493 0.0092745014 -0.0020801295
0.053127166 0.0092745004 -0.0013430463
0.072784305 0.0092745004 -0.0062445439
0.12425549 0.0092745004 -0.0016481467
0.14146967 0.0092745004 -0.0039395224
0.21662423 0.0072434694 -0.0012437701
0.22269851 0.0028897719 -0.0052845385
-0.14833891 0.010813193 -0.0033310801
-0.13744365 0.013455831 -0.0011540577
0.058592692 0.0133317 -0.0052878312
-0.2479682 0.020618699 -0.0043543559
-0.18808338 0.026429601 -0.0030653542
-0.066949017 -0.047360055 0.0012631144
-0.04560354 -0.045656983 0.0035426109
0.039462678 -0.044952586 0.0073756129
-0.19287477 -0.039172199 0.0012428015
-0.18099737 -0.039172199 0.0077728862
0.0031917056 -0.036506288 0.0025496986
0.12794334 -0.037985079 0.00031852722
-0.36053365 -0.026538655 0.0071432791
0.22424249 -0.028866971 0.0097950362
0.25183067 -0.015869254 0.00034882873
0.27223647 -0.013695795 0.0090356059
0.29619449 -0.0034985295 0.0072048325
-0.085321829 0.0092745004 0.0089818547
-0.04453145 0.0092745004 0.008634422
0.018594895 0.0092745004 0.0093156565
0.070725873 0.0092745004 0.00496792
0.13722758 0.0092745004 0.0079983175
0.21903333 0.0066130944 0.0039546182
-0.30591473 0.019392904 0.0081521552
-0.100585 0.01643819 0.0057191192
-0.34476465 0.027549997 0.0094279181
-0.19936958 0.020618699 0.0073953923
-0.17424361 0.026905278 0.0047834846
-0.15459721 0.025422791 0.0040507638
-0.34478122 0.030575372 0.0094291624
-0.34677044 0.040147986 0.0095787095
0.078604206 -0.041791592 0.018416964
-0.25765571 -0.039172199 0.016513743
-0.22923335 -0.039172199 0.017388657
-0.1377781 -0.03784398 0.01099213
0.10729358 -0.039529651 0.016615314
0.12373877 -0.038240522 0.014230373
0.17809054 -0.033929911 0.015431647
0.18972418 -0.032991819 0.0184513
0.22400993 -0.030307237 0.012933079
-0.36465082 -0.020543858 0.013026951
0.24631184 -0.02492811 0.015844287
-0.36803705 -0.0004391307 0.01117791
0.31166682 -0.0022427824 0.012684485
-0.05767516 0.0092745004 0.014085877
-0.031422179 0.0092745004 0.013291836
0.093474455 0.0092745004 0.016380232
0.20916015 0.0092745004 0.019772992
0.23330247 0.0078683626 0.010970257
-0.3826614 0.013782824 0.012369999
-0.35265279 0.015268148 0.010021067
-0.39222404 0.02864516 0.013297272
-0.33136752 0.024930321 0.016568607
-0.29405051 0.020618699 0.018993897
-0.2667152 0.020618699 0.014383284
-0.23626754 0.020618699 0.014574452
-0.15771288 0.027019512 0.011660332
-0.14953896 0.020877745 0.014319072
-0.13010535 0.021319581 0.016143478
-0.12744838 0.020809893 0.017546168
-0.11156377 0.021067085 0.019434178
-0.10652772 0.022563204 0.015357203
-0.38608229 0.032497615 0.012534642
-0.3614912 0.0434209 0.010685579
-0.3575854 0.053143427 0.015894581
-0.10456037 -0.056244809 0.027728844
0.11780679 -0.05178285 0.029913515
0.13384153 -0.050320495 0.027910722
-0.095845789 -0.044217281 0.026236406
-0.069997549 -0.046137236 0.02593917
-0.042937674 -0.045316383 0.026818823
0.05789154 -0.043400951 0.023973444
-0.33748084 -0.039172199 0.021006132
-0.25197774 -0.039172195 0.023389863
-0.21282673 -0.039172199 0.021547962
-0.14119633 -0.038026229 0.026889343
-0.11623891 -0.036048066 0.027170558
-0.011014014 -0.037489261 0.028080693
0.26719347 -0.0224177 0.024130579
0.31614855 -0.0074538994 0.024432825
0.32430893 -0.0011630104 0.026802629
0.33023858 -0.00069787074 0.026011322
-0.31994471 0.0078072185 0.026383232
-0.23760128 0.0099086575 0.027805656
-0.18837124 0.0092745004 0.029292744
-0.019022057 0.0092751924 0.022508178
0.03482797 0.0092745004 0.029908249
0.16575341 0.0092745004 0.020135392
0.20189694 0.0092745004 0.029194623
0.24032998 0.0092745004 0.020216394
0.28787175 0.0080524227 0.027237987
0.31707716 0.004366708 0.027286492
0.34217605 0.00098135322 0.02682982
-0.32357931 0.013223237 0.022992292
-0.18186781 0.014335763 0.029426239
-0.17103401 0.013663973 0.029741259
-0.026091725 0.016859222 0.02373632
-0.01426582 0.013565175 0.029393841
0.0059712119 0.01843844 0.02630445
-0.39404649 0.029906828 0.029020909
-0.26205873 0.021354944 0.023746068
-0.25329652 0.02618704 0.028387409
-0.18426736 0.028177561 0.020882886
-0.071335085 0.024076669 0.024624245
-0.031508673 0.02046473 0.023289314
-0.11424434 -0.054490171 0.031744022
-0.10342944 -0.056103133 0.03710087
-0.11560972 -0.044109486 0.03941676
-0.09561605 -0.044159669 0.033321522
0.057254776 -0.043379977 0.036808796
-0.26981834 -0.039172199 0.033637524
-0.25333947 -0.039172199 0.036225908
-0.20402905 -0.039172202 0.031004556
-0.1428881 -0.038141023 0.030338541
0.27836776 -0.024122491 0.034986034
0.28105277 -0.021349564 0.030890068
0.2972829 -0.02027381 0.039174769
0.29968956 -0.016929032 0.033693217
0.31799689 -0.012446668 0.03615189
0.33976018 -0.012315957 0.035586055
0.34127045 -0.0089743016 0.037183121
-0.23258665 0.0092745004 0.032503814
-0.21276303 0.0092745004 0.039777908
-0.15849318 0.0092745004 0.038354907
-0.067062676 0.0095869228 0.035118349
0.23214844 0.0092745004 0.039825533
0.28696209 0.0092745004 0.035159856
0.35446045 0.0032330239 0.035548676
-0.12611786 0.015254047 0.031047132
-0.10220722 0.012905581 0.035153296
-0.0067737587 0.015953925 0.035309784
0.035890512 0.013108034 0.032787934
0.045867495 0.010286228 0.035290197
-0.40497229 0.022875337 0.034422584
-0.11554888 0.022896755 0.032666128
-0.094396144 0.020598037 0.033019703
-0.026155187 0.020499919 0.035398617
-0.11504702 -0.054254174 0.042899024
-0.3988843 -0.046441942 0.046359442
-0.25402835 -0.040736128 0.04851032
0.052541427 -0.043693893 0.047476128
-0.4061189 -0.037847504 0.048066296
-0.31635714 -0.039172199 0.045344926
-0.25263721 -0.039199743 0.045619473
-0.21583219 -0.039172199 0.044205707
-0.1539305 -0.038952496 0.041674417
-0.0014275201 -0.036633551 0.045428477
0.2131466 -0.030985139 0.045751598
-0.41059774 -0.029358534 0.047920775
-0.35630018 -0.021763749 0.048721232
0.23265629 -0.029434193 0.046815753
-0.35312474 -0.019503407 0.042505637
0.31164756 -0.017670013 0.043027803
-0.31635875 -0.005793652 0.047457665
0.34841084 -0.0088144764 0.04827179
-0.42536396 0.0094887204 0.043320458
-0.34280995 0.0051824115 0.049165398
-0.32150555 0.0030402569 0.047322072
-0.30317324 0.0096434578 0.047676831
-0.29206187 0.0092745004 0.041964781
-0.14175072 0.0092745004 0.045117673
-0.030438507 0.0092745004 0.046288375
-0.018894121 0.0092745004 0.047248598
0.021348855 0.0092745014 0.040792927
0.079445444 0.0092745004 0.042625651
0.2395191 0.0092745004 0.042201564
0.28898996 0.0092745004 0.045822587
0.30914089 0.0092744995 0.046473835
0.36833227 0.0061872844 0.046336018
0.37939242 0.0032973725 0.044476435
-0.3506476 0.028800907 0.049513299
-0.32684442 0.021307152 0.046650339
-0.34373438 0.032531075 0.048993494
-0.41024774 -0.04714901 0.054430462
-0.38946503 -0.042623252 0.05473458
-0.39103931 -0.035354659 0.055142745
-0.25809613 -0.039879017 0.056963097
-0.19517656 -0.039172199 0.052176081
-0.13925992 -0.037708014 0.056510314
0.11505972 -0.038683686 0.058113106
0.13309748 -0.03728503 0.052773487
0.17091972 -0.034255192 0.059033915
0.27053279 -0.03220965 0.052389488
0.33846217 -0.030527305 0.058427997
-0.41177553 -0.020463064 0.051899981
-0.36303282 -0.026263952 0.055635605
0.23131785 -0.029496755 0.054614544
0.28202084 -0.025596533 0.057763781
0.33158106 -0.025381602 0.053585395
-0.41558924 -0.01680382 0.053130381
-0.43075711 -0.0080900015 0.053693213
-0.42775315 -0.0076204259 0.051452432
-0.41652578 -0.0069440939 0.051630948
-0.4093349 -0.0037152956 0.058042672
-0.25911373 0.0092745004 0.057579774
-0.21515425 0.0092745004 0.059577901
-0.1469816 0.0092744995 0.057706751
-0.13561961 0.0093842139 0.053040031
-0.0089074671 0.0092745004 0.051994126
0.075365208 0.0092745004 0.054359719
0.088108674 0.0092745004 0.057886533
-0.11050505 0.0148545 0.059078302
-0.099250406 0.014226783 0.051750913
0.15376644 0.015937274 0.055878945
-0.39046544 0.030797333 0.057560369
-0.38453037 0.034396339 0.059356861
-0.41688114 -0.042631879 0.061742067
-0.24393456 -0.048078999 0.064027533
-0.23795649 -0.04023755 0.068510726
0.072431922 -0.041998744 0.069047853
-0.37550223 -0.034476854 0.065831073
-0.30807081 -0.039172199 0.061136723
-0.27494928 -0.039172195 0.067238986
-0.16760541 -0.039172199 0.067437619
-0.0055852965 -0.036837891 0.067888215
0.0034579956 -0.036142424 0.064162955
0.17412364 -0.03394334 0.069482446
0.18849872 -0.03284765 0.061811365
0.23623675 -0.029063037 0.062557526
0.3310445 -0.024459843 0.061285265
0.34113958 -0.020236641 0.061264247
-0.40207437 -0.010514729 0.060965568
0.36922961 -0.011512651 0.067672238
-0.43238634 -0.0016157875 0.06474591
-0.31125224 -0.0028348363 0.063377216
-0.42150792 0.0053445082 0.060239993
-0.40581095 0.0028318421 0.066429943
-0.36214072 0.00050845928 0.06421271
-0.30098432 0.0092745004 0.061280522
-0.23293243 0.0092745004 0.069202095
-0.2158072 0.0092745004 0.06545607
-0.2057566 0.0092745004 0.06211599
-0.17070895 0.0092745004 0.06975244
-0.10502809 0.0094380761 0.067762502
-0.096913055 0.0093713095 0.064871274
-0.077993289 0.0092745004 0.066035926
-0.035774048 0.0092745004 0.06427332
0.065968335 0.0092745014 0.062198795
0.075409003 0.0092745004 0.067815028
0.16786647 0.0092745004 0.066716976
0.21318975 0.0092745004 0.066056147
0.41527167 0.0062257689 0.06012832
0.13812792 0.011992125 0.064525843
0.14589554 0.016759999 0.069157876
-0.39594528 0.026855113 0.069176279
-0.37594151 0.033263102 0.061261438
-0.20164549 -0.041333251 0.073113896
-0.075590268 -0.04232369 0.078272328
0.051154759 -0.043656703 0.073857956
0.083417498 -0.041102417 0.07378757
0.095255643 -0.040158026 0.075018808
-0.29480779 -0.039172199 0.079822235
-0.26831651 -0.039172199 0.078837797
-0.19271563 -0.039172202 0.078668162
-0.17779183 -0.039172199 0.073970504
-0.0030868696 -0.036609545 0.073365934
0.21183954 -0.030938521 0.072724879
-0.3113426 -0.024255132 0.079139553
0.23826262 -0.028817564 0.077828243
0.25296414 -0.027674036 0.074107535
0.3115384 -0.020036163 0.071817413
-0.3751651 -0.015713243 0.079310611
-0.36197874 -0.015045539 0.070002869
-0.37942964 -0.0014216118 0.076816402
-0.43065926 0.0051963609 0.071721464
-0.40087169 0.0055984543 0.073649637
-0.24145934 0.0092745004 0.076691553
-0.19001208 0.0092745004 0.072123453
-0.18270448 0.0092745004 0.076936111
-0.1247583 0.0092745004 0.070304252
-0.057475425 0.0092745004 0.076049298
-0.029690508 0.0092745004 0.0739161
-0.01482556 0.0092745004 0.074485257
0.010368105 0.0092745004 0.078635424
0.062082522 0.0092745004 0.07921195
0.095171109 0.0092745004 0.076075822
0.13085863 0.0092745014 0.072680965
0.17845 0.0092745004 0.074626632
0.22301844 0.0092745004 0.075084835
0.26857448 0.0092745004 0.072197303
0.32297063 0.0092745004 0.071934164
0.35101944 0.0012335496 0.077367902
0.39907289 0.0092745004 0.078167021
0.44451022 0.0086443014 0.078656405
-0.41024804 0.011519434 0.077641964
-0.38661519 0.015921367 0.075170159
0.13847336 0.010441767 0.075874805
-0.40291536 0.022458078 0.070721194
-0.084846474 -0.043008409 0.086941026
-0.29113203 -0.039172199 0.082858726
-0.28708017 -0.039172199 0.082266837
-0.13491562 -0.037203833 0.085281804
0.019280851 -0.037204947 0.080147803
0.099080727 -0.039814498 0.082323723
0.19226894 -0.032412976 0.08626236
-0.38796008 -0.028377827 0.086355589
-0.30003661 -0.024436729 0.089945957
0.25318816 -0.015400853 0.084194452
0.25127375 -0.0066162106 0.0861765
0.35885841 -0.0064755091 0.080936134
-0.40533984 0.0024355622 0.086598471
-0.31424731 0.0026386015 0.08497791
-0.14647371 0.0092745004 0.08665967
-0.058478314 0.0092745004 0.085137755
-0.029215097 0.0092745004 0.089588717
0.014820529 0.0092745004 0.08559148
0.053302452 0.0092745004 0.08107657
0.094950087 0.0092745004 0.089193523
0.16972435 0.0092745004 0.087561399
0.18308631 0.0092745004 0.086962618
0.19963716 0.0092745004 0.082797505
0.3468051 0.0040373895 0.08572679
0.35067329 0.0092745004 0.081759043
0.38624105 0.00094050448 0.085391328
0.41403207 0.0060728332 0.082983859
0.049419265 -0.050827153 0.090520382
-0.38446122 -0.041398134 0.095026977
-0.066551231 -0.041538592 0.090719469
-0.0035333761 -0.043680437 0.098152131
0.074663393 -0.041672274 0.095969751
-0.2701256 -0.039172199 0.093781441
-0.23178627 -0.039172199 0.09687423
0.011485438 -0.035325464 0.096734956
0.15773641 -0.034245703 0.099092089
0.18458235 -0.03062667 0.096501403
0.21579781 -0.028135013 0.090218216
0.22591975 -0.025489615 0.091682278
-0.40281746 -0.018374432 0.093531966
0.1749765 -0.012584142 0.099484466
0.24629289 -0.019416975 0.096054628
0.27266428 -0.017457426 0.090469301
-0.41114202 -0.0065196389 0.093980052
0.29447937 -0.0086903311 0.099011019
0.33162197 -0.00092384999 0.093980722
-0.17310499 0.0092745004 0.093344092
-0.16596936 0.0092745004 0.093500413
-0.12882586 0.0092745004 0.090342425
-0.08749494 0.0092745004 0.095904633
-0.06284786 0.0092745004 0.09435641
-0.033963442 0.0092745004 0.09470652
0.059953611 0.0092745004 0.09181983
0.066666462 0.0092745004 0.098146193
0.1988267 0.0076004341 0.095986784
0.21199951 0.0092745004 0.091613933
0.29128164 0.008034165 0.096130431
0.30050328 0.004260255 0.096192397
0.32450497 0.0046819588 0.093985669
0.35499728 0.0016454542 0.094785661
0.22105478 0.013176151 0.094985589
-0.087126411 -0.054445531 0.10296132
-0.027924255 -0.049733926 0.10712814
-0.005545978 -0.047987338 0.10252989
-0.27421129 -0.03587392 0.10492826
-0.26522923 -0.039172199 0.10000247
0.12354258 -0.036673948 0.10654867
0.1749012 -0.029427955 0.10220692
0.19850472 -0.023323983 0.10549739
0.21971686 -0.017702077 0.10871431
0.23086482 -0.016277406 0.10748956
0.21946876 -0.0090563642 0.10030936
0.26138145 -0.0061309561 0.10354037
0.30186433 -0.0012836613 0.1064435
0.31552088 -0.0011651295 0.10383746
-0.19576512 0.0092745004 0.10630831
-0.16409622 0.0092745004 0.10391539
-0.14687096 0.0092745004 0.10244398
-0.074890822 0.0092745004 0.10603663
-0.020212891 0.0084374286 0.10739385
0.10080557 0.0063592978 0.1041026
0.28743634 0.00079024007 0.1034331
0.2977466 0.00073661131 0.10292237
0.30525845 0.00020331307 0.10347149
0.23103003 0.016908867 0.10918903
-0.091806203 -0.054749545 0.11491754
-0.055479694 -0.05184748 0.11945269
-0.12097572 -0.045615636 0.11748701
-0.0092950547 -0.048192639 0.11898969
0.06384895 -0.046996832 0.11544215
-0.26820129 -0.033136912 0.11316687
-0.2503356 -0.039172199 0.11933015
-0.18709315 -0.039172199 0.11655082
0.091461159 -0.038811039 0.11381355
0.15348671 -0.025922274 0.1164551
0.15930445 -0.013726803 0.11720997
0.16660431 -0.017741848 0.11604583
0.17532158 -0.012461889 0.11658502
0.18739767 -0.013377622 0.11282016
0.14312164 -0.0012829448 0.11583962
0.18328093 -0.00035698502 0.111737
0.21902728 -0.0090192184 0.11327598
0.2337707 -0.0078571672 0.11228965
0.24605843 -0.0055515063 0.11770068
0.25977254 -0.0057913396 0.11349797
-0.25492561 0.0092745004 0.11767428
-0.24312799 0.0092745004 0.11274017
-0.23450182 0.0092745004 0.11262867
-0.18660353 0.0092745004 0.11430402
-0.17444892 0.0095468089 0.11511105
-0.04606542 0.0080576614 0.11135609
0.0021387953 0.0052368389 0.11203545
0.033673495 0.0017155199 0.11673114
-0.10513691 0.017495025 0.11690339
-0.07258828 0.017788855 0.11442897
-0.075944871 -0.053456958 0.12146744
-0.20970389 -0.039172199 0.12843488
-0.17364624 -0.039172195 0.12440506
0.049692642 -0.038476516 0.12921169
0.015619449 -0.025035769 0.12966822
0.086186312 -0.024969418 0.1267833
0.10870626 -0.029005188 0.12387356
0.13333046 -0.015748339 0.12356345
0.19550231 -0.010797745 0.12845136
-0.27689016 -0.0069081476 0.12782654
-0.048563149 -0.00084382948 0.12836877
-0.039192691 -0.00034121331 0.1248772
0.0362757 -0.0039688409 0.12716986
0.050150663 -0.0054851645 0.12917405
0.098462328 -0.0044295969 0.12434741
0.14298463 -0.0073269308 0.12711179
0.17408025 -0.00726406 0.12515388
-0.2556577 0.0043862881 0.12888141
-0.048815969 0.0029533287 0.12409819
-0.02583521 -0.049427647 0.13244012
0.022149093 -0.041889142 0.13244227
-0.24155685 -0.032619439 0.13946636
-0.21787986 -0.039172199 0.13627146
-0.18095477 -0.039172202 0.13296537
-0.16637211 -0.039172202 0.13469647
-0.2491952 -0.024409875 0.13928349
0.027220348 -0.029255813 0.13464022
0.030589968 -0.024505302 0.13411902
0.063312493 -0.021228746 0.13511007
0.086857237 -0.019357817 0.13628368
0.092804 -0.018920664 0.13019523
0.14011252 -0.013818563 0.13937901
-0.27293101 -0.00076300121 0.13707604
0.019171199 -0.009488631 0.138469
0.044230081 -0.0073029818 0.13291213
0.12142685 -0.0093242722 0.13211016
-0.26024014 0.0023124011 0.13301755
-0.24530925 0.0021987162 0.13234557
-0.22662196 0.0011279187 0.13437815
0.061183251 0.0012707898 0.13153288
-0.22116947 0.014033617 0.1302231
-0.11815386 -0.056649838 0.14835729
-0.073733144 -0.046335183 0.14824793
-0.23300058 -0.035040729 0.1456344
-0.20829287 -0.039172199 0.14025788
-0.075050786 -0.039195552 0.14830752
-0.062111754 -0.031087816 0.14827926
-0.2437364 -0.026395151 0.14283086
-0.036435202 -0.029051594 0.14880392
-0.019265756 -0.027714705 0.14471135
0.031109005 -0.014590831 0.14727108
0.12065552 -0.014973805 0.14268374
-0.25167465 -0.005875635 0.14776967
-0.23080961 -0.0062757651 0.14728023
-0.22592077 -0.007540605 0.14934799
-0.086251155 -0.00040956168 0.14915282
-0.047821671 -0.0082182754 0.14089239
-0.18515565 0.0030039563 0.14864627
-0.1618209 0.0016493115 0.14978945
-0.15511246 0.0047572362 0.1436003
-0.13391855 0.0036713406 0.14436936
-0.12850261 0.0028315198 0.14561386
-0.11297747 -0.040586505 0.15333918
-0.22704956 -0.025537547 0.15977131
0.014504658 -0.024992323 0.15337539
0.027504697 -0.020049857 0.15765823
0.010416526 -0.017452795 0.15382962
0.085084453 -0.018881675 0.15207216
0.095230214 -0.018529695 0.15081558
-0.18973301 -0.00095467293 0.15629467
-0.15112734 -0.0017723844 0.15553319
-0.13476005 -0.00010874306 0.15146387
-0.12049246 -0.0020585465 0.15425296
-0.05173064 -0.0036556083 0.15315866
-0.046984442 -0.0097568985 0.15503429
-0.21117079 0.00097683794 0.15396413
-0.18099368 0.0013939317 0.15140039
-0.17121318 -0.039172199 0.16105546
-0.10293397 -0.034238271 0.16307582
-0.22103733 -0.027048461 0.16427302
-0.21671671 -0.027773015 0.1678261
-0.0087277377 -0.026776239 0.16342938
0.0087034479 -0.02539194 0.16413225
0.037365526 -0.023138998 0.16110843
-0.2246834 -0.013860901 0.16712247
-0.12400953 -0.013695722 0.16515629
-0.095454991 -0.016788846 0.16344966
-0.077509627 -0.010913376 0.16390207
-0.049188554 -0.013734259 0.16070622
-0.2188772 -0.0042171543 0.16410002
-0.18961842 -0.0032830578 0.16062714
-0.14496268 -0.0056045773 0.16231005
-0.063387603 -0.0071397964 0.16034198
-0.17408925 -0.039172199 0.1732778
-0.1402839 -0.037140597 0.17304273
-0.20464878 -0.022368107 0.17572117
-0.18697575 -0.021610515 0.1732631
-0.16121343 -0.022571802 0.17352948
-0.037017763 -0.027424127 0.17314422
-0.17975278 -0.039172199 0.18842438
-0.15292583 -0.038056847 0.18831162
-0.12533659 -0.035898227 0.18360582
-0.11554992 -0.032140449 0.18865843
-0.10130413 -0.033994351 0.18374377
-0.093778573 -0.033373516 0.18822445
-0.13667494 -0.028000206 0.18219322
-0.081738248 -0.029177381 0.18113497
-0.17205605 -0.039172199 0.19037469
-0.1574814 -0.034993492 0.19645762
-0.12572899 -0.034283429 0.19325472
