# .PCD v0.7 - Point Cloud Data file format
VERSION 0.7
FIELDS x y z
SIZE 4 4 4
TYPE F F F
COUNT 1 1 1
WIDTH 803
HEIGHT 1
VIEWPOINT 0 0 0 1 0 0 0
POINTS 803
DATA ascii
0.025043571 -0.0028529074 -0.31119499
0.028490219 0.00093910767 -0.31027067
0.0096598854 -0.00090288185 -0.30746445
0.03327854 -0.0041235336 -0.29533073
0.040349022 -0.0007955461 -0.29542696
0.02889422 0.0005812326 -0.29988301
0.0056354096 -0.0025287645 -0.28487024
0.025726106 -0.0041856212 -0.28710347
0.036457643 -0.0048804139 -0.28399599
0.021435581 3.2981741e-05 -0.2839694
0.019132063 -0.0043263575 -0.27628374
0.016817573 -0.0012524379 -0.26690263
0.029280035 -0.0055272309 -0.26532716
0.0069093877 -0.0042994386 -0.25414997
0.019448848 -0.0055157132 -0.25461686
0.015285171 -0.005736629 -0.2427911
0.024125775 -0.0047213859 -0.24269082
0.041194689 -0.0021918237 -0.2401275
0.0071684821 -0.0062625138 -0.23113801
0.017619479 -0.0023455496 -0.23157769
0.029795308 -0.0017713662 -0.23159626
0.041055396 -0.0076055154 -0.23674542
0.0077316943 -0.0041562081 -0.22428498
0.027023274 -0.0020799406 -0.22263956
0.037012663 -0.0023730677 -0.2243844
0.014049117 -0.0070174132 -0.2165405
0.025111701 -0.0023620515 -0.21445097
0.00824844 -0.0048235608 -0.2030021
0.027672518 -0.0086238263 -0.20588517
0.038870569 -0.0092877122 -0.20321353
0.04168281 -0.0091951396 -0.20739776
0.022406761 -0.0029213664 -0.19821626
0.032153901 -0.0094603952 -0.19413042
0.050668202 -0.006734312 -0.19954892
0.045807078 -0.010820392 -0.1804184
0.0075394809 -0.0056541627 -0.18268515
0.026904082 -0.0097341631 -0.18432507
0.0049949908 -0.0063975342 -0.17322023
0.052266814 -0.0075761713 -0.17496744
0.016985696 -0.010031817 -0.16555522
0.034376096 -0.010890782 -0.16916284
-0.0020452093 -0.0077562872 -0.16633418
0.017709555 -0.0099053476 -0.16926312
0.016502343 -0.010281743 -0.15998325
0.043416612 -0.012264153 -0.15119159
-0.0040046284 -0.0086317761 -0.15223187
0.045848273 -0.0054081064 -0.15216255
0.034293335 -0.012055734 -0.14718409
-0.0020936558 -0.0099582355 -0.13094208
0.024676323 -0.0050851186 -0.13541102
0.035662137 -0.0051766238 -0.13275498
-0.0015429435 -0.010241129 -0.12671345
0.052932635 -0.013257785 -0.12804842
-0.0025418033 -0.0091765858 -0.12839997
0.0034376967 -0.0084667532 -0.12172151
0.050915964 -0.0068681263 -0.12273836
-0.0054085562 -0.010734896 -0.11008496
0.013680353 -0.01254008 -0.11249883
0.043903206 -0.014247186 -0.11432376
0.0054462734 -0.0084332842 -0.11340982
0.026177648 -0.0057937074 -0.11484346
0.03101071 -0.0056260498 -0.1197099
0.0096141733 -0.07413248 -0.10257145
0.0018339531 -0.041373301 -0.10377477
0.04294946 -0.043240786 -0.10002379
0.044333041 -0.037863113 -0.100331
0.051808182 -0.030262688 -0.10667901
0.075091317 -0.039943218 -0.10466119
0.094915308 -0.034671921 -0.10593791
-0.016772753 -0.027521899 -0.10565615
0.018029768 -0.025255438 -0.106679
0.052082255 -0.023074131 -0.106679
0.070483372 -0.026529524 -0.106679
0.085980967 -0.028316323 -0.10667901
0.094030112 -0.02539409 -0.10608147
-0.02539113 -0.018742299 -0.10459009
-0.0041771634 -0.011274383 -0.10236688
0.016932741 -0.013791358 -0.10636602
0.045009352 -0.013256715 -0.10338916
0.07639274 -0.017830571 -0.106679
0.092402719 -0.015652876 -0.10634539
0.02842487 -0.0076899389 -0.10179561
0.035806973 -0.008010447 -0.10412374
0.051568836 -0.0075883996 -0.10093133
0.065778956 -0.0088897981 -0.10374576
0.10762826 0.013609439 -0.10061635
0.022283576 -0.085017577 -0.096061654
0.012076199 -0.075748488 -0.095141649
0.027120981 -0.062172875 -0.09861923
0.034893759 -0.05308897 -0.091770127
-0.0035407438 -0.041373301 -0.095385186
0.043835491 -0.041270148 -0.090507954
0.053845651 -0.04120224 -0.094389588
-0.033386707 -0.038486406 -0.095118821
0.048601009 -0.039922521 -0.091093585
0.087976553 -0.039890915 -0.090511039
0.092025742 -0.039589189 -0.096724264
0.10149665 -0.034293529 -0.095894143
0.103119 -0.021930672 -0.092186958
-0.015831131 -0.010940164 -0.094213128
0.019654166 -0.013832752 -0.099380471
0.030538093 -0.014426833 -0.095156848
0.11887025 -0.018218111 -0.094008148
-0.0049480707 -0.0081644058 -0.098646998
0.068817839 -0.0071456046 -0.094414502
0.086912766 -0.0090680812 -0.091441862
0.10798061 0.003599463 -0.09966515
0.019194659 -0.078922391 -0.0846636
0.025615631 -0.056733653 -0.085167497
0.053854436 -0.035363689 -0.084735297
0.086480871 -0.039913341 -0.087835364
-0.025834691 -0.02562663 -0.08690168
0.095730484 -0.028527964 -0.085535564
0.10124025 -0.024671711 -0.086735614
-0.023964478 -0.014590085 -0.088393927
-0.014616377 -0.014899516 -0.085376635
-0.0029474315 -0.010268819 -0.083211794
0.0075875418 -0.012704467 -0.082308948
0.01630594 -0.012912088 -0.083390802
0.02676646 -0.011766893 -0.084735297
0.064388737 -0.017080141 -0.084735304
0.0051349234 -0.0087066693 -0.084755376
0.021796037 -0.0063280603 -0.085732281
0.054396316 -0.0083289966 -0.088909298
-0.0073253838 -0.011116276 -0.072146319
0.012592832 -0.013237529 -0.076461323
0.024350511 -0.014140902 -0.078512639
0.037634522 -0.014754763 -0.070416987
0.053661499 -0.011309572 -0.076208942
0.012236409 -0.0078168036 -0.070056342
0.053437423 -0.0080125974 -0.077288732
0.01530505 -0.012474112 -0.062957309
0.025068343 -0.014174092 -0.065325446
0.053661503 -0.014870719 -0.06758789
-0.0003906301 -0.0098645249 -0.060147621
0.0060555567 -0.0088285059 -0.060856406
0.025848716 -0.0063280598 -0.066652797
0.057018571 -0.0091939066 -0.06910032
-0.0066423169 -0.010852981 -0.057506636
0.01474044 -0.012178397 -0.056029484
0.045711245 -0.015127992 -0.052774109
0.055775058 -0.014706098 -0.053831529
0.038906794 -0.0063280598 -0.058276057
0.012224379 -0.013146156 -0.045323014
0.045567252 -0.015121339 -0.046495907
0.057700694 -0.0136879 -0.04374785
0.0036149907 -0.0092279539 -0.042220026
-0.12434066 -0.055888198 -0.030021777
-0.11236861 -0.054310486 -0.03133209
-0.10023857 -0.056488536 -0.030711196
-0.082883991 -0.055635143 -0.030955801
-0.074302256 -0.052668922 -0.031805851
0.057857234 -0.054518294 -0.031275846
0.14668579 -0.058825374 -0.030041488
0.17794377 -0.058008403 -0.030275622
0.19623004 -0.052227773 -0.031932279
0.20838791 -0.053683273 -0.031515151
0.21060458 -0.055358715 -0.031034987
0.24674509 -0.055481199 -0.030999888
0.25919548 -0.052903034 -0.031738754
-0.081485078 -0.049536198 -0.032703649
-0.047650095 -0.043657627 -0.034388375
-0.03665771 -0.046181232 -0.033665147
0.004308417 -0.046250373 -0.033645354
0.024965325 -0.046075821 -0.033695377
0.073237389 -0.048535049 -0.032990616
0.088849634 -0.048036061 -0.033133589
0.097524405 -0.049145252 -0.032815691
0.13926342 -0.04203942 -0.034255289
0.21504015 -0.045190454 -0.03367728
0.30234829 -0.044509463 -0.032862131
-0.057136714 -0.031667478 -0.031282701
-0.019823747 -0.038631581 -0.033278584
-0.0097838547 -0.034472812 -0.032086894
0.037820272 -0.037891846 -0.033066738
0.14805149 -0.032123592 -0.031413425
0.16576284 -0.033396367 -0.031778269
0.18553801 -0.037011694 -0.03281457
0.19974856 -0.031728279 -0.031300124
0.25022891 -0.039575323 -0.033548888
0.026940729 -0.029167023 -0.030566046
0.046986945 -0.029801894 -0.030748004
0.05529907 -0.029499918 -0.030661456
0.14055175 -0.027321365 -0.030037064
0.19015482 -0.027690314 -0.03014281
0.23787577 -0.029047947 -0.030531917
0.25810799 -0.027389323 -0.030056532
0.0011824105 -0.0096157929 -0.034490343
0.045475833 -0.0068610869 -0.032080304
-0.14447367 -0.064486392 -0.020785917
-0.11441779 -0.064415559 -0.024388522
-0.10601655 -0.062808447 -0.0262029
-0.040879302 -0.062866256 -0.026143096
0.0040723011 -0.061792158 -0.027252613
0.02672461 -0.062907085 -0.026100831
0.088815853 -0.061773941 -0.027271476
0.10287738 -0.068123221 -0.020712305
0.11018177 -0.064020388 -0.024950642
0.19750157 -0.060217828 -0.028879056
0.20133986 -0.065072052 -0.023864115
0.28375244 -0.066856906 -0.022020575
0.29864097 -0.064771459 -0.023783881
0.30713761 -0.063619889 -0.024086537
0.3386893 -0.062011603 -0.020503527
-0.17302793 -0.051376205 -0.024446242
-0.1601305 -0.057313293 -0.02339006
-0.13672438 -0.057100534 -0.028732313
0.23786911 -0.059086177 -0.029966742
0.31447795 -0.057440296 -0.027230244
-0.21087763 -0.042053752 -0.020680415
-0.20169389 -0.046234768 -0.021070162
-0.16329825 -0.048235446 -0.026926175
0.31649157 -0.045512691 -0.028518006
-0.20186469 -0.033640206 -0.022630008
-0.19647259 -0.033411149 -0.023173269
-0.16758977 -0.030731454 -0.025679909
-0.15703468 -0.038433604 -0.029006144
0.31975684 -0.039705187 -0.026434805
-0.21244746 -0.029966267 -0.020422544
-0.1892136 -0.02954247 -0.022916174
-0.14858691 -0.027395718 -0.026904166
-0.130512 -0.026244972 -0.027508965
-0.098911159 -0.02433192 -0.027213434
-0.056174062 -0.02627627 -0.029222118
-0.034979392 -0.021233369 -0.02401273
-0.015835129 -0.026141979 -0.029083421
0.053627152 -0.02151585 -0.028645875
0.066627622 -0.023365544 -0.027582411
0.093852229 -0.025764491 -0.028693439
0.10068784 -0.022075297 -0.024882561
0.11940689 -0.02528125 -0.028194308
0.12528171 -0.026157379 -0.029099276
0.13590053 -0.022733318 -0.025562268
0.14989622 -0.025291145 -0.028204478
0.15585992 -0.023538489 -0.026393984
0.24315712 -0.021937286 -0.024739861
0.26166672 -0.020548524 -0.023305437
0.27502885 -0.020516846 -0.023272311
0.28794596 -0.02182804 -0.024529465
-0.0082344115 -0.010858377 -0.021710463
0.0014094611 -0.01891271 -0.02892462
0.01094647 -0.018514931 -0.027460013
0.025946848 -0.015895385 -0.029531542
0.043733314 -0.015416196 -0.027331855
0.050087392 -0.015330249 -0.027979424
0.060138702 -0.019704238 -0.027029872
0.070068054 -0.019659035 -0.024100486
0.098404199 -0.019380217 -0.022098379
0.13078332 -0.018555779 -0.02124662
0.16725269 -0.018394932 -0.021080405
0.17347738 -0.018528283 -0.021218156
0.1943489 -0.019212544 -0.021925043
0.26511663 -0.018806683 -0.02150568
0.27114546 -0.019717436 -0.022446504
0.017472938 -0.0076044146 -0.028152756
0.047996584 -0.0088609532 -0.029266367
0.053717591 -0.0074571585 -0.025810758
0.062659562 -0.0084144175 -0.023418698
-0.12447853 -0.071623892 -0.013715967
-0.095949635 -0.072033562 -0.013867625
-0.077302516 -0.071819969 -0.014719529
-0.042921364 -0.071376994 -0.016486326
-0.038623206 -0.071795896 -0.014663043
-0.022151463 -0.071244091 -0.017016402
0.0091305804 -0.071897112 -0.01441189
0.020821281 -0.071820393 -0.014717881
0.065001681 -0.072375692 -0.012503122
0.078560933 -0.071607366 -0.015567506
0.13479757 -0.070986688 -0.017754525
0.16454262 -0.071996838 -0.014014134
0.24170735 -0.07263907 -0.011452674
0.26094311 -0.071317784 -0.016722482
0.28650987 -0.072297491 -0.012814896
0.29901898 -0.070660762 -0.018064972
-0.17011867 -0.063722476 -0.013419921
-0.16807482 -0.064724654 -0.011512674
-0.1545776 -0.067960709 -0.011436516
-0.11477172 -0.069055125 -0.019604282
0.097838081 -0.068886548 -0.019923836
0.32052925 -0.068423659 -0.018171476
0.34044445 -0.068304092 -0.014257001
-0.19592483 -0.05844149 -0.010211103
-0.17231229 -0.05734897 -0.01984736
0.3483434 -0.055205744 -0.019136613
-0.24548995 -0.040256258 -0.015399775
-0.23371454 -0.047056176 -0.012376374
-0.22415704 -0.046546094 -0.015647816
0.34356582 -0.044533879 -0.018192844
0.3579573 -0.049305439 -0.011090687
-0.28344986 -0.033042919 -0.010020263
-0.27232486 -0.035914883 -0.011130504
-0.2469871 -0.037403312 -0.015894203
-0.22793289 -0.039457664 -0.018533818
0.33999544 -0.039810039 -0.015740713
-0.27582017 -0.024480533 -0.010977583
-0.2368795 -0.028253412 -0.017251415
-0.20821509 -0.024310352 -0.018635668
-0.19241698 -0.020771489 -0.016488314
-0.17991376 -0.021123581 -0.017941821
0.31606203 -0.022316255 -0.01203708
-0.24601823 -0.019175453 -0.010170996
-0.15790068 -0.016260499 -0.014745653
-0.13455328 -0.016679706 -0.017500151
-0.10947187 -0.013362558 -0.012971642
-0.093245521 -0.014290268 -0.015503844
-0.084147662 -0.012849728 -0.011571866
-0.073454857 -0.014179819 -0.015202371
-0.053458013 -0.01440043 -0.015804533
-0.031700391 -0.013988831 -0.016326845
-0.02810437 -0.013995177 -0.019047797
-0.01952593 -0.012007708 -0.017824244
0.077399328 -0.012488311 -0.015039704
0.087082103 -0.014548121 -0.015541208
0.14812356 -0.013756689 -0.012384964
0.16838297 -0.014754353 -0.016363557
0.18074337 -0.015353367 -0.017938267
0.23192656 -0.016501652 -0.019124491
0.24424368 -0.016911419 -0.019547796
0.25592074 -0.013615193 -0.011820025
0.30273527 -0.01582255 -0.014258054
0.042846106 -0.0058907601 -0.016343161
0.051598713 -0.0071737147 -0.016431602
-0.14352793 -0.073370531 -0.0011557222
-0.13371913 -0.073605679 -0.0038372015
-0.11509261 -0.075059712 -0.00080241699
-0.10215122 -0.073189296 -0.0092580002
-0.074904174 -0.072731882 -0.0037993055
-0.067707159 -0.071157724 -0.00080241699
-0.051740851 -0.074059851 -0.0057858634
-0.049845118 -0.073859826 -0.0065836925
-0.036151312 -0.07264024 -0.0011870958
-0.021568358 -0.075224921 -0.00046617413
-0.0043439702 -0.074278124 -0.0049153301
0.058638234 -0.074647829 -0.003440843
0.06931112 -0.073697045 -0.0072330488
0.074911535 -0.074884877 -0.0024953473
0.090484425 -0.074763015 -0.00080241699
0.1072088 -0.074316248 -0.00080241699
0.14435153 -0.073244825 -0.009036676
0.17721143 -0.074805439 -0.00080241694
0.18151686 -0.073298991 -0.0088205971
0.20792595 -0.074583977 -0.0036953255
0.21700944 -0.074015923 -0.0037249904
0.23234993 -0.072153136 -0.00080241699
0.25178868 -0.073403619 -0.0084031541
0.32515785 -0.073155589 -0.0020220769
0.33138028 -0.074426815 -0.0025010463
0.34206933 -0.074104905 -0.001298566
0.35285532 -0.071773842 -0.0036589454
-0.19463751 -0.061394788 -0.00069331302
-0.18816331 -0.062077273 -0.0036538278
-0.1332242 -0.067229688 -0.00080241699
-0.071321502 -0.065861851 -0.00080241694
-0.069956727 -0.066965207 -0.00080241699
0.0065385522 -0.065129705 -0.00080241699
0.072953291 -0.069913268 -0.00080241699
0.08698532 -0.064720377 -0.00080241694
0.13978325 -0.066857383 -0.00080241699
0.21522111 -0.064384885 -0.00080241694
0.25670868 -0.069906816 -0.00080241694
0.29853025 -0.064467937 -0.00080241694
0.36788177 -0.068053819 -0.00080241699
-0.2309787 -0.051509969 -0.0051941113
-0.22259152 -0.054463003 -0.0020225679
-0.25376266 -0.046106968 -0.0052976361
-0.24323969 -0.047187842 -0.0095002521
-0.29510319 -0.017709091 -0.0060878843
-0.28598708 -0.018770987 -0.0062510632
-0.27422833 -0.014723253 -0.0063423142
-0.25025675 -0.01758465 -0.007746804
-0.24899149 -0.012041258 -0.0040707369
-0.20325615 -0.010933214 -0.00266937
-0.17491935 -0.015064963 -0.0099259615
-0.16431922 -0.012942381 -0.0058438964
-0.1517269 -0.011493925 -0.0033533343
-0.10511292 -0.01056567 -0.0053374893
-0.062532596 -0.012118478 -0.0086774239
-0.023410339 -0.011391968 -0.0034504817
0.098881826 -0.011165416 -0.0020506978
0.14996345 -0.013129478 -0.0098832687
0.16748828 -0.012908645 -0.0090024266
0.22916128 -0.011221306 -0.0022724289
0.2612882 -0.011559015 -0.003620395
0.27411172 -0.012830297 -0.0086902678
0.29674166 -0.011093831 -0.00087288884
-0.34622645 -0.0022257008 -0.0010078294
-0.3004249 -0.0080644162 -0.0057985364
-0.27268118 -0.0095786462 -0.0061708526
-0.25504404 -0.0027747916 -0.0040616104
-0.2344031 -0.0067969486 -0.0026831136
-0.16814308 -0.0056145824 -0.0024970896
-0.15892351 -0.0059982389 -0.0024796904
-0.14826773 -0.0079331454 -0.0024831905
-0.071457937 -0.0099159395 -0.00026125528
0.018182095 -0.0068370169 -0.0064643631
0.024964934 -0.0063280598 -0.0099443886
0.045307357 -0.0064126975 -0.005672588
0.055794336 -0.0077439346 -0.0065632169
-0.34563115 0.0037727989 -0.0003127055
-0.27657625 0.0074524404 -0.0054050907
-0.25964549 0.0045232521 -0.0040129176
-0.23791716 0.0090364544 -0.002442857
-0.22688568 0.0031495728 -0.0025075567
-0.31026518 0.019984905 -0.0047904579
-0.27537596 0.015238713 -0.0048787142
-0.35384113 0.023033179 -0.00093479827
-0.28451747 0.024209112 -0.0048946533
-0.33591628 0.034729958 -0.0030484756
-0.31455743 0.032177232 -0.004352082
-0.29498416 0.045755662 -0.0042534159
-0.28102025 0.045010503 -0.0027495145
-0.35464188 0.053348549 -0.0018273367
-0.33516228 0.054329105 -0.0032601715
-0.30019084 0.056117177 -0.0039553028
-0.36432448 0.062533967 -0.0010300875
-0.35178146 0.065682717 -0.0019646704
-0.29427212 0.065033697 -0.0027348113
-0.35720798 0.077312775 -7.0665192e-05
-0.32892245 0.075509593 -0.0030073407
-0.31515592 0.077353016 -0.0034440213
-0.35554901 0.081837341 -0.0010134159
-0.31708515 0.08567483 -0.0031391215
-0.13916677 -0.073692992 0.0022030734
-0.10188393 -0.074363232 0.0029709158
-0.088695511 -0.074060455 0.0041785557
-0.065024927 -0.074771971 0.0013406919
-0.016948435 -0.074974939 0.00053088414
0.011246408 -0.073475599 0.0065111946
0.044832069 -0.072718993 0.0095288744
0.056181688 -0.075000815 0.00042732386
0.076748922 -0.073291302 0.0072462787
0.11511435 -0.074686415 0.0016811673
0.12571044 -0.074981444 0.00050430733
0.13277173 -0.074451119 0.0026196782
0.14384589 -0.073379442 0.0068944101
0.16268849 -0.073891379 0.0048522656
0.19186889 -0.073611304 0.0059695202
0.20275936 -0.073502384 0.0064038523
0.28657094 -0.074074402 0.004122776
0.32969004 -0.076499984 0.00049048581
0.33931148 -0.074018776 0.00053616014
0.35504156 -0.071640261 0.0014197604
-0.1884743 -0.061883412 0.0024407802
-0.17148313 -0.065483764 0.0041557667
0.365861 -0.069510832 0.0030530863
-0.27159584 -0.042141423 0.001432982
-0.23378073 -0.049611188 0.0079095047
0.34701329 -0.040133294 0.0065207118
-0.30109501 -0.032411415 0.0041650366
-0.33024985 -0.016679788 0.0011018398
-0.32572937 -0.015407935 0.0016722487
-0.25934297 -0.017685976 0.0059997211
-0.24291539 -0.015798068 0.0038762882
-0.21026659 -0.017176444 0.0093846619
-0.20425652 -0.015823405 0.0068080979
-0.18856043 -0.01307924 0.0019818179
-0.11238711 -0.010598921 0.0038227357
-0.085035592 -0.012274471 0.0069333697
-0.050562069 -0.011436192 0.0025984221
-0.017451314 -0.0110538 0.0018484234
0.077119902 -0.01108022 0.008353672
0.084071726 -0.011521146 0.001864446
0.17411654 -0.013140781 0.0083236843
0.1913399 -0.012547365 0.005957284
0.26896808 -0.011854324 0.0031932413
0.30570903 -0.012818391 4.078928e-05
-0.31749022 -0.0056049582 0.003107321
-0.20287395 -0.009737175 0.00099294889
-0.19768259 -0.0061701266 0.00092367508
-0.077620715 -0.0099282609 0.00026558092
0.01852157 -0.0067821601 0.0078293392
0.039820734 -0.0058907601 0.0043800557
0.044614177 -0.006751948 0.005885087
0.056926407 -0.0085024461 0.0010337429
-0.32725456 0.0069352132 0.0020847167
-0.31316644 0.0066228453 0.0035170761
-0.29374617 0.0010384205 0.0039408221
-0.26227203 0.0096015772 0.0021786317
-0.2038835 0.0022924282 0.00080619036
-0.32139626 0.014110181 0.0029306486
-0.31397885 0.019183803 0.0031115669
-0.29389963 0.013437089 0.0035485402
-0.27838454 0.01154577 0.0036157442
-0.33705026 0.025032377 0.0014059956
-0.32811788 0.026625326 0.0022338443
-0.3115302 0.021508457 0.0030697193
-0.33622497 0.033008099 0.0013885206
-0.32515821 0.031565722 0.0025364682
-0.27434576 0.033060737 0.0013429186
-0.34949133 0.041263703 0.00061815442
-0.31494653 0.047895189 0.002234471
-0.35572389 0.055511743 0.00017634931
-0.34469542 0.054265849 0.00077349145
-0.33491442 0.053992618 0.0015545556
-0.31842965 0.050612357 0.002065877
-0.35124978 0.067908578 0.00031920726
-0.31251496 0.064624958 0.0021626961
-0.34731996 0.072867282 0.00049036945
-0.31025249 0.086466916 0.0012266744
-0.078097202 -0.07172285 0.013501973
-0.013743879 -0.072538704 0.010247963
0.014691597 -0.072211832 0.011551669
0.11124717 -0.072313577 0.011145876
0.12489644 -0.070982464 0.015283316
0.13611385 -0.071279474 0.015270347
0.19367713 -0.071303368 0.01517505
0.21556963 -0.072001547 0.012390337
0.25743139 -0.071628384 0.013878662
0.28823602 -0.071488015 0.01443858
-0.17984392 -0.061487339 0.011512502
-0.13355477 -0.069628887 0.016057087
-0.10562769 -0.067280859 0.019977871
0.028736461 -0.069966987 0.017202936
0.075713634 -0.069803283 0.017372029
0.14618969 -0.068286493 0.018938811
0.21824846 -0.06852749 0.018689875
0.32803845 -0.069171242 0.014331706
0.3465867 -0.065163955 0.014293361
-0.2230515 -0.050633285 0.010291932
-0.17975442 -0.058068365 0.015386352
-0.2228258 -0.040501732 0.017507076
0.34623876 -0.04512544 0.013977376
-0.23242219 -0.036251705 0.017005062
-0.22175172 -0.033532638 0.018757168
0.32470879 -0.034490224 0.018520471
0.33401483 -0.038234193 0.016603511
-0.26834574 -0.029123317 0.011868374
-0.23385888 -0.024748364 0.013404536
-0.21310899 -0.029499155 0.018624082
-0.20580927 -0.023979459 0.016912078
-0.15102515 -0.021802388 0.019560684
0.30461559 -0.023120627 0.019482732
0.31708628 -0.027602302 0.016518401
-0.12908058 -0.015820706 0.015526413
-0.097900167 -0.014495519 0.013726283
-0.041572206 -0.014342846 0.013118078
-0.013986087 -0.011244667 0.017285202
-0.0056300899 -0.010707883 0.010656131
0.15520385 -0.014751838 0.014748469
0.18108252 -0.014075149 0.012049852
0.21519825 -0.014481888 0.013671915
0.24513476 -0.017066026 0.018102687
0.25356984 -0.016357845 0.017371103
0.2708244 -0.017207079 0.018248342
0.29117075 -0.013652273 0.010363424
0.032506302 -0.0063280598 0.015778961
0.057035841 -0.0085213147 0.013271613
-0.13220844 -0.06274946 0.023064783
-0.12947434 -0.06283278 0.023215501
-0.11509263 -0.06318289 0.024043754
-0.10950488 -0.060946364 0.026521595
-0.084736422 -0.064193204 0.023167295
-0.052119713 -0.063358448 0.024029672
-0.033540256 -0.060050793 0.027446715
-0.0062682368 -0.066465423 0.020819899
0.022564352 -0.066493846 0.020790532
0.038715802 -0.066439338 0.020846836
0.053055428 -0.063654996 0.023723321
0.077930488 -0.067143649 0.020119313
0.084903367 -0.066173978 0.021120973
0.16783182 -0.063962996 0.023405118
0.18676473 -0.062261768 0.02516262
0.19247133 -0.062286742 0.025136817
0.28221741 -0.062572628 0.024841614
-0.17009073 -0.05294621 0.022902552
-0.14971918 -0.051226839 0.026768848
-0.10095422 -0.056862336 0.028999185
-0.048444014 -0.056668848 0.029054685
-0.027858412 -0.054336756 0.029723059
0.001753103 -0.054788105 0.029593647
0.048903827 -0.059236255 0.028288191
0.20163363 -0.053907029 0.029846156
0.22759598 -0.057878412 0.028630119
0.24392582 -0.055653498 0.029345632
0.27637345 -0.05830523 0.028585659
0.30553919 -0.057454057 0.027217843
0.34061155 -0.055056572 0.020275373
-0.19768837 -0.043143399 0.020973999
-0.18555674 -0.04255975 0.023159573
-0.16934574 -0.049784549 0.02389003
0.31772634 -0.040551446 0.025765935
0.084427416 -0.032398269 0.029887453
0.12723818 -0.030930314 0.029466584
0.1666809 -0.032697029 0.029972972
0.25305381 -0.031790771 0.029713295
0.29929686 -0.035372764 0.028946996
0.3076852 -0.036190245 0.027086668
0.32194442 -0.035158239 0.021024369
-0.1688792 -0.027731519 0.022830758
-0.1414313 -0.029948413 0.026802095
-0.12507178 -0.024660014 0.024825957
-0.11001381 -0.023380036 0.024625171
-0.041315906 -0.028872348 0.028877074
-0.010129075 -0.023020633 0.027610056
0.011766858 -0.024555024 0.027958168
0.036048938 -0.02106544 0.027544994
0.044175033 -0.02535861 0.028204041
0.085732505 -0.02650759 0.027856119
0.096158914 -0.023073096 0.024308428
0.14809953 -0.028810631 0.028859124
0.16414478 -0.029583406 0.029080596
0.20574462 -0.026379291 0.027723612
0.22284235 -0.023502525 0.024751812
0.28549975 -0.020247089 0.02138395
-0.090443127 -0.019744594 0.020869758
-0.031560119 -0.019521605 0.02063963
-0.015179664 -0.018550131 0.026432877
0.0099449381 -0.015697248 0.027936898
0.015475533 -0.0155974 0.027745569
0.023228791 -0.013122741 0.027279764
0.039020017 -0.015787233 0.027909597
0.0442026 -0.016257882 0.027927332
0.056938734 -0.011885895 0.027762409
0.068052962 -0.012587113 0.024766063
0.012699185 -0.0082611199 0.024382021
0.0299941 -0.0058907601 0.021175085
0.036508463 -0.0063280598 0.023262125
0.046324573 -0.0060444549 0.021231581
0.054674789 -0.0071010273 0.026483387
-0.0091391634 -0.051610228 0.030504487
0.070651747 -0.050799087 0.030736875
0.17821625 -0.052102782 0.030363241
0.21563751 -0.050383344 0.030856024
-0.12448761 -0.049583413 0.030167345
-0.075626165 -0.041765776 0.032571848
-0.049905986 -0.04167214 0.032545216
-0.0040298658 -0.048762079 0.03132081
0.056312002 -0.049885195 0.030998789
0.10848858 -0.049210414 0.031192176
0.14203173 -0.042099074 0.032667506
0.16286403 -0.043023694 0.032932375
0.20811084 -0.045258164 0.032324865
0.2629897 -0.044469167 0.032550991
0.29576105 -0.044880792 0.032118931
-0.12439178 -0.039961603 0.031106453
-0.096564695 -0.037211519 0.031266615
0.0024356842 -0.037505411 0.031351186
0.018317785 -0.034474973 0.030482816
0.031138625 -0.036376029 0.031027582
0.045291621 -0.039721262 0.031986184
0.058627799 -0.039266162 0.031855773
0.12237151 -0.03723783 0.031274442
0.14271893 -0.038842402 0.03173434
0.19367176 -0.03734592 0.031305514
0.22403798 -0.036383554 0.031029738
0.23651809 -0.03354381 0.03021577
0.28947917 -0.03870881 0.031699654
-0.0055599702 -0.011304352 0.031790979
0.012614632 -0.013239961 0.036528364
0.027905533 -0.014305245 0.034261912
0.042661063 -0.014987068 0.036001228
0.017184641 -0.007006913 0.03291934
0.020230362 -0.006508342 0.035005577
0.035145003 -0.0063280598 0.034506653
-0.0060887141 -0.010765534 0.047568291
0.014409367 -0.013349069 0.042226359
0.013967311 -0.0075335735 0.041616194
0.023826171 -0.0063280598 0.044136863
0.036917832 -0.0063280598 0.040932551
-0.004943653 -0.010584472 0.050880063
0.0090585146 -0.0083371187 0.056470349
0.02145688 -0.0063280603 0.052353367
0.051967338 -0.0076822788 0.055117927
0.052708015 -0.015451318 0.065323688
0.0030198046 -0.0093252501 0.06002197
0.042362351 -0.0064983163 0.064255528
0.052822214 -0.0079022394 0.06808053
0.020190887 -0.013881122 0.077106029
0.055520453 -0.014768483 0.077798925
0.0076699392 -0.009619033 0.074395016
0.051548608 -0.0076293088 0.073641948
0.017357038 -0.091785252 0.088137597
0.0077286572 -0.086496428 0.084962115
0.019762423 -0.055785261 0.085322812
-0.035059609 -0.030249331 0.089254096
-0.0065644966 -0.034107976 0.08491537
0.023968197 -0.036994323 0.084795371
0.042321116 -0.03125371 0.084735297
0.076646104 -0.038823292 0.085575409
-0.031166662 -0.027730659 0.088239409
0.0045384206 -0.026374856 0.084735289
0.014392884 -0.028815288 0.084735297
0.065144934 -0.025180487 0.084735289
0.074356377 -0.029452868 0.084735297
-0.0040972107 -0.011460045 0.080037691
0.00066623953 -0.010241853 0.084735289
0.011378283 -0.01487785 0.083839998
0.025828633 -0.014910454 0.084735297
0.038845073 -0.015680704 0.084735297
0.0536284 -0.012200395 0.080243304
0.10459232 -0.01552063 0.089220807
0.015377311 -0.0078779496 0.08524783
0.02785852 -0.0078954417 0.087555751
0.036261223 -0.0063280594 0.083536401
0.01454969 -0.091349751 0.098886058
0.014894535 -0.082687549 0.092345595
0.024150975 -0.081372023 0.098750256
-0.0062585692 -0.041206893 0.096851341
0.017910833 -0.04822237 0.095721714
0.036163099 -0.04993093 0.099472806
-0.038158081 -0.031672034 0.090116948
0.044134744 -0.037746575 0.091013402
-0.022731967 -0.013743607 0.092492461
-0.015888974 -0.010963663 0.098085761
0.01532896 -0.013370483 0.096868947
0.050164688 -0.015307935 0.099819362
0.11646155 -0.018512893 0.099379987
0.0070733549 -0.0071102544 0.093603805
0.019835126 -0.0065730237 0.096325561
0.023381095 -0.0066409791 0.095218472
0.043178298 -0.0074206619 0.091811016
0.065212622 -0.0076492196 0.092304647
0.10774349 0.012669403 0.090631142
0.011011645 -0.09170302 0.10427995
0.015504687 -0.085555971 0.10386205
0.024316533 -0.08102423 0.10112335
0.019358911 -0.077179849 0.106704
0.023098499 -0.078573048 0.10537077
0.03948338 -0.04362585 0.10034292
0.047076173 -0.04044494 0.10300466
-0.0091318218 -0.038996492 0.105585
0.017893182 -0.032118861 0.106679
0.073749185 -0.034100048 0.10637399
-0.023566319 -0.021661595 0.10485156
-0.0078254575 -0.020553961 0.106679
0.018625101 -0.02133807 0.10667899
0.024477514 -0.029307164 0.10667899
0.038052559 -0.029057585 0.106679
0.051554587 -0.024791548 0.10667901
0.065298535 -0.024872558 0.10640775
0.091032863 -0.020376995 0.10656755
0.021884369 -0.013491814 0.10938612
0.04635258 -0.017319892 0.10667899
0.067476586 -0.01348287 0.10643908
0.086834386 -0.016903996 0.10667901
0.092425413 -0.011876343 0.10368064
0.10060233 -0.014597824 0.10359949
0.026701992 -0.0061307098 0.10506168
0.037262365 -0.0086372588 0.1035661
0.042495832 -0.0062673604 0.10725966
0.050119892 -0.0073673273 0.10230905
0.022994917 -0.013245094 0.115003
0.037602451 -0.014076595 0.11205772
0.041147653 -0.013901203 0.1184358
0.0078494381 -0.0078107282 0.11992125
0.032582652 -0.0056533627 0.1189172
0.049603671 -0.0070344838 0.1120992
0.0066823415 -0.011421788 0.12041677
0.055820875 -0.012230497 0.12451434
0.0042678053 -0.0083312429 0.12178918
0.047074582 -0.0064356793 0.12230176
0.0066529899 -0.01055201 0.13660806
0.0071608243 -0.0072218832 0.1398693
0.019883774 -0.0053692157 0.13365819
0.056042384 -0.0098830983 0.13480116
0.040434428 -0.012302054 0.14788906
0.013822732 -0.0058237119 0.1486221
0.038687192 -0.0047656097 0.14468518
0.043995418 -0.0055598095 0.1400965
-0.0034883483 -0.010613452 0.15233099
0.013795946 -0.016149495 0.15173
0.031208787 -0.012499824 0.15117383
0.0068267132 -0.0067311372 0.1553819
0.012777834 -0.0099917967 0.1585058
0.036322895 -0.011331186 0.16257429
0.0060671396 -0.0065382351 0.16435388
0.045186847 -0.0049338141 0.16832276
0.026734576 -0.0035970234 0.17860465
0.048526466 -0.0093782432 0.17295364
0.017934954 -0.0037849857 0.18838179
0.025175355 -0.0035423809 0.18019071
0.046152614 -0.0048994152 0.18304017
0.050962314 -0.0094173644 0.18275931
0.0014721714 -0.0061635505 0.19563206
0.017267372 -0.0038289444 0.19009966
0.00438174 -0.0050645145 0.21365961
0.016141232 -0.003111321 0.2159797
0.03524752 -0.0024771576 0.21240015
0.043861028 -0.0041586072 0.21317434
0.0074006454 -0.0040301108 0.22933719
0.015075355 -0.0066633928 0.22504456
0.02617643 -0.0020871263 0.22243102
0.038821269 -0.0079495301 0.22833568
0.016588183 -0.0052386848 0.23521052
0.043424685 -0.0048018256 0.23760182
0.0031431625 -0.0046326024 0.24088347
0.027764702 -0.003835083 0.24498081
0.006341232 -0.0041534724 0.25580972
0.027259011 -0.0034519634 0.25750643
0.042105936 -0.0036969159 0.25762939
0.0042889155 -0.0032137565 0.26957613
0.014785152 -0.0017626082 0.26120895
0.020779587 -0.00071543141 0.26472193
0.033913005 -0.0043055266 0.26160476
0.0069433274 -0.0033272582 0.27225462
0.015021955 -0.0037747896 0.27896279
0.024770843 -0.0042227055 0.28551686
0.034026943 -0.0025003005 0.28443098
0.0096236039 -0.0011862433 0.29963139
0.036385551 -0.0042515583 0.29567498
0.042509004 -0.0023910976 0.29746586
0.0092858057 -0.0020581232 0.30029845
0.037289724 -0.00034469226 0.31119499
