# .PCD v0.7 - Point Cloud Data file format
VERSION 0.7
FIELDS x y z
SIZE 4 4 4
TYPE F F F
COUNT 1 1 1
WIDTH 805
HEIGHT 1
VIEWPOINT 0 0 0 1 0 0 0
POINTS 805
DATA ascii
-0.084236696 -0.020098323 -0.29709011
-0.083740912 -0.024437796 -0.28010747
-0.065476328 -0.020927269 -0.28565848
-0.08040639 -0.024769513 -0.26608747
-0.052336928 -0.022023365 -0.26193565
-0.064689249 -0.026583729 -0.2551547
-0.056015573 -0.022140063 -0.25827801
-0.046311863 -0.022651486 -0.25170854
-0.063856468 -0.026117235 -0.24348231
-0.058436111 -0.027885843 -0.24001202
-0.062642053 -0.028556425 -0.23221113
-0.04747219 -0.025894411 -0.23747909
-0.038774747 -0.028717702 -0.23034336
-0.06395027 -0.02878461 -0.22288893
-0.046348952 -0.027392372 -0.22254296
-0.026194721 -0.028991947 -0.22220641
-0.0098973587 -0.055012658 -0.21048065
0.025160829 -0.059307061 -0.21082488
0.033829607 -0.052206472 -0.21159095
0.034814835 -0.048506882 -0.21323809
-0.046847861 -0.029827572 -0.21743181
-0.035757191 -0.027931415 -0.21317548
0.00024981424 -0.06106393 -0.20585203
-0.015103409 -0.052355498 -0.2065815
-0.0064045303 -0.056298044 -0.20659883
0.030737177 -0.058893472 -0.20639956
-0.015023262 -0.046156667 -0.20489362
-0.054170087 -0.033006724 -0.20284678
-0.045895368 -0.031123707 -0.20175496
-0.018794306 -0.030139776 -0.20934395
0.024959696 -0.035352349 -0.20172474
-0.054663382 -0.02970461 -0.20661923
-0.04963661 -0.028571466 -0.20763266
-0.038230296 -0.02644138 -0.20977943
-0.021899998 -0.026316853 -0.20375818
-0.016012352 -0.02690676 -0.20694448
-0.0057379859 -0.029686585 -0.20245676
0.023322385 -0.061948791 -0.19464529
-0.021989135 -0.057784822 -0.19710705
-0.01159613 -0.058451589 -0.19724867
0.026154181 -0.053529855 -0.19076014
-0.00348159 -0.044802275 -0.19095808
0.00053864787 -0.043280862 -0.1912643
0.025109299 -0.041027877 -0.19098839
-0.051061057 -0.031918272 -0.1947878
-0.032354996 -0.032363608 -0.19955361
-0.0073075322 -0.037498076 -0.19766158
0.010700993 -0.034117326 -0.19936471
-0.013514332 -0.026563585 -0.1942699
0.016594941 -0.042309191 -0.18989402
-0.047381621 -0.034823354 -0.18108045
-0.034850109 -0.032611743 -0.18352571
-0.017814916 -0.032894284 -0.18499899
-0.034625679 -0.02997506 -0.18315983
-0.026445486 -0.033845667 -0.17543891
-0.0027915705 -0.033545248 -0.17704818
-0.003244757 -0.027642518 -0.17733534
-0.029077392 -0.031284489 -0.16878074
-0.013034264 -0.03504657 -0.16338022
0.012062595 -0.031183556 -0.16311786
-0.003399834 -0.028913219 -0.16439737
-0.031811167 -0.036356837 -0.15021768
-0.020042192 -0.035781451 -0.15599573
-0.0045729335 -0.035535209 -0.15847471
0.0078968108 -0.035345305 -0.15894628
0.014722187 -0.035978027 -0.15100165
0.011326122 -0.029223494 -0.15113302
-0.041046165 -0.041459244 -0.14793696
-0.015939059 -0.041339528 -0.14489588
-0.025420893 -0.035861626 -0.14315751
-0.016797518 -0.034657273 -0.14649951
-0.007659669 -0.03117534 -0.14965601
0.0014657123 -0.036916062 -0.14460576
0.022817768 -0.031195376 -0.14164385
-0.022219252 -0.038248762 -0.13122146
-0.014908276 -0.034232378 -0.13465747
-0.0096188318 -0.037388351 -0.13985768
0.001711966 -0.031805687 -0.13747761
-0.014032408 -0.037674453 -0.124282
-0.00080072135 -0.033847623 -0.12329268
0.015514392 -0.032338582 -0.12086767
0.024058407 -0.036125604 -0.12569277
-0.018331362 -0.040214546 -0.11306169
-0.0047859466 -0.04139778 -0.11154533
-0.0092372652 -0.039837468 -0.11324187
0.033797681 -0.031596821 -0.11938147
0.040413812 -0.033478364 -0.11343736
0.047008887 -0.064499915 -0.10100625
0.065987214 -0.06883809 -0.10136638
0.096365884 -0.064842425 -0.10239391
0.10580672 -0.063115925 -0.10394863
0.065926015 -0.053685062 -0.10237735
0.087524995 -0.058821287 -0.10687553
0.10117367 -0.050322335 -0.10128603
-0.025076956 -0.042572036 -0.10677459
-0.01853895 -0.041131321 -0.10242242
-0.0004097544 -0.04078947 -0.10784428
0.023532221 -0.041208901 -0.10149083
0.042336278 -0.040495694 -0.10514306
-0.018934414 -0.039551221 -0.10695122
0.0096876714 -0.034700841 -0.10781287
0.015468046 -0.034675181 -0.10290407
0.021495318 -0.033597335 -0.10574977
0.03748307 -0.032189835 -0.10211264
0.087934993 -0.073573746 -0.097362213
0.05352154 -0.064820446 -0.0955474
0.096531607 -0.065616794 -0.095559902
0.096369103 -0.052178279 -0.093727902
0.10111208 -0.058168937 -0.092329569
-0.0015267982 -0.041743599 -0.096110977
0.015311869 -0.04279447 -0.096015155
0.027342515 -0.048921872 -0.094208479
0.066382281 -0.042425431 -0.092457429
0.076705165 -0.047727514 -0.092773609
0.097890742 -0.047289535 -0.091295406
-0.0027362248 -0.037609491 -0.099990606
0.05396058 -0.03791438 -0.093848482
-0.37513816 -0.0018368526 -0.094251648
-0.36727172 -0.0032552695 -0.091262765
0.062797442 -0.071012259 -0.089918919
0.059581179 -0.065293178 -0.086235389
0.064262763 -0.063753933 -0.085002445
0.082907841 -0.066311494 -0.082007647
0.061485581 -0.05592246 -0.083817244
0.089223832 -0.053784236 -0.081529506
0.099731229 -0.052438684 -0.087637357
0.10882854 -0.054944821 -0.084898032
-0.010592936 -0.042831648 -0.087810472
0.024621841 -0.043082036 -0.087979585
0.059594147 -0.041712347 -0.084223583
0.0087147569 -0.03772153 -0.086738184
0.044840068 -0.034065615 -0.081633687
0.056665652 -0.035333626 -0.087071262
-0.37622336 -0.0031873363 -0.085186899
-0.35803705 0.00011299643 -0.08952447
-0.012691725 -0.050683927 -0.076338947
-0.00068989873 -0.05009079 -0.07500387
-0.015860124 -0.044846173 -0.075211458
-0.0051147519 -0.044757608 -0.072803922
0.001231125 -0.043065242 -0.076044098
0.016110756 -0.043849535 -0.077951781
0.026003724 -0.045264445 -0.077224456
0.035845079 -0.045250077 -0.077297881
0.049485169 -0.046571787 -0.070868552
0.055407833 -0.043746289 -0.07953804
0.067975745 -0.04137066 -0.074941084
0.030398417 -0.036929112 -0.072243609
0.06415309 -0.035529479 -0.071270764
-0.37094313 -0.004587573 -0.070907846
0.01137419 -0.06422548 -0.067257538
-0.0028151756 -0.043025013 -0.064934358
0.051167153 -0.035088524 -0.066954061
-0.36969802 -0.0052038417 -0.069418617
-0.34094936 -0.0072195581 -0.060942952
0.0012504754 -0.083292469 -0.05874683
0.0077308374 -0.075318068 -0.055435792
0.018750736 -0.072662756 -0.05382736
0.022448083 -0.074451327 -0.058729179
0.012198118 -0.065388009 -0.054102354
0.044697922 -0.050364848 -0.05240199
0.060786642 -0.050844546 -0.050072365
-0.01162558 -0.046139922 -0.057620093
0.020939667 -0.049076296 -0.053208023
0.078766674 -0.044107351 -0.056595393
0.054021902 -0.035667479 -0.059371278
-0.34276995 -0.0077326521 -0.057276204
-0.33827126 -0.0082717407 -0.052968595
0.023770712 -0.07813137 -0.049611848
0.032448974 -0.050972469 -0.049439836
-0.013935404 -0.04885032 -0.047700047
-0.0037577967 -0.047348045 -0.041597839
0.0037079158 -0.049017519 -0.046582013
0.024317566 -0.040995568 -0.048752803
0.052604191 -0.037758287 -0.043894641
-0.35121271 -0.008854161 -0.047868907
-0.34277129 -0.004049717 -0.046743073
-0.01214853 -0.057327569 -0.033509661
0.015056747 -0.057626024 -0.032311942
0.057907168 -0.052977577 -0.039687727
0.01445254 -0.042729102 -0.03349828
0.038315475 -0.045737203 -0.033148825
0.046516508 -0.043576244 -0.03290724
0.064832769 -0.047167979 -0.031906735
0.07861954 -0.041384779 -0.032697231
0.091533713 -0.048365496 -0.033615936
-0.17505966 -0.034402609 -0.030452643
-0.14459561 -0.032756735 -0.030822111
-0.13895491 -0.032264523 -0.030886458
-0.12585555 -0.034649622 -0.03058536
-0.072058454 -0.031938493 -0.030917598
-0.045864023 -0.03264004 -0.030837653
-0.026004918 -0.030134076 -0.031162256
-0.01563143 -0.036956124 -0.030293895
0.033654664 -0.036103498 -0.030419523
0.0400136 -0.037584551 -0.033050518
0.053766832 -0.033419952 -0.03076954
0.06177792 -0.038949661 -0.032784652
0.093752615 -0.033613134 -0.031145953
0.13620061 -0.032201916 -0.030953797
0.14825869 -0.031935576 -0.030992033
0.18803278 -0.035694912 -0.030525755
0.19801636 -0.031076133 -0.031119552
0.27562356 -0.033487607 -0.030851223
-0.14951684 -0.023536101 -0.030517243
-0.12845966 -0.028925922 -0.031239318
-0.015059292 -0.025947627 -0.03084857
0.022313667 -0.021527879 -0.030273225
0.050736852 -0.025800232 -0.030852091
0.063548945 -0.024815092 -0.030725464
0.076644585 -0.025714379 -0.030849857
0.13415793 -0.025288006 -0.030813174
0.19226006 -0.021837685 -0.030373821
0.21752299 -0.023554193 -0.030611346
0.26177931 -0.029254429 -0.031378996
0.27493161 -0.024187922 -0.030726535
-0.35217404 -0.010345339 -0.030295819
-0.32155576 -0.010721037 -0.033698995
-0.32807568 -0.0050382339 -0.037691157
-0.044903956 -0.060037971 -0.024404231
0.0062576998 -0.063479736 -0.024852855
0.052536353 -0.061685342 -0.024872674
-0.065491587 -0.053470947 -0.02190806
-0.0029906104 -0.052130334 -0.020762762
0.086583972 -0.052706093 -0.028573433
0.097725727 -0.052120712 -0.020810273
0.11152531 -0.053500183 -0.025115523
0.12732895 -0.054265279 -0.021993889
0.20544718 -0.051137201 -0.022117592
-0.24031036 -0.040890753 -0.020274721
-0.19032378 -0.046953596 -0.023037989
-0.15578282 -0.043298673 -0.027760301
-0.12043533 -0.049115777 -0.023763547
-0.11586355 -0.045615923 -0.026439948
-0.076457337 -0.048593991 -0.024226829
-0.063328594 -0.045923561 -0.027719593
-0.057503991 -0.048318252 -0.029568326
-0.045230817 -0.048502296 -0.024256136
-0.010234725 -0.042828143 -0.027932033
0.011863012 -0.044807725 -0.026864182
0.087472826 -0.044488452 -0.026500359
0.10263152 -0.049230598 -0.023674952
0.11196065 -0.047352619 -0.025115918
0.14261173 -0.044115178 -0.027456593
0.16151339 -0.048176784 -0.024502264
0.17885877 -0.040165719 -0.029092534
0.18354484 -0.047246892 -0.025221799
0.19460858 -0.04524181 -0.02676075
0.20114028 -0.049623046 -0.023408808
0.25361675 -0.049264647 -0.023701616
0.27514756 -0.048910193 -0.023992844
0.316634 -0.041749034 -0.024912246
0.32679179 -0.043209508 -0.022474049
-0.25008136 -0.034297749 -0.023213077
-0.23668027 -0.039553866 -0.02196102
-0.21228413 -0.031470355 -0.028635094
-0.20625371 -0.036224235 -0.027635805
-0.19507703 -0.039856136 -0.027084639
-0.15586671 -0.039963406 -0.029121362
0.028580436 -0.038455237 -0.029742915
0.084871285 -0.039992698 -0.029130727
0.17043829 -0.039417211 -0.029397229
-0.23285317 -0.02171172 -0.027677422
0.24136761 -0.020501485 -0.029993853
0.32660115 -0.020095011 -0.024517316
0.33574414 -0.024771869 -0.023564018
-0.34293097 -0.011938726 -0.021910124
-0.33815187 -0.012300541 -0.021389248
-0.32123733 -0.011912314 -0.024876062
-0.3106963 -0.010706332 -0.024716016
-0.24679591 -0.013184927 -0.024401296
-0.22655728 -0.014806004 -0.02608851
-0.20533064 -0.019924201 -0.028712798
-0.15595593 -0.0148868 -0.027579091
-0.044485509 -0.010415532 -0.024494935
-0.03190456 -0.010819779 -0.024791161
-0.021098746 -0.015622496 -0.027868703
-0.012595544 -0.014606446 -0.026841126
0.0083626229 -0.01642425 -0.028209761
0.013928846 -0.010873295 -0.024817105
0.025431145 -0.012047529 -0.025730621
0.038554773 -0.016056273 -0.028066687
0.066741087 -0.010496861 -0.024543976
0.11521314 -0.016231313 -0.028166555
0.18070595 -0.016177511 -0.028166985
0.19588211 -0.016379656 -0.028256599
0.22971506 -0.01615002 -0.028172538
0.23913831 -0.016452558 -0.028302096
0.24346936 -0.012542138 -0.026149429
0.26371405 -0.010014687 -0.024245072
0.27559641 -0.011966845 -0.025763502
-0.338936 -0.0073426059 -0.022741977
-0.1895899 -0.0063114599 -0.020454705
-0.17372291 -0.0057562399 -0.020105185
-0.14581443 -0.0069533032 -0.021578442
0.027095977 -0.0064923456 -0.020857271
0.11934994 -0.0058369171 -0.020033438
0.16566263 -0.0063050012 -0.020661123
0.21525571 -0.0083712153 -0.022949858
0.23589994 -0.0098180622 -0.024077555
0.27033341 -0.0077609839 -0.022505878
-0.005690922 -0.074641049 -0.014761603
-0.014086764 -0.063816205 -0.019646581
-0.0051996047 -0.064175561 -0.014085012
0.0046346541 -0.064041004 -0.017682113
0.10072268 -0.060150959 -0.017982505
-0.19356531 -0.051624313 -0.01717378
-0.18288168 -0.054340161 -0.015975544
-0.1703877 -0.053640254 -0.019039487
-0.15757972 -0.055705324 -0.014684949
-0.14143884 -0.055699944 -0.016281776
-0.081433028 -0.057390295 -0.011902329
-0.04369767 -0.056212869 -0.017455241
-0.015245785 -0.057443112 -0.012008714
0.032937802 -0.05441986 -0.017819302
0.055662125 -0.056723181 -0.013697702
0.092180833 -0.056055471 -0.015424354
0.11473189 -0.057558794 -0.011832137
0.12370321 -0.059003025 -0.01388137
0.14580975 -0.058310881 -0.010041958
0.15667629 -0.057151392 -0.012822451
0.18511623 -0.05377942 -0.018699313
0.19806719 -0.05687061 -0.013501734
0.20227881 -0.05615861 -0.015215877
0.22691849 -0.057808571 -0.011273257
0.23748036 -0.056701083 -0.013929119
0.26349276 -0.055924371 -0.015803559
-0.24838239 -0.044570938 -0.012521064
-0.22305687 -0.048223503 -0.014962295
-0.21052966 -0.046943396 -0.01965731
-0.31711531 -0.021067198 -0.011335554
-0.28438616 -0.024807319 -0.017975245
0.36183137 -0.024684723 -0.012225365
-0.34754384 -0.011961897 -0.016546188
-0.3317188 -0.012985293 -0.010606283
-0.28242251 -0.012510027 -0.018847067
0.32716084 -0.011417951 -0.019475177
0.34541801 -0.012793411 -0.013273751
0.35638243 -0.016761541 -0.010837436
-0.33315688 -0.0073340507 -0.018021926
-0.27307075 -0.0027687708 -0.013323829
-0.26297051 -0.0073268753 -0.019023292
-0.24416476 -0.00073573674 -0.010828236
-0.2367903 -0.0037556372 -0.016596332
-0.16298318 -0.0030516787 -0.015699673
-0.13438034 -0.0012698434 -0.012627942
-0.11920214 -0.0033376324 -0.016812192
-0.070231117 -0.0020026942 -0.014681156
-0.026860863 -0.002869603 -0.015960487
-0.019458303 -0.00066153659 -0.010994517
-0.00050780177 -0.0036083579 -0.017080376
0.031357188 -0.0042771683 -0.017965175
0.071666449 -0.0015035386 -0.013000811
0.11447394 -0.0014625582 -0.012916077
0.24191637 -0.005489734 -0.019622896
0.26009482 -0.0014325076 -0.012889365
0.33489132 -0.0080688763 -0.013049071
-0.0038086991 -0.070676595 -0.0047382931
-0.014956881 -0.064163461 -0.0073684854
-0.0059016752 -0.064457633 -0.0042165224
0.024827188 -0.064362936 -0.0039914106
0.041601107 -0.063835472 -0.0096886493
0.059564181 -0.063421071 -0.0066355821
0.071093768 -0.063055389 -0.0081797065
0.12083079 -0.060896985 -0.001897855
-0.22666307 -0.051365674 -0.00030251473
-0.1712662 -0.059265956 -0.003260741
-0.14764509 -0.059113201 -0.0052837655
-0.11069106 -0.059406813 -0.0034442958
-0.10832892 -0.058994256 -0.0064100465
-0.091130212 -0.05920295 -0.004227547
-0.057044815 -0.058855891 -0.0052645928
0.02860163 -0.059685819 -0.0025170073
0.036868285 -0.059742965 -0.0020919228
0.048816934 -0.058954254 -0.0080033923
0.076149121 -0.059032407 -0.0074276174
0.10020397 -0.059900206 -0.00093639619
0.15752426 -0.059478387 -0.0041157808
0.24875183 -0.058842339 -0.0088052945
0.27697477 -0.059465554 -0.0042550936
0.28446767 -0.059843585 -0.00024973991
0.33396715 -0.056621447 -0.0057081683
-0.26057759 -0.043557316 -0.0068599219
-0.23219061 -0.049799845 -0.0057993433
0.37023401 -0.043030176 -0.0041575991
-0.29177511 -0.035655547 -0.004039587
-0.28351307 -0.036043607 -0.0098024132
0.37679151 -0.035910778 -0.0061869263
0.36613226 -0.022288477 -0.0074712802
-0.35173854 -0.010353924 -0.0067682886
0.35506976 -0.011587109 -0.0043926006
-0.36312622 -0.0055033248 -0.0048465319
-0.34257314 -0.009898968 -0.0093579246
0.31361279 -0.00073776831 -0.0003792932
0.33234224 -0.0040426785 -0.0053122435
-0.33262733 0.0087173386 -0.0014020712
-0.32150182 0.0056189615 -0.0022390918
-0.29115713 0.00011451048 -0.0065576909
-0.26437515 0.0043169595 -0.001596242
-0.22627707 0.00096716377 -0.0044773268
-0.21843681 0.001315054 -0.0018000331
-0.16588578 0.0011243536 -0.0024524357
-0.13517708 0.00086372031 -0.0051992745
-0.076932326 0.00085767463 -0.0054163253
-0.061292272 0.0012237804 -0.0014132382
-0.021711254 0.0013064421 -0.0009216402
0.011347955 0.0010488364 -0.0029207077
0.11742464 0.00098081189 -0.0034901511
0.15814352 0.0013173413 -0.00087100756
0.17346373 0.00067000301 -0.0054790596
0.18136509 0.0011796305 -0.0019567488
0.25352243 0.0012495002 -0.0014352715
0.28652412 0.0012628296 -0.0040400913
-0.27876848 0.016710641 -0.0014506181
-0.33841199 0.029443568 -0.0015921224
-0.32652846 0.026034636 -0.0025344996
-0.32101315 0.034834828 -0.0030809322
-0.35424843 0.064207472 -0.0016338811
-0.34236217 0.06531173 -0.0022588363
-0.33671701 0.074614033 -0.00056214421
-0.37358767 0.085637987 -0.00058298511
-0.0089660045 -0.084736936 0.0015921732
0.034837924 -0.064131893 0.0059923665
0.042035796 -0.063884571 0.008522775
0.050446633 -0.063716464 0.0061679673
0.092773221 -0.062574871 0.0044449321
-0.21790847 -0.052169219 0.005217378
-0.20320204 -0.054022163 0.0077156769
-0.17279166 -0.055922173 0.0065342323
-0.14462656 -0.058813915 0.0056605637
-0.12499582 -0.058008626 0.0095300367
-0.079927191 -0.057727933 0.0097722411
-0.06961716 -0.051833216 0.0013107944
-0.055478215 -0.058272198 0.0075716856
-0.040540233 -0.059427772 0.0019432884
-0.0013362198 -0.05907122 0.005910472
0.022219216 -0.059189193 0.0049765483
0.068547204 -0.058938798 0.0069250567
0.070120066 -0.05913486 0.0053861216
0.095763102 -0.059002593 0.006414969
0.10381728 -0.059179414 0.0049917898
0.12659347 -0.058333181 0.0085463328
0.13342571 -0.059467662 0.0027525763
0.16677451 -0.05907584 0.0058153421
0.20514575 -0.059747729 0.00052991847
0.21126869 -0.0579581 0.0094294613
-0.26479596 -0.042733945 0.0038519797
-0.2934306 -0.035056673 0.0039896118
-0.32106489 -0.02465133 0.00095245492
-0.31258374 -0.025409766 0.0082498193
0.36621302 -0.023372065 0.0078072953
0.37649509 -0.029136552 0.0049647018
-0.3491773 -0.011939939 0.0099650994
-0.34156263 -0.0084168334 0.0079044001
-0.30701178 -0.0018871715 0.0087377708
-0.17279109 -0.0034081549 0.0084337592
-0.020618644 -0.0003939312 0.0090965964
-0.013092633 -0.00060712622 0.0095350035
0.029959759 -0.00026326068 0.0086752931
0.1335488 -0.00030847039 0.0087472796
0.1444158 -0.00020861875 0.0085043712
0.22772576 -0.00067765202 0.0095983399
0.25475448 -0.00033246528 0.0087622339
0.30527183 -0.0016385827 0.0088089965
0.31293362 -0.0010387063 0.0023545877
-0.31499994 0.001055974 0.0016307711
-0.2140491 0.0013667066 0.00023350201
-0.13764618 0.001156552 0.00065065152
-0.12459484 0.00035828174 0.0073632146
-0.11276415 0.00092537573 0.0023943591
-0.10864004 0.0011856781 0.00041196129
-0.093599536 0.00067486323 0.0052636801
-0.024248689 0.00089892326 0.0027021195
-0.0077045746 0.00093938183 0.0024897356
0.026667461 0.0009589087 0.0023310529
0.059446249 0.00097935682 0.002166009
0.11804234 2.4943911e-05 0.0079543209
0.19818185 0.00040899939 0.0064008464
0.20020437 0.00031125272 0.007134221
0.21411467 0.00019051402 0.0074329823
0.23790494 0.00069022021 0.004274955
0.2539905 0.0010883905 0.001279043
-0.3160167 0.013760936 0.002075
-0.34261015 0.02394367 0.00039077387
-0.30501911 0.022923239 0.0023217918
-0.31890202 0.046837527 0.0020737941
-0.34017268 0.053909436 0.0019829101
-0.36259744 0.070344746 0.00048011926
-0.35108858 0.079760879 0.0014760824
-0.36741972 0.086087063 0.00065822585
-0.0049190577 -0.070688516 0.013118286
-0.001113097 -0.064114407 0.018033985
0.026668262 -0.063974723 0.019987959
0.079413809 -0.062839873 0.010672168
0.10156218 -0.061949451 0.010174887
-0.12441686 -0.053408831 0.017879814
-0.086863995 -0.054430418 0.016714176
-0.064091206 -0.054885004 0.014871485
-0.052639309 -0.054731272 0.01626293
-0.0036898055 -0.057747595 0.010016862
0.00062338635 -0.056871343 0.012147656
0.01507888 -0.054677773 0.016023058
0.048433091 -0.051827855 0.019851457
0.097027637 -0.057417106 0.010785955
0.10990024 -0.054565862 0.016253486
0.11930781 -0.057694681 0.010102698
0.12881069 -0.055608325 0.018216994
0.1314908 -0.057149656 0.013484102
0.17854303 -0.052507456 0.018918162
0.19105396 -0.051678609 0.019996459
0.21546304 -0.056262545 0.013554178
0.24423896 -0.052167378 0.019339452
0.27689886 -0.056582861 0.012739164
-0.22356583 -0.045310415 0.017639574
0.32741365 -0.046244383 0.018543458
0.34285846 -0.045444943 0.014906895
-0.28628322 -0.032198254 0.012816563
-0.25684533 -0.036251672 0.018693151
0.36685184 -0.032334358 0.011656682
-0.35281068 -0.010861639 0.018461255
-0.33721855 -0.01272178 0.018226586
-0.31515729 -0.013936953 0.015529318
-0.28291848 -0.011528598 0.017842563
-0.17278767 -0.01705924 0.017012268
-0.29451245 -0.0063615665 0.013521266
-0.25002056 -0.0061461334 0.018046472
-0.22305493 -0.0042195362 0.016306864
-0.18591128 -0.0038821206 0.015460289
-0.06575004 -0.0020742069 0.013520581
-0.055788938 -0.0030300103 0.015011574
-0.043995086 -0.0022147449 0.01366385
-0.022483611 -0.0027097121 0.013910537
-0.016276734 -0.0058657704 0.018741276
-0.0093415156 -0.0033546339 0.015471488
0.030182028 -0.0031062528 0.01513697
0.083427563 -0.0037159272 0.015905501
0.11065751 -0.0018251364 0.012387084
0.13830078 -0.0037760853 0.014890619
0.14838079 -0.0054071136 0.018066322
0.18555009 -0.0063555208 0.019277839
0.20028758 -0.0047054351 0.017142175
0.21207435 -0.005049333 0.017582068
0.22541186 -0.0049508773 0.017450301
0.29527578 -0.0071162526 0.019377928
0.33140397 -0.0088155735 0.013692673
-0.01811973 -0.06342195 0.024761641
0.0046441313 -0.063991196 0.022608778
0.060132295 -0.062766366 0.02056274
-0.1738479 -0.050551426 0.021326717
-0.13691019 -0.051367171 0.020596704
-0.10409 -0.051478669 0.020484883
-0.066014901 -0.053605799 0.025494514
-0.054014202 -0.058146767 0.025404666
0.088420495 -0.058767036 0.021247769
0.093990684 -0.052537188 0.0267708
0.15403427 -0.051312402 0.020487776
0.18123783 -0.050854251 0.020996289
0.27179331 -0.050461851 0.021258213
-0.23227341 -0.040184148 0.021045987
-0.21393788 -0.043081291 0.02162098
-0.15475419 -0.041922871 0.027040435
-0.13332193 -0.041137073 0.027343556
-0.096543819 -0.046078812 0.024845909
-0.054217979 -0.04696475 0.02866118
0.031592563 -0.047812149 0.023404885
0.051688027 -0.04244224 0.026757091
0.06610024 -0.049560014 0.022039035
0.088236161 -0.046181995 0.02464764
0.097344883 -0.045790255 0.029766425
0.11594964 -0.043978091 0.026546825
0.17116755 -0.045676976 0.025009742
0.19285762 -0.049075298 0.022370059
0.25358903 -0.047061108 0.023908831
0.27162087 -0.046768617 0.024118818
0.28993043 -0.046851814 0.023983706
0.30526146 -0.045557048 0.023108771
-0.22888538 -0.032640211 0.025748087
-0.17278379 -0.032289986 0.028433681
-0.13570406 -0.030276082 0.029873971
-0.10220967 -0.038994484 0.028248485
-0.082545228 -0.031703543 0.029696003
-0.053114504 -0.037255824 0.028874118
-0.045676343 -0.035497807 0.02918141
-0.025510212 -0.035392631 0.0291859
-0.014273959 -0.039094962 0.028179424
0.042581044 -0.033773262 0.029378489
0.079530478 -0.036458489 0.029007053
0.14509448 -0.037281267 0.028555432
0.15236929 -0.034494627 0.029243704
0.1700913 -0.031196978 0.029677752
0.23040071 -0.034893405 0.0291632
0.2504251 -0.032788534 0.029437246
0.26637405 -0.031365011 0.029614581
0.28482577 -0.035425425 0.029054644
0.30601618 -0.032665845 0.027581319
0.31620988 -0.038052097 0.024904383
-0.27337369 -0.020704068 0.021403382
-0.22499123 -0.025145534 0.027394736
-0.21762213 -0.022378989 0.027440578
-0.18810603 -0.020382328 0.028053071
-0.15456852 -0.028107414 0.029838569
-0.091148801 -0.02969379 0.029959621
-0.081685632 -0.029208073 0.02998234
-0.074063331 -0.027479693 0.029764809
-0.030907512 -0.025345962 0.029478265
-0.00085264735 -0.021368161 0.028938353
0.062452551 -0.021221912 0.028855952
0.074191332 -0.027383966 0.029698899
0.11547027 -0.021145971 0.028806191
0.13680778 -0.020668231 0.028602336
0.19190097 -0.024061192 0.029234201
0.21641158 -0.021535356 0.028903631
0.30837521 -0.02702691 0.027380181
0.32722142 -0.022586031 0.023723701
-0.35355976 -0.01044496 0.028830564
-0.34567732 -0.011419989 0.025812462
-0.32751018 -0.012080599 0.024030499
-0.24206215 -0.013014311 0.023464691
-0.19199015 -0.01636494 0.026324399
-0.14196841 -0.017821405 0.027522691
-0.12173803 -0.013463931 0.02501935
-0.10672645 -0.012019677 0.024463182
-0.071423925 -0.019684939 0.028301144
-0.063252173 -0.011732221 0.024276543
-0.036320798 -0.019847956 0.028341418
-0.01663343 -0.017724145 0.027450863
0.07041619 -0.014045332 0.025903553
0.11571775 -0.017051766 0.027123336
0.15806557 -0.012719077 0.024859926
0.17995621 -0.018921429 0.027869273
0.22482848 -0.018255699 0.027579844
0.29431283 -0.01536414 0.025563147
0.31431603 -0.013394101 0.021789489
0.32455295 -0.014351165 0.020594768
0.013166606 -0.0074475813 0.020748066
0.093840167 -0.0080249831 0.021288963
0.13020162 -0.0070975851 0.020255288
0.0083418824 -0.061021514 0.030331597
0.0010534822 -0.050898217 0.036084745
0.025145655 -0.053640787 0.03298289
0.050557893 -0.053916994 0.035151519
0.088817507 -0.050220974 0.033550564
-0.0062288451 -0.048713978 0.037039518
0.0050930735 -0.043830968 0.032884952
0.023350973 -0.042999465 0.033437941
0.058504969 -0.04020834 0.031479444
0.068783492 -0.04214232 0.031494647
0.084271446 -0.04600969 0.030536167
0.096086815 -0.043931462 0.034007825
0.014977437 -0.038298026 0.031943187
0.041629877 -0.037977353 0.031683322
0.065073594 -0.038040578 0.032164034
-0.32980385 -0.0051282551 0.037843809
0.01676457 -0.081116334 0.048310444
0.022872642 -0.074514546 0.049449656
-0.0094156042 -0.050126828 0.040298183
-0.0091950065 -0.049832456 0.04233171
0.084760353 -0.044728979 0.047553383
0.090004168 -0.044044126 0.040489268
0.054695759 -0.037671283 0.044285454
0.081589274 -0.039584763 0.049403884
-0.34552801 -0.0094558001 0.044793181
0.0010822418 -0.080142707 0.056094065
-0.0011146123 -0.078306548 0.056994211
0.00056286366 -0.077411383 0.052993946
0.013603032 -0.076707788 0.055048339
0.02091464 -0.074748658 0.05147054
-0.0038247297 -0.04665627 0.056629907
0.031440526 -0.049212806 0.059299454
0.075222544 -0.0448706 0.059272248
-0.35590634 -0.004682275 0.055041011
-0.33336145 -0.0087125916 0.05076826
-0.0070909462 -0.081067264 0.062912688
0.0033503803 -0.081304982 0.062735431
0.019206109 -0.086784378 0.062850364
0.020228853 -0.079378419 0.062530592
0.011831325 -0.062308788 0.066475689
0.0076250359 -0.050732512 0.064950943
0.049078874 -0.048922472 0.060748309
0.067735918 -0.046652388 0.061188035
0.064211242 -0.035144441 0.066611901
-0.37114832 -0.0051866593 0.069623433
-0.35307741 -0.0067034238 0.067224175
-0.34479707 -0.00410238 0.068827488
-0.014009639 -0.045532603 0.072235927
0.0069714319 -0.040244158 0.075348899
0.011571128 -0.047805056 0.074442111
-0.34945726 -0.0034815818 0.079069301
0.10405078 -0.071429975 0.086039208
0.062120717 -0.063476935 0.084237039
0.10497061 -0.06626071 0.083408996
0.063579798 -0.056682091 0.082965687
0.075136758 -0.054656748 0.082136571
0.099863529 -0.050156746 0.085661836
0.057654556 -0.043454371 0.080333672
0.08864183 -0.048515603 0.087413482
-0.00085225556 -0.03943558 0.086365514
-0.36739138 -0.0041007586 0.088276207
0.055668108 -0.061626617 0.098173164
0.060032792 -0.067556202 0.091413416
0.098000728 -0.064496063 0.090883464
0.061500899 -0.054739524 0.095461734
0.098041795 -0.055142865 0.09401992
0.011641379 -0.042908706 0.093357839
0.02250012 -0.04434859 0.095991746
0.039746527 -0.041954808 0.099139988
0.073816411 -0.048719779 0.094383441
0.085213542 -0.048566714 0.098494396
-0.37019897 -0.00084986171 0.095528096
0.096479341 -0.068056539 0.10195924
0.083814129 -0.052306484 0.10331501
-0.010432051 -0.04160681 0.1031206
-0.0075751161 -0.041985974 0.10903986
0.008328679 -0.041856602 0.10039777
0.016894974 -0.041156374 0.10785573
0.015931526 -0.035456922 0.10069603
0.038028143 -0.032530602 0.10925425
-0.03425068 -0.046274066 0.11063848
-0.010293809 -0.040777318 0.11190395
-0.0081185754 -0.046354584 0.11052968
0.0075079394 -0.040872537 0.11088334
-0.020550232 -0.038820975 0.11707783
-0.011279505 -0.036811195 0.11828457
-0.0024158473 -0.035763271 0.11633671
0.0059706997 -0.034738299 0.11546102
-0.02126082 -0.039191119 0.12882507
-0.017330481 -0.039809529 0.1222277
0.0071196975 -0.039501738 0.12548937
0.018066704 -0.039581023 0.12464073
0.039000701 -0.038237661 0.12008618
-0.015655098 -0.034991324 0.13541189
0.006230494 -0.038773686 0.13324711
0.019246135 -0.031342402 0.13074496
0.025476601 -0.037726413 0.13728422
-0.035734013 -0.044220608 0.1448743
-0.0076253279 -0.040422965 0.14505857
-0.03519439 -0.03907676 0.14406148
-0.026556814 -0.037737895 0.14429459
0.019835159 -0.031155124 0.14428537
0.023443101 -0.033070419 0.14368555
-0.033005603 -0.035158191 0.1550114
-0.011440983 -0.031473745 0.15719017
-0.006530412 -0.0316316 0.15207237
0.011004393 -0.029922003 0.15615927
-0.042997148 -0.035849843 0.16447806
-0.024869166 -0.035452973 0.16864024
-0.0085587408 -0.030147338 0.16655864
0.0017000353 -0.029249523 0.16426986
-0.025763856 -0.032117669 0.17483898
-0.0063755419 -0.050162736 0.18983907
0.0073299757 -0.053460099 0.18826008
-0.0021993679 -0.047328085 0.18990266
-0.034639426 -0.033447601 0.1875838
-0.021708934 -0.03416571 0.18235488
0.0011872742 -0.031868905 0.18181185
-0.021237595 -0.029542714 0.18149053
-0.017374631 -0.028973754 0.18350786
-0.0082092853 -0.028176561 0.18455116
0.02783189 -0.062130742 0.19352794
-0.023132309 -0.057121135 0.19497001
-0.013863425 -0.055858657 0.19215399
-0.0048189592 -0.056786187 0.19982237
0.028197099 -0.051805083 0.19365016
0.0011828633 -0.041380346 0.19377315
-0.052784592 -0.032215476 0.19680904
-0.043258458 -0.032680064 0.19818763
-0.024347648 -0.03161348 0.19906789
-0.0093813222 -0.030116931 0.19833529
0.018589053 -0.039303072 0.19374868
-0.018702447 -0.028017696 0.19285512
0.024087157 -0.06275399 0.20775841
-0.02123775 -0.058098953 0.20619524
-0.01388563 -0.057990264 0.20482929
-0.0066726031 -0.057950929 0.20462754
0.029207565 -0.056885712 0.20971853
-0.046819951 -0.042204496 0.20206517
-0.037715182 -0.042436406 0.20223369
-0.027696574 -0.042948347 0.20147449
0.016855028 -0.04094515 0.20994079
0.029521264 -0.042391524 0.20448032
-0.063263379 -0.038283933 0.20004177
-0.052714471 -0.034828011 0.20204394
-0.042375386 -0.032125466 0.20400912
-0.038366728 -0.03202622 0.20543495
-0.029837223 -0.032413233 0.20098399
-0.0030496076 -0.038495909 0.20320068
0.016864676 -0.038059264 0.20333491
0.026404876 -0.060055748 0.21067412
0.026315399 -0.054572951 0.2120776
0.037913531 -0.053733394 0.21188095
0.035729192 -0.046297859 0.21174353
-0.046211004 -0.030635973 0.22245646
-0.034356352 -0.030620001 0.22265138
-0.030726189 -0.025935683 0.22901532
-0.066330135 -0.02910112 0.23218091
-0.057390265 -0.025695827 0.24277809
-0.062616527 -0.026360821 0.2543329
-0.072072171 -0.024156444 0.26926544
-0.062459156 -0.023877518 0.26127574
-0.058406927 -0.023550082 0.26062116
-0.077134877 -0.02362051 0.27871543
-0.091604866 -0.025225947 0.28984806
-0.086261898 -0.024917996 0.28173915
-0.067240611 -0.02583299 0.28164992
-0.093704112 -0.024870919 0.29123062
-0.083725199 -0.020515053 0.299119
