# .PCD v0.7 - Point Cloud Data file format
VERSION 0.7
FIELDS x y z
SIZE 4 4 4
TYPE F F F
COUNT 1 1 1
WIDTH 834
HEIGHT 1
VIEWPOINT 0 0 0 1 0 0 0
POINTS 834
DATA ascii
-0.11636233 -0.042635351 -0.3532967
-0.1043952 -0.041154988 -0.34425619
-0.080405802 -0.040281255 -0.34280238
-0.092765734 -0.039557993 -0.3468526
-0.10485423 -0.043383613 -0.33551809
-0.085131004 -0.040895078 -0.33115324
-0.067710981 -0.043970905 -0.33214581
-0.10222943 -0.045703709 -0.32201725
-0.088219568 -0.043278616 -0.32240391
-0.074201688 -0.041491803 -0.32508463
-0.10047961 -0.04704833 -0.3165639
-0.077377364 -0.045132235 -0.31457233
-0.06070517 -0.047019776 -0.31176013
-0.086224668 -0.048531488 -0.30603921
-0.067146942 -0.048350953 -0.30362514
-0.089956962 -0.049869042 -0.29023805
-0.063486844 -0.044398308 -0.29815587
-0.068812236 -0.0512776 -0.28287035
-0.053561524 -0.050000601 -0.28907439
-0.086449124 -0.049600288 -0.28891259
-0.063519508 -0.04716374 -0.28361672
-0.035299283 -0.049871262 -0.28376287
-0.043569185 -0.051816672 -0.27392161
-0.021591811 -0.050127797 -0.27010369
-0.065660991 -0.053450573 -0.26670742
-0.023071213 -0.049091235 -0.25221115
-0.060007241 -0.054115519 -0.243388
-0.039837893 -0.051246293 -0.24513975
-0.021183006 -0.054649901 -0.24909532
0.00648082 -0.082364656 -0.23766774
0.011403586 -0.089456886 -0.23452923
0.034877922 -0.085349835 -0.23966303
0.040404044 -0.087184541 -0.23817351
0.049687326 -0.077521265 -0.23832412
0.0072004246 -0.068785727 -0.23731394
0.025675846 -0.063324153 -0.23136404
-0.027429543 -0.051565155 -0.23574303
0.053185523 -0.090185657 -0.2209789
0.0033267741 -0.08584632 -0.22920549
0.0478299 -0.087186337 -0.22506686
-0.017012447 -0.076822013 -0.2255621
-0.0044935425 -0.070368573 -0.22513217
-0.052200511 -0.060134295 -0.22256084
-0.026821937 -0.063875847 -0.2245543
-0.010504485 -0.062810257 -0.22840983
-0.0070061218 -0.066664346 -0.22371243
0.0088590151 -0.063395917 -0.22641727
0.010532381 -0.063855857 -0.2270954
-0.040078543 -0.059865054 -0.22504213
-0.033714898 -0.054249264 -0.22427154
-0.02082056 -0.052169755 -0.22833738
-0.01004583 -0.059001952 -0.22381392
0.0090342816 -0.0548301 -0.22752339
0.020335278 -0.090893693 -0.21979232
0.0082313679 -0.083108604 -0.21360922
0.036844715 -0.086501092 -0.2144489
0.054051463 -0.08644437 -0.21836896
-0.071528658 -0.065254927 -0.21992373
-0.060467996 -0.061946061 -0.21598256
0.037546422 -0.069090575 -0.21380466
-0.012459673 -0.05963137 -0.21207279
0.0060322038 -0.052888859 -0.21471718
-0.033417471 -0.061314635 -0.20673317
0.0087931054 -0.06000229 -0.20521462
0.012605038 -0.060537416 -0.20070066
-0.0064976923 -0.062868983 -0.1907147
0.030255014 -0.060429323 -0.19287853
0.0058402182 -0.055626214 -0.1923911
0.013171889 -0.055630825 -0.1903801
0.027568698 -0.055166855 -0.19668703
-0.041357949 -0.064772397 -0.18621227
-0.0040442687 -0.064144112 -0.18154481
0.031489722 -0.062215161 -0.18249047
-0.0090409666 -0.058263913 -0.18691956
-0.041999158 -0.066375621 -0.17265345
-0.032362912 -0.064481393 -0.17353112
-0.02609642 -0.066239357 -0.17557259
-0.00720981 -0.064805545 -0.17801808
0.033797506 -0.062916547 -0.17751187
0.0025463204 -0.058202714 -0.17999196
0.015213608 -0.057467736 -0.17553575
-0.03175446 -0.067694128 -0.16700651
0.051193669 -0.058635294 -0.1608766
0.097388804 -0.086324975 -0.15042071
-0.033289615 -0.070206702 -0.15136901
-0.018713918 -0.077466182 -0.15076342
-0.0088691022 -0.068305597 -0.15861991
0.01317155 -0.065264449 -0.15149722
0.035366457 -0.065952733 -0.15858194
0.040742703 -0.066328451 -0.15459058
0.058634453 -0.060984634 -0.15948431
0.071912184 -0.08618252 -0.14336333
0.080633961 -0.087448746 -0.14898956
0.11914796 -0.083135538 -0.14941591
-0.014434038 -0.071461119 -0.14269295
-0.0074548428 -0.070429184 -0.14570841
0.11561817 -0.077248394 -0.14301649
-0.015748922 -0.068372816 -0.14340863
0.0020981615 -0.064001687 -0.14991519
0.014485989 -0.0689677 -0.14733979
0.020985574 -0.065322042 -0.14810613
0.054900922 -0.066321373 -0.14819491
-0.30782336 -0.031969745 -0.14341426
0.076121658 -0.10099804 -0.13272876
0.11347567 -0.10327715 -0.13389251
0.11889 -0.098339714 -0.13050808
0.062566482 -0.085651956 -0.13401067
-0.013840966 -0.071883619 -0.13259837
0.05399267 -0.078492187 -0.13308598
0.070255756 -0.072349146 -0.13245785
0.081684098 -0.071993589 -0.13763601
0.090539828 -0.073791556 -0.13712479
0.016442772 -0.065339647 -0.13331816
0.021322345 -0.06464012 -0.13361908
0.036169041 -0.062003985 -0.13690966
0.046918951 -0.061999671 -0.13140859
0.079278253 -0.06709671 -0.13462104
-0.30001622 -0.030893145 -0.13938203
-0.29567227 -0.031029455 -0.13642032
0.10031442 -0.10194429 -0.12793002
0.11893687 -0.10099164 -0.12785792
0.085233495 -0.096986353 -0.12424329
0.093225434 -0.095216103 -0.1220421
0.071040809 -0.080415606 -0.1261819
0.11436842 -0.086267203 -0.12371675
0.12266799 -0.083914921 -0.12174494
-0.0026960152 -0.074341595 -0.12314872
0.051937468 -0.070424773 -0.12511665
0.12230719 -0.079459354 -0.12418631
0.0013706607 -0.069091171 -0.1274671
0.078445658 -0.062407784 -0.12193139
0.084042132 -0.064898409 -0.12478483
-0.28563088 -0.03171555 -0.12556043
-0.022369975 -0.082399465 -0.11123518
-0.0035132475 -0.082100816 -0.11315203
0.0089016594 -0.083971739 -0.11037365
-0.0094006676 -0.07612291 -0.11377673
0.042793177 -0.073702604 -0.11014868
0.035067964 -0.067368269 -0.11002325
0.064835735 -0.063126564 -0.11597247
0.090012759 -0.064102061 -0.11326489
-0.3127594 -0.033902276 -0.11751856
0.0070243911 -0.080486365 -0.10634789
-0.0088122338 -0.076626502 -0.10222024
0.097294219 -0.070213079 -0.10124221
0.06469065 -0.06418094 -0.10850354
0.097900733 -0.064706154 -0.10132007
-0.27463785 -0.032472618 -0.1067658
-0.015905784 -0.078697905 -0.099117927
-0.0015037325 -0.078475393 -0.099051714
0.010375712 -0.074518658 -0.096469492
0.046319313 -0.075375728 -0.098608762
0.066865146 -0.074050874 -0.098210573
0.079891369 -0.064959057 -0.096557707
0.087510645 -0.065220296 -0.090945989
-0.29531255 -0.034422889 -0.094838925
0.03343932 -0.075970374 -0.084435612
0.092325307 -0.075333282 -0.080046162
0.111009 -0.07130155 -0.082432799
0.077708162 -0.066728696 -0.085471958
0.10742338 -0.06532599 -0.086690091
-0.25854102 -0.035461489 -0.080968663
0.017875975 -0.081461251 -0.078446478
0.022672158 -0.081422262 -0.076688208
0.042502858 -0.082711548 -0.073882088
0.086242497 -0.068220168 -0.071022362
0.095916986 -0.06668774 -0.076672778
-0.26295111 -0.035897989 -0.074359842
0.0086692059 -0.090447702 -0.06979353
0.0054111169 -0.086119458 -0.066577457
0.01569807 -0.081493802 -0.061194997
0.028605305 -0.078077242 -0.06703461
0.031277962 -0.078496017 -0.063242458
0.074282482 -0.079194695 -0.066520393
0.096921906 -0.068750933 -0.061428301
0.10865364 -0.066878118 -0.068984024
-0.27600157 -0.038036462 -0.061109424
-0.25507367 -0.034124728 -0.067745149
0.0442641 -0.10463244 -0.052486259
0.055942409 -0.1065589 -0.051248755
-0.0056539192 -0.086491808 -0.053964354
0.016062226 -0.083073296 -0.05369461
0.026322708 -0.084707297 -0.058752891
0.033146355 -0.085646346 -0.051158044
0.059555136 -0.083178364 -0.051053323
0.06336315 -0.081240401 -0.059915327
0.096565254 -0.079214051 -0.055203982
0.12800112 -0.072625332 -0.057870127
-0.26115736 -0.038571231 -0.058351643
-0.2257295 -0.035305902 -0.052883595
0.044352897 -0.10580528 -0.042852174
0.060418904 -0.10588297 -0.043606196
0.052830473 -0.097971104 -0.046797901
0.026359305 -0.083796509 -0.044070851
0.040343396 -0.086788177 -0.042421024
0.056407686 -0.085533909 -0.04117186
0.087276228 -0.072735906 -0.04288134
0.10348957 -0.070261091 -0.046636641
0.11234079 -0.069053926 -0.049970478
0.13824113 -0.069969758 -0.046712309
-0.25292015 -0.037589647 -0.045175947
-0.21870598 -0.039746661 -0.046233132
0.046797793 -0.08423797 -0.031165769
0.062500738 -0.081421077 -0.030289819
0.055795353 -0.079467304 -0.039399985
0.06118843 -0.078925863 -0.037126053
0.074148297 -0.077711776 -0.03161931
0.10154784 -0.072397783 -0.031932633
0.11537427 -0.076361187 -0.030355273
0.13410813 -0.077650949 -0.039709751
-0.091087028 -0.066510543 -0.030548941
-0.02478594 -0.060963318 -0.032780953
-0.0011982266 -0.064368479 -0.031535305
0.018036447 -0.064741746 -0.03136345
0.031175651 -0.065206781 -0.031149212
0.074930288 -0.063813262 -0.031790309
0.13051784 -0.061184574 -0.032726724
0.1904493 -0.061028376 -0.032241747
-0.14815046 -0.05211534 -0.030148141
-0.13548538 -0.050496832 -0.032344911
-0.075748317 -0.053708531 -0.034344122
-0.0598513 -0.055522539 -0.033953458
-0.041617297 -0.054197531 -0.034239002
0.011820821 -0.059084259 -0.033185832
0.12687698 -0.051216796 -0.034525398
0.13031095 -0.053194031 -0.034455024
0.18003768 -0.05110554 -0.034053214
0.20897895 -0.058295213 -0.03257072
-0.20868519 -0.040805217 -0.03487109
-0.084971279 -0.049366467 -0.034525398
-0.056824006 -0.049588852 -0.034525398
-0.025218418 -0.042878069 -0.034460582
-0.010928395 -0.049726959 -0.034525398
0.041262899 -0.045951799 -0.034525398
0.086657465 -0.048246894 -0.034525398
0.13457751 -0.043180641 -0.034525398
0.18999404 -0.040852241 -0.033139855
0.23895478 -0.048050366 -0.031664647
-0.26450884 -0.037140287 -0.032420833
-0.13455383 -0.035864636 -0.031284135
-0.054172643 -0.039027758 -0.033629343
-0.031796869 -0.030439235 -0.030963344
0.0042300252 -0.036120567 -0.033001836
0.11921526 -0.035327189 -0.032830529
0.14756182 -0.036059331 -0.032988541
0.15765846 -0.034873776 -0.032674473
0.1667794 -0.030097846 -0.030414838
0.17712364 -0.033610407 -0.031675842
0.18205737 -0.036129594 -0.032319691
0.22053711 -0.035817333 -0.030582428
-0.0080318181 -0.10732749 -0.023908511
0.022714017 -0.10538782 -0.022483353
0.034910921 -0.10812368 -0.020318365
-0.028916797 -0.09080077 -0.024787813
0.048834544 -0.091085464 -0.028285239
-0.065778114 -0.08337602 -0.02341935
-0.05795303 -0.080478534 -0.025453288
-0.047457039 -0.080052696 -0.027384643
-0.0258446 -0.088610396 -0.028352637
0.046587132 -0.089800715 -0.02921935
0.10391489 -0.08968363 -0.021768354
0.15594202 -0.08055225 -0.024936602
-0.1246466 -0.07131353 -0.025195494
-0.094410479 -0.075964302 -0.024564967
-0.075963311 -0.073536426 -0.026451085
-0.0450783 -0.070450567 -0.0269088
-0.035774648 -0.072927147 -0.026921619
-0.027204899 -0.075495183 -0.029750289
0.075089917 -0.079018094 -0.021729261
0.084447816 -0.076042637 -0.02948967
0.12785511 -0.073497087 -0.026473282
0.13227727 -0.071108781 -0.024352623
0.18127072 -0.077469163 -0.023020605
0.21351957 -0.072101295 -0.026997263
0.22535053 -0.078893729 -0.021001104
0.23582686 -0.071035504 -0.026686242
-0.16311973 -0.061500013 -0.024618976
-0.1596844 -0.06415955 -0.023934867
-0.090055756 -0.068145052 -0.029796284
-0.026121289 -0.06832844 -0.029086029
0.0022693977 -0.0683593 -0.029730409
0.16840003 -0.068865821 -0.029306134
0.23681809 -0.063820943 -0.029948767
0.25299913 -0.067228056 -0.027335115
0.29917133 -0.06665691 -0.02091177
-0.16241053 -0.058327138 -0.026216736
0.30264419 -0.058551338 -0.020499328
-0.2325719 -0.040633231 -0.024395719
-0.16871978 -0.043840528 -0.027900003
-0.2404476 -0.037262723 -0.022210866
-0.23429215 -0.036813632 -0.023135003
-0.19441925 -0.03760694 -0.024034722
0.22948134 -0.034555875 -0.029178407
0.25940841 -0.030227605 -0.022065274
0.26539063 -0.036676422 -0.02475417
-0.20345433 -0.026871298 -0.020161726
-0.16204044 -0.020551203 -0.020904494
-0.14177769 -0.026183262 -0.026947804
-0.13355929 -0.023224769 -0.025937526
-0.088337079 -0.025633432 -0.028759371
-0.024395909 -0.023932921 -0.02757391
0.014827073 -0.024348658 -0.027897153
0.063080169 -0.027560662 -0.029643411
0.11469188 -0.027323678 -0.029534712
-0.130777 -0.019333903 -0.023047499
-0.12276 -0.016363095 -0.02038461
-0.087903038 -0.017602578 -0.022476265
-0.07538788 -0.017094482 -0.021831885
-0.012964731 -0.016488915 -0.021063892
0.033118386 -0.016271286 -0.020787887
0.12002102 -0.017988715 -0.022952314
0.003287293 -0.10609944 -0.016080508
0.031516969 -0.10875759 -0.012540238
0.02416154 -0.094027445 -0.012551899
0.066829979 -0.092189923 -0.019549564
0.084533498 -0.090982497 -0.017955808
-0.084347539 -0.083854333 -0.014651386
0.019982982 -0.08077658 -0.014816057
0.08592917 -0.085870363 -0.010669281
0.11326082 -0.081539311 -0.018528596
0.15158071 -0.086574249 -0.014360132
0.16803405 -0.081932887 -0.017959978
0.17513716 -0.084131494 -0.01318088
0.21993409 -0.082149491 -0.017075893
0.29229352 -0.080920935 -0.012690367
-0.17932482 -0.072042875 -0.011320628
-0.1561487 -0.074112393 -0.015546238
0.30358404 -0.0760649 -0.015204441
-0.21025789 -0.060430404 -0.016042352
-0.20957507 -0.065552086 -0.01125579
-0.17759018 -0.068195604 -0.016833261
-0.23573692 -0.051329531 -0.015465194
-0.22467154 -0.057077657 -0.014897162
-0.20659631 -0.058809999 -0.017961567
-0.26277721 -0.044320565 -0.012333145
-0.24001358 -0.041744065 -0.015650224
-0.23534192 -0.042156138 -0.017803542
-0.22315125 -0.044007204 -0.019159447
0.303186 -0.044815797 -0.01352877
-0.22783953 -0.035102129 -0.018616611
0.27715492 -0.033229455 -0.019101102
0.24009226 -0.021123949 -0.018061955
-0.1798638 -0.013990141 -0.012089767
-0.15310542 -0.017063431 -0.018903151
-0.14770356 -0.012839911 -0.01427377
-0.092802852 -0.014759365 -0.018870436
0.0090424363 -0.014462107 -0.018493444
0.047191318 -0.01062766 -0.011718145
0.054138791 -0.012482109 -0.015982363
0.1061204 -0.011190953 -0.01301818
0.11527853 -0.010189848 -0.010707708
0.14215475 -0.010693322 -0.011869688
0.17125285 -0.012798419 -0.014813475
0.19631533 -0.01340454 -0.013189674
0.22900133 -0.019427836 -0.017771464
-0.033220243 -0.091555327 -0.0018621441
-0.024095386 -0.092140853 -0.0017001181
0.017206986 -0.093677536 -0.0063540228
-0.13245396 -0.082011424 -0.0094413674
0.075323328 -0.087053709 -0.0077319294
0.095730022 -0.087733254 -0.0028024311
0.10031674 -0.087931991 -0.001360819
0.14451039 -0.088255823 -0.0030222943
0.15298098 -0.087371692 -0.0060342895
0.20842215 -0.087213852 -0.0065472173
0.23968369 -0.087251395 -0.0029686147
0.26401258 -0.087092713 -0.00039883962
0.30407053 -0.082001053 -0.0070405798
0.014268843 -0.074769706 -0.0081795314
0.32646078 -0.07313326 -0.0044524348
-0.25174588 -0.060074985 -0.0025106517
-0.23242837 -0.062202185 -0.0077716056
-0.29560009 -0.051177911 -0.0017879705
-0.27765223 -0.05518895 -0.00077194348
-0.26158929 -0.052531946 -0.0092716366
-0.28713688 -0.04025897 -0.0089579225
-0.31257403 -0.034934256 -0.0046796678
-0.30121022 -0.031013465 -0.0065476331
-0.29948494 -0.033307686 -0.007126621
-0.29575148 -0.023645503 -0.0051246271
0.26479456 -0.020757586 -0.0064179632
0.28818515 -0.029360814 -0.0054207868
-0.27235019 -0.017911386 -0.0023910175
-0.26578754 -0.017258497 -0.0031571579
-0.25565583 -0.016115464 -0.0055213412
-0.194996 -0.011800181 -0.0044652447
0.18783654 -0.011332067 -0.0094102621
0.22213334 -0.013194493 -0.0055437265
-0.27702746 -0.0057687359 -0.0034050988
-0.26267061 -0.0033579785 -0.0051460513
-0.24351391 -0.0048099291 -0.0032652738
-0.22389871 -0.0054043662 -0.0080975937
-0.20254435 -0.0012344101 -0.0082191164
-0.19479072 -0.0058134561 -0.0085721724
-0.17532355 -0.0049085151 -0.0060735093
-0.1534366 -0.0099408496 -0.0066839862
-0.14511485 -0.0092492038 -0.0048169605
-0.074014492 -0.008009945 -0.00071578025
-0.052382957 -0.0089350697 -0.0073281056
-0.037623622 -0.0082648937 -0.0025380235
0.020157978 -0.0084573496 -0.0039136056
0.055892952 -0.0089135552 -0.0071743354
0.11403145 -0.0082484093 -0.0024202024
0.17717707 -0.0099904994 -0.0068957321
-0.28537422 0.0051065637 -0.0016136585
-0.19600388 0.003989629 -0.006536928
-0.18419033 0.0054782932 -2.4304296e-05
-0.25399363 0.015205441 -0.0058012083
-0.24911407 0.014561391 -0.006403476
-0.21193987 0.018928807 -0.0064470973
-0.18921345 0.010730264 -0.0029760893
-0.25757682 0.02483248 -0.0059036128
-0.22845641 0.028377106 -0.0069391746
-0.21210858 0.032467421 -0.0033754245
-0.30316371 0.045712411 -0.001738359
-0.28124017 0.056016013 -0.0046527362
-0.30170673 0.062426239 -0.003619032
-0.30962858 0.077311434 -0.0033354065
-0.27002957 0.078267179 -0.0049849767
-0.26672232 0.070826918 -0.0054738508
-0.31809652 0.086752191 -0.00050688704
-0.272636 0.085131623 -0.0043463097
-0.30065477 0.095517732 -0.0044036987
-0.2955544 0.098931082 -0.0047633769
-0.29706702 0.1055848 -0.0042249523
-0.28658721 0.1007761 -0.0037913569
-0.00056545826 -0.10831508 0.0079477532
0.28305843 -0.10666895 0.0021743816
-0.019516686 -0.091917515 0.0038641049
0.012089785 -0.093965597 0.0032748543
0.027038345 -0.094901524 0.0030714646
0.04173822 -0.094110675 0.0054699872
-0.053411633 -0.088071607 0.0073484136
0.013246046 -0.088230133 0.0051396918
0.072176896 -0.087490685 0.0053134598
0.1014268 -0.089732587 0.0081172315
0.11575267 -0.088159233 0.00028752221
0.14171958 -0.087848231 0.0027253025
0.20506582 -0.087578729 0.0046710353
-0.19035715 -0.07263042 0.0049711545
-0.17783108 -0.075283907 0.0027555902
-0.16012803 -0.077726699 0.0078660306
0.32236832 -0.076616593 0.0066113174
0.32762435 -0.065186881 0.0072607906
0.32398176 -0.054848909 0.0015545739
-0.3132911 -0.036613826 0.0051523461
-0.29842454 -0.036667351 0.0081001017
-0.32256866 -0.026494568 0.002922951
-0.28807431 -0.027115995 0.0085066482
0.28078434 -0.025487214 0.0050499886
-0.27182472 -0.015581963 0.0010170934
-0.22844934 -0.010197145 0.00411763
-0.18154021 -0.010596998 0.0032063639
-0.17809534 -0.010829305 0.0046887109
0.19605553 -0.010472527 0.0041800751
-0.26902959 -0.0076384945 0.0013581053
-0.19827552 -0.0013618338 0.0046776757
-0.14916226 -0.0095840488 0.0065145628
-0.068968654 -0.0086361738 0.0059418483
0.033690825 -0.008383004 0.0041361134
0.065608218 -0.0087018032 0.0064099487
0.10445844 -0.0090085333 0.0085976971
0.12147972 -0.0083282841 0.0037458239
0.1607303 -0.0086933747 0.0044010431
-0.23161674 0.0042272406 0.0048698206
-0.22814533 0.0067720166 0.005474153
-0.22024499 0.013508883 0.0046510627
-0.19967359 0.013489727 0.0021714994
-0.25100493 0.025625087 0.0035718286
-0.23366934 0.022649314 0.0047394992
-0.28675467 0.037952043 0.0010116673
-0.30546314 0.06435705 0.00011366767
-0.29523143 0.063745998 0.0007605998
-0.28743652 0.064775348 0.0011293123
-0.29736823 0.072774313 0.00066806696
-0.28554907 0.076575741 0.0020061366
-0.26433876 0.074491516 0.0017257491
-0.30684111 0.0938024 0.00033087228
-0.29657388 0.098895818 0.0016420528
-0.2973837 0.10766055 0.00083736738
0.0037253466 -0.10325109 0.015947226
-0.023072137 -0.091234259 0.014232194
-0.004227553 -0.09233363 0.016130028
0.053616308 -0.09320806 0.012143401
-0.071422428 -0.086129665 0.011297265
-0.055853922 -0.089172058 0.016355183
0.011460168 -0.085426688 0.014640719
0.080995075 -0.084024966 0.015678626
0.15762387 -0.086422622 0.011372462
0.17605063 -0.08313188 0.013477677
0.18224961 -0.082776666 0.017579254
0.28285143 -0.082109913 0.013348775
-0.17075895 -0.073911674 0.011611739
-0.1921861 -0.066809818 0.015101332
-0.17900723 -0.067038104 0.018438999
0.30666375 -0.063584171 0.019837838
0.31521598 -0.06384398 0.015729077
-0.24771054 -0.055010162 0.011460225
-0.23942409 -0.050142672 0.015807062
0.30430058 -0.055996612 0.019752342
0.31226748 -0.059043299 0.0170388
-0.26444268 -0.036056232 0.013650212
0.28500968 -0.032602344 0.015375461
-0.26709306 -0.026286306 0.011305509
0.25139377 -0.021113601 0.015899785
-0.22393148 -0.019141803 0.013222322
-0.17886534 -0.01862134 0.018445875
-0.13013549 -0.01378057 0.017639894
-0.11261755 -0.013445095 0.017730376
-0.10703853 -0.014662831 0.01943896
-0.038973667 -0.014979958 0.019894294
-0.018716738 -0.012041171 0.015724521
0.054889549 -0.010752646 0.012750708
0.087164812 -0.013540677 0.018068966
0.10969888 -0.011703905 0.014946138
0.18543932 -0.012763028 0.013771658
0.19553939 -0.012956918 0.013002006
0.23315331 -0.015311794 0.010140957
-0.006439832 -0.11114634 0.023128837
-0.005900457 -0.10057104 0.021514144
0.091772228 -0.090398706 0.024078635
-0.06786488 -0.081705891 0.024583392
-0.052372757 -0.087702692 0.021407824
0.027518352 -0.089705534 0.029996559
0.077177472 -0.087995999 0.029330853
0.093555503 -0.08074744 0.020287212
0.10253286 -0.083563909 0.026155384
0.1114835 -0.080647305 0.020413782
0.1342943 -0.086157992 0.026040938
-0.13772057 -0.074954435 0.020392958
-0.12573214 -0.074397534 0.023374271
-0.11117941 -0.075890698 0.024453972
-0.092947431 -0.073396631 0.027306426
-0.064341217 -0.077413723 0.024183257
-0.057686441 -0.076112673 0.024893876
0.054543421 -0.076451764 0.024931177
0.092091665 -0.071419954 0.028843397
0.11915661 -0.074116044 0.026747197
0.12263104 -0.0763174 0.025035653
0.1366265 -0.07841567 0.023234904
0.15437335 -0.075266711 0.028880687
0.16393682 -0.079826824 0.021405574
0.18578498 -0.073796459 0.023044268
0.26263845 -0.072696537 0.024530672
-0.15416066 -0.06787172 0.022973431
-0.14170647 -0.066443644 0.026797742
-0.12848249 -0.065723687 0.028984826
0.042868868 -0.069424495 0.029951528
0.25846225 -0.061216898 0.029414544
0.30236131 -0.054683395 0.020312013
-0.22982906 -0.040377066 0.02981459
-0.19539605 -0.047084987 0.024618214
0.26314524 -0.045608722 0.028983884
-0.23859645 -0.036282439 0.028097577
-0.21096137 -0.036448162 0.022629581
-0.20128499 -0.039992806 0.024161909
-0.16686006 -0.036609147 0.028327836
0.2534284 -0.033187274 0.026337976
-0.20477946 -0.02711289 0.020883748
-0.17484438 -0.022842377 0.02205319
-0.16731071 -0.029098919 0.026173487
-0.15894787 -0.020920273 0.022381764
-0.14687543 -0.022181999 0.024666073
-0.12852606 -0.027354296 0.029196763
-0.043915443 -0.02251651 0.027216725
0.01023481 -0.025678534 0.029524393
0.044817999 -0.022216668 0.026983583
0.19655968 -0.023046436 0.02567903
0.21149939 -0.021636773 0.023736212
0.22668469 -0.022946693 0.022946684
0.25351864 -0.02711465 0.021981336
-0.085624188 -0.017838916 0.023520093
-0.032824986 -0.019131551 0.024584839
0.022678906 -0.018523777 0.024112351
0.16430071 -0.015675226 0.020156778
-0.037619218 -0.08259578 0.030211726
0.014215883 -0.088496491 0.033641059
0.048118345 -0.087221526 0.036794059
0.051445562 -0.087024719 0.03626192
0.060243413 -0.080724031 0.030982003
0.095440164 -0.083160177 0.032233957
0.11736841 -0.080811873 0.030646905
0.0077333944 -0.075104624 0.030817259
0.013237643 -0.074215271 0.030872056
0.027001277 -0.079999849 0.03096712
0.050798211 -0.076919436 0.030956913
0.063587941 -0.071025901 0.030920943
0.11550028 -0.072303444 0.030912509
0.1343293 -0.071096219 0.030029465
-0.12771708 -0.061551359 0.031010959
-0.10211618 -0.063972525 0.032462008
-0.097667977 -0.068599984 0.03033112
0.023543887 -0.067585431 0.030798363
0.043990117 -0.064993009 0.031992033
0.070339687 -0.063232303 0.032802776
0.11566754 -0.062582783 0.033101939
0.13124597 -0.065294892 0.031853091
0.14079851 -0.069883101 0.03523346
0.2029117 -0.06819535 0.030004947
0.22674887 -0.0636639 0.031246491
-0.12822104 -0.056918088 0.032354731
-0.094937995 -0.058642194 0.034025423
-0.072365791 -0.054056823 0.03501337
-0.017084241 -0.057690084 0.034230687
0.0031859349 -0.055827327 0.034631893
0.049483493 -0.052770555 0.035269499
0.074064597 -0.053284682 0.035179548
0.098952778 -0.055722669 0.034514625
0.17277548 -0.057129454 0.034095943
0.18866068 -0.050309319 0.034632351
-0.22948849 -0.040311225 0.031744819
-0.21635099 -0.04096109 0.031177875
-0.12362897 -0.045487382 0.033967841
-0.052957207 -0.04390201 0.035269499
-0.042165782 -0.04252515 0.035128549
0.0012941799 -0.047317822 0.035269499
0.022312505 -0.047901794 0.035269499
0.05828299 -0.043917332 0.035269499
0.073930614 -0.042834941 0.034992628
0.10176253 -0.043657854 0.035269499
0.13255669 -0.044110529 0.035269499
0.14946888 -0.044767901 0.035269499
0.1737701 -0.042416703 0.034639027
0.18715823 -0.045399696 0.03466104
0.24135786 -0.049657319 0.032275096
-0.27237248 -0.038535092 0.032199975
0.0043952186 -0.032307062 0.032564219
0.091174595 -0.036964968 0.033928446
0.1542687 -0.036989562 0.033933569
0.1897894 -0.034339238 0.032326035
0.20846669 -0.039083939 0.03303035
0.23013765 -0.037436418 0.031123897
-0.072943702 -0.029494768 0.031274505
-0.0069009624 -0.027304875 0.030270182
0.021188471 -0.02801577 0.030596159
0.060545713 -0.10991395 0.044817537
0.023905553 -0.084230311 0.043571182
0.044209324 -0.085651949 0.046125125
0.053979728 -0.080899626 0.048060909
0.08906363 -0.072198868 0.043725565
0.095347874 -0.070964888 0.045895346
0.14329877 -0.075286403 0.041132439
-0.27317876 -0.038410384 0.041327737
-0.24507305 -0.039286815 0.045626909
0.0564202 -0.11025237 0.051549397
0.045641549 -0.10698696 0.053239193
0.0074338438 -0.084486306 0.052870758
0.010157969 -0.083663516 0.054766476
0.024983205 -0.084137268 0.052904889
0.08730948 -0.070153989 0.056250386
0.12720451 -0.07401412 0.054393254
0.11318184 -0.068841033 0.051013358
-0.27597249 -0.038046386 0.057029773
-0.015138968 -0.087248519 0.06878563
-0.0077383779 -0.084448054 0.065720737
0.005259342 -0.086412586 0.064952374
0.015192155 -0.084312066 0.063165814
0.056203194 -0.080362067 0.068206146
0.026122924 -0.079196259 0.064341649
0.051766533 -0.074377894 0.064482614
0.075938091 -0.079584688 0.063540295
0.09572091 -0.07846956 0.060355239
-0.29209137 -0.037070908 0.067953438
-0.27547872 -0.034879655 0.069734737
-0.25261539 -0.034103766 0.062512115
-0.0059041642 -0.084868394 0.073935546
0.033626068 -0.08168292 0.07091254
0.10640255 -0.073503777 0.076470204
0.092445657 -0.067093953 0.075629756
-0.27945101 -0.034828406 0.075073473
-0.26288936 -0.033320304 0.07995861
-0.010240335 -0.080288216 0.089752853
0.0099901119 -0.076484613 0.088236764
0.022276448 -0.074448615 0.087798245
0.046124615 -0.07461562 0.083889462
0.074243098 -0.076571144 0.08008755
0.083518274 -0.075566709 0.08223784
0.091596052 -0.074548155 0.085088857
0.077915892 -0.066556178 0.086562261
-0.29410881 -0.035291161 0.083512008
0.0066874661 -0.077771813 0.092266098
0.026392873 -0.077082157 0.097015031
0.08663179 -0.072399244 0.097474314
0.091760471 -0.071230829 0.099975295
0.047116846 -0.068703756 0.095218927
-0.29135484 -0.033730987 0.096022248
-0.25757831 -0.036017865 0.093058765
-0.014364328 -0.083208479 0.10872642
-0.0096280742 -0.076068789 0.10551453
0.064143479 -0.073580772 0.10216476
0.079210803 -0.071244553 0.10880123
0.027624322 -0.068459064 0.10992374
0.032277495 -0.068952791 0.10431273
0.074549101 -0.064210795 0.10421856
-0.29635054 -0.034493886 0.10088597
-0.26963711 -0.035836905 0.10048083
-0.010200016 -0.082245782 0.11282338
-0.0086047202 -0.082498722 0.11274272
0.037392966 -0.080256335 0.11054331
-0.011774858 -0.079191096 0.11349227
0.0098759225 -0.070592865 0.11394744
0.092107952 -0.065226339 0.11198729
0.10917436 -0.10068626 0.12638336
0.085164793 -0.092166185 0.12179849
0.1005006 -0.091355935 0.12040061
0.11988093 -0.095793337 0.12630686
0.0045209709 -0.073129714 0.12700249
0.017186301 -0.073452756 0.12071408
0.0079160575 -0.069288887 0.12141495
0.032614842 -0.065179743 0.12299298
-0.31729817 -0.032658212 0.12445456
0.088384032 -0.10292256 0.13302733
0.092022806 -0.10336159 0.13734813
0.058502018 -0.091532364 0.13452452
0.063377731 -0.092731342 0.13422252
0.038951393 -0.081187397 0.13573365
0.055967405 -0.080085911 0.13726304
-0.030605201 -0.072174877 0.13888887
-0.027537446 -0.072001599 0.13996537
-0.016789539 -0.070824273 0.13379137
0.0030373568 -0.070990518 0.13893417
0.03970572 -0.074539661 0.1366494
0.043490317 -0.073705263 0.13347243
0.055094637 -0.07243491 0.13722037
0.066278458 -0.076221392 0.13262326
0.093694702 -0.073280886 0.13560896
0.11116507 -0.071652859 0.13599803
-0.0018972234 -0.067578621 0.13665535
0.027353439 -0.063659251 0.13457125
0.039552245 -0.062702216 0.13054807
0.086312875 -0.067986593 0.13533726
-0.3221359 -0.032811854 0.13574035
-0.30290514 -0.033325769 0.13553879
0.084395535 -0.099340096 0.14439945
0.12163387 -0.097600617 0.14658716
0.067819655 -0.08721406 0.14272562
0.11889 -0.085647009 0.1447432
0.12535217 -0.081423521 0.14739373
-0.046131928 -0.074674115 0.14932543
-0.033322271 -0.076525137 0.14856273
-0.025877248 -0.076337703 0.14780378
-0.015325022 -0.074682817 0.14638853
0.070507199 -0.078401946 0.1421999
0.081522584 -0.07739909 0.14454754
0.09577518 -0.077102259 0.14504908
0.10377611 -0.075414926 0.14274544
0.12557906 -0.076204866 0.14135645
-0.00037811697 -0.069850512 0.14688283
0.0066058487 -0.063702665 0.14814767
0.017035926 -0.069397919 0.14809778
0.039845504 -0.068172649 0.14360438
0.043720752 -0.060621087 0.14257756
0.045149133 -0.059960753 0.14691092
-0.0090729576 -0.076637655 0.15277368
0.0094300732 -0.072002403 0.15295987
-0.014405991 -0.069455057 0.15392518
0.027939264 -0.067217126 0.15343463
0.028644003 -0.059393547 0.15695918
0.03904346 -0.065014876 0.16380751
0.053288169 -0.064148754 0.16027807
0.021680254 -0.058842942 0.16336931
-0.024757847 -0.066539869 0.17346603
0.038387235 -0.063082844 0.17408322
0.0032192501 -0.059132554 0.17463377
0.022189343 -0.057563238 0.17296061
-0.04948381 -0.068252861 0.18546458
-0.014627961 -0.064374208 0.18464975
0.003372343 -0.060051318 0.18860032
0.014190288 -0.06287805 0.18492168
-0.026616581 -0.062329028 0.1989809
-0.032436028 -0.058957301 0.19958481
-0.053920221 -0.061382208 0.20533508
-0.040876403 -0.062234685 0.20309061
-0.02087586 -0.061786771 0.20079336
0.0052473117 -0.054496467 0.20170398
0.013593091 -0.059675515 0.20546982
0.047096536 -0.090386264 0.21940804
0.0083795376 -0.080419645 0.21371804
0.023475729 -0.088408157 0.21603145
0.031099772 -0.088943429 0.21608205
0.043268319 -0.08554434 0.21361353
0.0085950457 -0.073930934 0.21379952
0.018823711 -0.070498101 0.21345086
-0.063594468 -0.06601432 0.21744815
-0.040572178 -0.067023322 0.21978995
-0.019671924 -0.058742363 0.21974805
0.0093439957 -0.053199068 0.21286419
0.004856518 -0.090861529 0.22673753
0.023331614 -0.092614062 0.2259962
0.056281514 -0.089158654 0.22994281
0.0478299 -0.074668124 0.22503828
-0.013730775 -0.066634044 0.22828974
0.0031035566 -0.069618627 0.22185825
0.011512637 -0.063510239 0.22666842
0.025753399 -0.062540337 0.22576872
-0.021129835 -0.055512607 0.22419307
-0.0095287841 -0.058834597 0.2284597
0.0069193356 -0.056018878 0.22507314
0.037116364 -0.091182373 0.23305483
0.052075837 -0.090904236 0.23018964
0.0037030699 -0.081169263 0.2323854
0.016582465 -0.088552415 0.23587179
-0.0079791844 -0.078925468 0.23071665
0.0019565152 -0.072369911 0.23586488
0.019918857 -0.070202835 0.23942339
-0.052102659 -0.054273345 0.2368058
-0.03944942 -0.056758136 0.23773165
-0.027230287 -0.054353286 0.23490059
-0.035147332 -0.050105412 0.24890253
-0.0069338521 -0.050432302 0.24221185
-0.047119029 -0.050266378 0.25525093
-0.033759121 -0.0537774 0.25785801
-0.014469054 -0.053427637 0.253775
-0.065609328 -0.05054979 0.26671922
-0.052809332 -0.051303998 0.27941361
-0.067651682 -0.051070407 0.28411311
-0.036191013 -0.050522901 0.28041935
-0.061398126 -0.047344305 0.28112662
-0.054615416 -0.045664661 0.28616315
-0.04616325 -0.046110891 0.28141558
-0.030086989 -0.047563616 0.28127462
-0.09285336 -0.048900127 0.29766244
-0.091854155 -0.046930261 0.30735594
-0.095781937 -0.047631495 0.31274721
-0.084431484 -0.046987381 0.31673717
-0.10429595 -0.045998793 0.32477158
-0.074874021 -0.043302704 0.32825452
-0.067268081 -0.045938894 0.32091165
-0.057995327 -0.044020783 0.320472
-0.093557432 -0.04068508 0.3389985
-0.076295167 -0.040535089 0.33940417
-0.08541435 -0.040453471 0.34757978
-0.11196021 -0.045288425 0.35284939
-0.10043213 -0.040603884 0.35230553
