# .PCD v0.7 - Point Cloud Data file format
VERSION 0.7
FIELDS x y z
SIZE 4 4 4
TYPE F F F
COUNT 1 1 1
WIDTH 891
HEIGHT 1
VIEWPOINT 0 0 0 1 0 0 0
POINTS 891
DATA ascii
-0.32865533 -0.049517564 -0.27230123
-0.29391217 -0.049500696 -0.27522328
-0.27713665 -0.04949066 -0.27696311
-0.31982285 -0.049543194 -0.26786014
-0.28873116 -0.049564574 -0.26415643
-0.26802281 -0.049582586 -0.26103523
-0.25524354 -0.049560305 -0.26489609
-0.31902483 -0.049599897 -0.25803638
-0.28470755 -0.049632505 -0.25238657
-0.32818449 -0.04956837 -0.24199975
-0.26086649 -0.049653605 -0.24873078
-0.33239666 -0.049553767 -0.23918647
-0.32883418 -0.049566116 -0.23723415
-0.29202577 -0.049693674 -0.23046403
-0.24358049 -0.049766451 -0.22917831
-0.30489612 -0.049649075 -0.21305734
-0.28930521 -0.049703099 -0.21810341
-0.29413643 -0.049686357 -0.20989951
-0.276696 -0.049746796 -0.20222804
-0.26237607 -0.049796421 -0.20081683
-0.24978091 -0.04984007 -0.20343366
-0.29155287 -0.049695313 -0.19784011
-0.24058819 -0.049871925 -0.19152582
-0.19657198 -0.049958222 -0.19597232
-0.16888809 -0.050026499 -0.1841159
-0.29659641 -0.049677838 -0.18525313
-0.28195697 -0.049728565 -0.18300566
-0.22255754 -0.04993441 -0.18964985
-0.1808888 -0.050073374 -0.17598903
-0.24167359 -0.049868166 -0.17071432
-0.18549222 -0.050062858 -0.16268849
-0.29524651 -0.049682513 -0.1624701
-0.26361197 -0.049792137 -0.16020435
-0.11858125 -0.050203405 -0.15305308
-0.28607988 -0.049714278 -0.15312707
-0.1999937 -0.050012603 -0.1409073
-0.18313423 -0.050071027 -0.14490268
-0.33993945 -0.049527597 -0.14282846
-0.18168254 -0.05007606 -0.13023375
-0.14232808 -0.050212439 -0.13483042
-0.10921289 -0.050327197 -0.13151501
-0.081036955 -0.050282333 -0.13914375
-0.15771705 -0.050159108 -0.12946486
-0.11969525 -0.050290875 -0.12264636
-0.086887307 -0.050393932 -0.12040961
-0.071298242 -0.050389204 -0.12096103
-0.049048726 -0.050352067 -0.12687349
-0.32162142 -0.049591035 -0.12023471
-0.31271398 -0.049621928 -0.12886497
-0.25976697 -0.049805444 -0.12748207
-0.18361202 -0.050069362 -0.11053976
-0.15612221 -0.050164636 -0.11920543
-0.14541215 -0.050201751 -0.11546004
-0.13001996 -0.050255094 -0.11578815
-0.038524393 -0.050445154 -0.11100335
-0.29948059 -0.049667764 -0.11599778
-0.22977838 -0.049909342 -0.11038367
-0.13498105 -0.050237902 -0.10807551
-0.10224172 -0.050351359 -0.10924353
-0.079843365 -0.050428979 -0.1050459
-0.28294191 -0.049725063 -0.10743413
-0.18395612 -0.050068121 -0.09254948
-0.12621713 -0.05026824 -0.090288557
0.038164038 -0.050548717 -0.091607094
-0.28782347 -0.049708128 -0.099674337
-0.21393131 -0.049964231 -0.095789842
-0.20995551 -0.04997801 -0.094896607
-0.179051 -0.050085086 -0.080189489
-0.16696349 -0.050127 -0.084837407
-0.14951035 -0.050187495 -0.085303649
-0.13825861 -0.050226487 -0.084303766
-0.028314471 -0.050597712 -0.08510609
-0.29802585 -0.049672734 -0.086945057
-0.25889656 -0.049808342 -0.081904113
-0.22441065 -0.049927868 -0.080492191
-0.13955811 -0.050221957 -0.072774582
-0.096249327 -0.050372086 -0.078420416
-0.086124167 -0.050407156 -0.070408985
0.040492881 -0.050668009 -0.071572602
0.087298334 -0.050635252 -0.075766489
0.091900185 -0.050627515 -0.07694184
0.11190274 -0.050659515 -0.071017623
-0.28948611 -0.04970229 -0.07040868
0.021783596 -0.045373891 -0.070462301
0.007038835 -0.037978761 -0.070871845
0.022094602 -0.031308584 -0.070304766
0.091682076 -0.069436714 -0.060343716
-0.15064037 -0.05018352 -0.062971421
-0.12617269 -0.052309137 -0.065152831
-0.092521213 -0.059869654 -0.061155975
0.024526106 -0.051673356 -0.0699737
-0.26102352 -0.049800932 -0.067000277
-0.20574115 -0.049992543 -0.066144153
-0.1995558 -0.047498401 -0.062156133
-0.13307519 -0.045730241 -0.064461619
-0.11261858 -0.041240588 -0.062732428
-0.0660972 -0.041526645 -0.062873729
-0.043902986 -0.043471046 -0.066093341
-0.023053467 -0.040461902 -0.069117874
0.064354762 -0.041727684 -0.069279857
0.11084864 -0.040564876 -0.067988448
-0.13941304 -0.039241694 -0.060860936
-0.032678261 -0.037839666 -0.067721657
0.035111174 -0.030418651 -0.0641478
0.051612411 -0.034078859 -0.069633782
0.062886499 -0.031867001 -0.063497223
0.098062076 -0.034866426 -0.061304606
-0.05790491 -0.072085172 -0.052913181
-0.0084223561 -0.072491519 -0.054359216
0.030796992 -0.074266374 -0.050665565
0.042407066 -0.072181411 -0.05454937
0.10998773 -0.075994335 -0.05516151
-0.26188779 -0.06577412 -0.05040855
-0.2549237 -0.061649986 -0.054090172
-0.2409025 -0.064310685 -0.052772161
-0.2331574 -0.066945404 -0.053044476
-0.2294973 -0.060862515 -0.050988972
-0.19282299 -0.066990733 -0.05336085
-0.15724786 -0.066817388 -0.053463228
-0.12945484 -0.061606392 -0.05923605
-0.016584212 -0.065604009 -0.059410963
0.0040458646 -0.068908982 -0.057588093
-0.26170027 -0.059818543 -0.053361326
-0.23169188 -0.053287871 -0.05459854
-0.19585645 -0.050026782 -0.056267962
-0.1927084 -0.047384098 -0.050590917
-0.23793924 -0.03647875 -0.05666592
-0.12390504 -0.033859283 -0.054487821
0.09933947 -0.032807972 -0.055675074
0.11562401 -0.031869747 -0.058275305
0.13511209 -0.030728314 -0.052873842
0.17880245 -0.036944032 -0.051441487
-0.1009865 -0.025295518 -0.051250853
-0.091719151 -0.025920901 -0.05401938
-0.026427839 -0.027288478 -0.051463157
0.063990094 -0.028850708 -0.052370191
0.076688305 -0.029356277 -0.052725382
0.093658894 -0.029455371 -0.050530057
-0.21021014 -0.073098652 -0.046706147
-0.11514397 -0.074329823 -0.048785999
-0.097223386 -0.075263672 -0.045979168
-0.085551381 -0.075560942 -0.044236012
0.0037966077 -0.075845599 -0.042388517
0.036667522 -0.074381694 -0.041984621
0.073243871 -0.07149294 -0.042571127
0.1075511 -0.072889723 -0.045835197
0.13739786 -0.07417205 -0.046939112
0.15128686 -0.073473118 -0.043088723
-0.26804483 -0.066965595 -0.048238445
-0.20636383 -0.067125425 -0.042008914
-0.31327388 -0.057372507 -0.044232477
-0.29149821 -0.055485312 -0.040624537
-0.20273885 -0.058742095 -0.044915333
-0.17410535 -0.058655478 -0.046789527
-0.35580164 -0.049795292 -0.04001984
-0.30699944 -0.04964152 -0.045263544
-0.246135 -0.039424777 -0.044618666
-0.23510385 -0.030540582 -0.048703484
-0.21614963 -0.030720111 -0.043831766
-0.20274067 -0.032298468 -0.044329032
-0.16956341 -0.033677854 -0.042251088
0.017287768 -0.038278855 -0.044064499
0.034425464 -0.037366092 -0.047292896
0.057370014 -0.039342266 -0.040400058
0.15781969 -0.03050437 -0.045659751
0.18958792 -0.035640936 -0.044587426
-0.29019475 -0.029752396 -0.044026274
-0.25255394 -0.024511984 -0.045997448
-0.246135 -0.027820541 -0.04065875
-0.1877244 -0.02193984 -0.043663971
-0.1646418 -0.022749722 -0.045019154
-0.14044018 -0.022772796 -0.0404789
-0.13629746 -0.024145916 -0.0497109
-0.096651159 -0.023929257 -0.040501781
-0.0061442684 -0.026937839 -0.045769755
0.028354643 -0.026377659 -0.046491653
0.083641388 -0.028291022 -0.046704877
0.094302163 -0.028424012 -0.045653369
0.11966999 -0.027450575 -0.040900059
0.11961269 -0.080777973 -0.031624112
-0.31224012 -0.075872466 -0.032795914
-0.24970055 -0.078386851 -0.03548665
-0.21799369 -0.077550106 -0.037398983
-0.14942832 -0.076880112 -0.038055282
-0.13743494 -0.077216968 -0.035898089
-0.083705068 -0.077505536 -0.033037692
-0.036544997 -0.077735856 -0.030655047
-0.022876259 -0.077202424 -0.0333101
0.038280766 -0.079013139 -0.030137278
0.056228187 -0.074765928 -0.038395632
0.097640723 -0.075579412 -0.033772167
0.11789794 -0.075977333 -0.03249225
0.12275559 -0.07607276 -0.032972649
0.1830515 -0.07510893 -0.03738435
-0.29747173 -0.066799834 -0.037365094
-0.26385394 -0.061883803 -0.030852519
0.084309757 -0.067206159 -0.032207083
0.098541975 -0.066011116 -0.03012896
0.10478891 -0.068813488 -0.031060103
-0.37481868 -0.050983641 -0.036101341
-0.26309749 -0.055006616 -0.033429872
-0.16696072 -0.051323332 -0.033721391
-0.0070822323 -0.051985338 -0.03079671
0.024385039 -0.05453977 -0.031334627
-0.20736435 -0.042985708 -0.033487547
0.074598417 -0.043301079 -0.033342123
0.095395871 -0.040277842 -0.03718058
0.2051242 -0.042585053 -0.031485222
0.22313353 -0.040941164 -0.036478676
0.23670758 -0.049149994 -0.030947717
-0.36573148 -0.032856286 -0.034207173
-0.275446 -0.035239652 -0.034145519
-0.20027921 -0.03803869 -0.032316595
-0.17660277 -0.034008447 -0.030226581
0.080686882 -0.039776322 -0.038915541
0.13373013 -0.038855188 -0.032632325
0.14394532 -0.030278884 -0.030788977
0.15866792 -0.035779383 -0.030574653
-0.3321262 -0.022687171 -0.034902267
-0.19576563 -0.02414155 -0.033944912
-0.13415954 -0.022185937 -0.035016831
-0.093567751 -0.023044663 -0.033489324
-0.0041018343 -0.025210874 -0.03361598
0.052283101 -0.024906553 -0.035936832
0.10933048 -0.025999483 -0.038922697
0.12519541 -0.029576689 -0.030122975
0.1354489 -0.027050626 -0.038081922
0.14619789 -0.028469149 -0.039579835
0.17810498 -0.029365694 -0.035563603
-0.32777971 -0.081805408 -0.025288271
-0.31160426 -0.080860712 -0.02653824
-0.2698459 -0.081361085 -0.027875723
-0.23121668 -0.080981746 -0.021263842
0.043464165 -0.080114216 -0.024812104
0.1084789 -0.082521543 -0.021253321
0.12741154 -0.082595252 -0.023189243
-0.29649073 -0.07927002 -0.024392053
-0.24505511 -0.072407246 -0.02022172
-0.19470079 -0.070508905 -0.029899657
-0.12552595 -0.078366123 -0.029214915
-0.074518949 -0.079224214 -0.023243319
0.035462938 -0.072973274 -0.023404725
0.062187992 -0.075088277 -0.022599488
0.083195105 -0.073422506 -0.02471691
0.13719 -0.077454939 -0.020035714
0.14236665 -0.076215498 -0.028750628
0.15056509 -0.075992517 -0.024040883
0.16423753 -0.077348277 -0.02135299
0.19882017 -0.072641134 -0.02422864
0.20484892 -0.073263757 -0.029548213
0.21654552 -0.073624164 -0.024270382
0.23635434 -0.073648825 -0.023374915
-0.37363732 -0.069613747 -0.027619718
-0.22532836 -0.068705797 -0.025118787
-0.20827721 -0.06422656 -0.028666945
-0.19220138 -0.069716819 -0.023289658
-0.17127441 -0.066931695 -0.020433098
0.018315667 -0.0636914 -0.02869831
0.08512903 -0.066737011 -0.029428445
0.16536239 -0.069594964 -0.028174156
0.18250757 -0.06778039 -0.028677704
0.22261438 -0.062707931 -0.029123407
-0.23740496 -0.051110849 -0.023591639
-0.22481656 -0.050650068 -0.020297496
-0.21849418 -0.050418645 -0.02111952
-0.0080697397 -0.051928435 -0.022020195
-0.32932499 -0.041757651 -0.021588415
-0.16105786 -0.042988323 -0.021454718
-0.15400508 -0.048058107 -0.02359705
0.0069551216 -0.040798847 -0.029658161
-0.32958433 -0.039755069 -0.020666678
-0.31721276 -0.038867079 -0.020257959
-0.23181745 -0.03095261 -0.028453857
-0.22070551 -0.032021467 -0.02156477
-0.21345553 -0.03118467 -0.028670391
-0.20268598 -0.030101143 -0.027659366
-0.17764817 -0.03028618 -0.021770537
0.17466885 -0.03383654 -0.029109418
0.19881958 -0.032196701 -0.026900887
0.22632697 -0.032251172 -0.025620531
0.25983924 -0.036585607 -0.023657767
-0.3768557 -0.023169344 -0.023180064
-0.36208493 -0.021513691 -0.025684526
-0.2161985 -0.026985144 -0.0289241
-0.2022972 -0.028613225 -0.026271008
-0.19680242 -0.029248644 -0.026863912
-0.15337352 -0.020855678 -0.029032536
-0.14581168 -0.023497989 -0.026940033
-0.10694482 -0.021277241 -0.023214474
-0.070838779 -0.022764016 -0.027105099
-0.041140858 -0.023684906 -0.028112251
0.149772 -0.02558938 -0.029284291
0.1518876 -0.026579771 -0.029316248
0.16324815 -0.02464487 -0.02748617
0.17081946 -0.027311107 -0.026635226
0.19619399 -0.027988588 -0.023829769
-0.32204181 -0.014898238 -0.026308116
-0.30748031 -0.01560992 -0.025339089
-0.25343743 -0.016260199 -0.024273932
-0.22135745 -0.018279755 -0.023908479
-0.17818436 -0.0189384 -0.023218598
0.10133112 -0.019104244 -0.026093099
0.15802139 -0.011919522 -0.024866022
0.19115888 -0.019595984 -0.020166881
0.13892592 -0.0039708074 -0.022667164
0.14132577 -0.0037657442 -0.022850931
0.15362263 -0.0026345993 -0.020571958
-0.28495705 -0.084306091 -0.017601684
-0.27952152 -0.084709927 -0.012896592
-0.2305297 -0.083601639 -0.012854548
-0.21684952 -0.083539873 -0.012052443
-0.16800903 -0.080246665 -0.014149426
-0.14999551 -0.082276538 -0.01120053
-0.10036813 -0.081476681 -0.010127952
0.0020061245 -0.080021836 -0.018828385
0.030893365 -0.082304932 -0.01062996
0.073490031 -0.082693569 -0.012933884
0.11495401 -0.082440868 -0.016381664
0.15150073 -0.083532967 -0.011999468
0.18565449 -0.08251588 -0.011051668
0.1990048 -0.080246255 -0.018465675
-0.26347324 -0.076705225 -0.012095262
-0.24322212 -0.074288003 -0.017144218
-0.010734332 -0.079622969 -0.019534459
0.067907564 -0.079837911 -0.016668376
0.21893038 -0.078554027 -0.016355667
-0.32614696 -0.065134779 -0.011983726
-0.31606796 -0.06059039 -0.017566249
-0.21248525 -0.062727623 -0.010666277
-0.149295 -0.068408355 -0.01958042
0.26450011 -0.068693452 -0.019578883
0.27304 -0.069653906 -0.016425284
-0.34475511 -0.055630147 -0.015992898
-0.21127024 -0.055600565 -0.011750605
-0.19262904 -0.05978927 -0.013284899
-0.17244172 -0.050875176 -0.011449449
-0.34622473 -0.048802167 -0.017649213
-0.18030754 -0.049020872 -0.012790731
-0.149295 -0.049844608 -0.011415897
0.13719 -0.041036319 -0.017927513
0.29533586 -0.046385102 -0.019729136
-0.3386637 -0.038043573 -0.01669981
-0.32085541 -0.03683624 -0.01897762
-0.20584144 -0.03672548 -0.014492752
-0.18184981 -0.035715908 -0.014196544
-0.16381553 -0.035412654 -0.011591461
0.13719 -0.033533636 -0.012836699
0.26618382 -0.03294998 -0.019379133
0.28168559 -0.035882868 -0.017755076
-0.14962645 -0.021534165 -0.016581252
-0.0078733182 -0.024904341 -0.017654106
-0.37682623 -0.01934273 -0.017113104
-0.30746701 -0.012861561 -0.016328547
-0.26055247 -0.014185548 -0.018021841
-0.19432923 -0.017791703 -0.01224702
-0.14632824 -0.018828837 -0.019512746
-0.085471489 -0.018996082 -0.01219622
-0.031392917 -0.017952885 -0.014944432
0.19029397 -0.016279118 -0.019166349
-0.28824085 -0.0091309128 -0.010270867
0.077313587 -0.0083135217 -0.015543399
0.20907038 -0.0097133303 -0.010869093
0.12940192 0.0065502562 -0.010379912
-0.34363699 -0.086165227 -0.00079993298
-0.20317514 -0.085857704 -0.0036583422
-0.11860356 -0.081084102 -0.0031464617
-0.078601494 -0.082203664 -0.0062186471
-0.023299422 -0.082482472 -0.0022459053
0.035608016 -0.083361708 -0.0048066704
0.23337561 -0.081541784 -0.0086482093
-0.25513113 -0.07751327 -0.0079100663
-0.20342891 -0.079646282 -0.0013912165
-0.19545925 -0.078256093 -0.0032405597
-0.15160629 -0.07780391 -0.0060830591
0.13719 -0.070090026 -0.0068037701
-0.32826325 -0.063141614 -0.00016040599
-0.37443972 -0.050125558 -0.0087247556
-0.0080697397 -0.055482231 -0.005860691
0.37276125 -0.054746103 -0.0032222006
-0.39522606 -0.047885701 -0.0023160684
-0.38250208 -0.043179605 -0.00016040599
-0.37340552 -0.042921592 -0.0070868605
-0.1732991 -0.044968188 -0.0089615714
-0.33286491 -0.039002266 -0.00016040599
-0.31687263 -0.036985658 -0.00016040599
0.13719 -0.038815632 -0.0080693327
-0.32678372 -0.028177174 -0.0054606199
-0.30921414 -0.026841478 -0.00016040599
0.27816746 -0.026247852 -0.0034961065
-0.18528265 -0.016306439 -0.0056080669
-0.17359059 -0.017647866 -0.0078310855
-0.15030214 -0.017635774 -0.004679244
-0.1169904 -0.017461065 -0.0031410712
-0.10211924 -0.018392589 -0.0089990078
-0.095842339 -0.014371054 -0.0014493082
-0.067872077 -0.018387171 -0.0060983328
-0.047241047 -0.014060806 -0.0067207073
-0.035872746 -0.014783819 -0.0091950689
-0.0069588758 -0.010209395 -0.0073615359
0.22792143 -0.011467206 -0.0056958422
-0.32111993 -0.0071375878 -0.0073141097
-0.31425366 -0.007940935 -0.0094489213
0.0043246318 -0.0046715066 -6.2528765e-05
-0.27956924 -0.087179221 0.0020012872
-0.26516294 -0.084352367 0.0040034046
-0.25277686 -0.086861275 0.001557459
-0.22694208 -0.086614668 0.00089942443
-0.20748001 -0.085819371 0.0027419885
-0.17739691 -0.085535385 0.0019635689
-0.14151053 -0.084951654 0.0019747065
-0.12222904 -0.082747661 0.0092326328
-0.11988934 -0.082871065 0.0086139459
-0.1066302 -0.082750537 0.0082530389
-0.051844433 -0.083554707 0.0017663373
-0.041458923 -0.081982419 0.008691228
0.0082165664 -0.083401434 0.0012729504
0.035787735 -0.083372287 0.0074410588
0.055549636 -0.084547654 0.0015507392
0.13719 -0.084051371 0.0030661994
0.22871132 -0.082942545 0.0053638639
0.23660628 -0.082631379 0.0054210788
-0.23960033 -0.079033166 0.0079899076
-0.22811675 -0.07922782 0.0066762697
-0.21089685 -0.078142397 0.0029973835
-0.1834012 -0.07998576 0.0019973295
-0.15883759 -0.077101074 0.009374449
-0.14936683 -0.078035831 0.004356774
-0.30941939 -0.06761089 0.0049949582
-0.149295 -0.061550569 0.0069069965
0.33376175 -0.064230308 0.0034386567
-0.39277607 -0.050035432 0.0021002267
0.38522851 -0.054269142 0.0018145363
0.39265206 -0.052439418 0.00010137446
-0.37454751 -0.043444797 0.007186037
-0.34790218 -0.047885701 0.002289386
-0.21879126 -0.041576482 0.0091041382
0.13719 -0.04745318 0.0045303134
0.35337913 -0.042855918 0.0074704709
0.13719 -0.020474162 0.0026161666
0.27475134 -0.025305767 0.0042075072
-0.35894164 -0.011464572 0.00538263
-0.27352333 -0.010411376 0.0033291555
-0.24352293 -0.01841405 0.0074861022
-0.20961905 -0.012434482 0.0034470533
-0.1950624 -0.017827183 0.0078775492
-0.16784838 -0.01392178 0.001371231
-0.13757256 -0.014897817 0.0038237066
-0.12938263 -0.01609461 0.0021969129
-0.10679662 -0.015334031 0.0029402189
-0.087773427 -0.016564079 0.0075684236
-0.078832515 -0.014120568 0.0061982665
-0.035198119 -0.01461656 0.00133861
0.029981744 -0.017992213 0.0062883366
0.082151063 -0.016673068 0.0072738221
0.092088848 -0.015650162 0.001600768
0.17856646 -0.016113849 0.0025509484
0.21018596 -0.017858356 0.0065635508
0.22283551 -0.017864859 0.0029190648
-0.36368796 -0.00032389071 0.0016809455
-0.28539592 -0.0081167016 0.0043366025
-0.2786622 -0.0053460039 0.0019060217
-0.24676508 -0.0070559829 0.0029426729
-0.2308294 -0.0078932866 0.0016842687
-0.20571187 -0.0026994969 0.0015258244
-0.1975894 -0.0025024805 0.0014841204
-0.066337429 -0.0043269643 0.00134999
-0.021945287 -0.0048149764 0.0013409731
-0.015560991 -0.0081504053 0.0050827167
0.012177881 -0.0057735853 0.0051950002
0.02287871 -0.0046605691 0.0049705487
0.041706212 -0.00063862442 0.00133861
0.20932291 -0.0033521035 0.0043044896
-0.35511315 0.0052698576 0.0017568716
-0.23213202 0.00011407863 0.0016392636
-0.17435752 4.342389e-05 0.001378419
-0.16904825 0.008377606 0.0013944483
-0.14675909 0.0017393267 0.0013768887
-0.13789931 0.00028875563 0.0013723307
-0.022405043 0.0046501071 0.0013603503
-0.013692178 0.0044247569 0.0013583163
0.10206595 0.0047717597 0.0076309857
0.18133394 0.0046222778 0.0032492089
-0.29463947 0.013514082 0.0018642098
-0.2585209 0.017214982 0.001660674
-0.20499444 0.018891588 0.0014223765
-0.17506237 0.011402081 0.0014017004
-0.14191481 0.012252816 0.0013974444
-0.12669873 0.016854728 0.0014040757
-0.11145104 0.011650692 0.001390712
-0.32748747 0.022926822 0.0018646375
-0.18738191 0.028566413 0.0014389154
-0.32078686 0.034887053 0.0018143287
-0.31618279 0.034787558 0.0018147472
-0.36948061 0.041143045 0.0016296541
-0.29506609 0.045569621 0.0016600635
-0.32792151 0.052277911 0.0017411769
-0.29957825 0.050429102 0.0016512424
-0.3723194 0.063396744 0.001604518
-0.33723113 0.067474656 0.0016772544
-0.32447857 0.064085327 0.0016872496
-0.31132042 0.072485834 0.0015677317
-0.30713582 0.071546502 0.0015529572
-0.1421711 -0.080949977 0.01736721
-0.11215847 -0.081311703 0.014116052
-0.096956655 -0.080762453 0.017866479
-0.027929209 -0.0816366 0.011338881
-0.0027724109 -0.081778787 0.010264479
0.064126983 -0.082113892 0.019617163
0.12261269 -0.085342251 0.010753499
0.13265337 -0.085047171 0.013844835
0.16154274 -0.083078489 0.019649625
0.20302978 -0.08047913 0.018740099
-0.24581775 -0.072514594 0.019627556
-0.23647718 -0.07039801 0.015362611
-0.22359852 -0.075915441 0.012998558
-0.2010923 -0.075191438 0.015211619
-0.19055596 -0.079864487 0.014658133
-0.18597543 -0.075479016 0.014332583
-0.15349524 -0.076267034 0.011923851
-0.149295 -0.072012536 0.019884968
0.021927111 -0.079857871 0.016680228
0.24600217 -0.078421533 0.015867895
-0.3269335 -0.065870158 0.010137865
-0.1747998 -0.062439956 0.016486248
0.13719 -0.061687838 0.014708995
0.31521741 -0.062702179 0.014176791
-0.35925174 -0.054966569 0.01081671
-0.30746701 -0.052403085 0.010299473
-0.20857929 -0.054630026 0.013922165
0.3324399 -0.055741459 0.014492225
-0.24612126 -0.043563128 0.01748554
-0.21962991 -0.046579979 0.013491191
-0.2006157 -0.040290527 0.01102989
-0.18567041 -0.049271394 0.010349241
-0.17760786 -0.041216217 0.012410093
-0.16210802 -0.049560759 0.017957591
-0.15855359 -0.049096085 0.015183135
-0.0080697397 -0.04754477 0.010872052
0.13719 -0.04519378 0.012235815
0.35270444 -0.049361505 0.011324176
-0.35303566 -0.03831549 0.011084564
-0.33006299 -0.034460459 0.010846262
-0.30957174 -0.03233321 0.014119551
-0.19173282 -0.035715245 0.017314848
-0.17560677 -0.033339065 0.017996011
0.31008589 -0.034663737 0.010896139
-0.246135 -0.027973432 0.017184986
-0.23077601 -0.020642892 0.014822943
-0.2177905 -0.023098122 0.019549083
-0.20293504 -0.020161206 0.013676375
-0.15166678 -0.023419572 0.015238011
0.084081963 -0.020552345 0.018819459
0.12308746 -0.020071063 0.019957019
0.25050244 -0.022423524 0.012403014
0.27638254 -0.02912345 0.014654016
-0.36005336 -0.01588767 0.015986731
-0.28085518 -0.0115516 0.018275172
-0.27880606 -0.016284086 0.014181343
-0.2524693 -0.019996833 0.013285118
-0.20174569 -0.01896191 0.01082166
-0.19518936 -0.017855357 0.016366256
-0.12085064 -0.018326895 0.014509792
-0.11132208 -0.018381771 0.01418432
-0.062917151 -0.018131431 0.013617016
-0.024094069 -0.016141333 0.015139489
0.033477705 -0.019260859 0.012111277
0.079831392 -0.018542469 0.013713112
0.10907529 -0.01871546 0.016235413
0.12502722 -0.017948242 0.015531135
0.14421138 -0.017574873 0.014805293
0.15071584 -0.018109558 0.015448064
0.16049553 -0.01674765 0.011184971
0.18311435 -0.019713214 0.016091008
0.20190904 -0.019414062 0.013495645
0.22271091 -0.01889045 0.010158668
0.0039896406 -0.009636756 0.010648826
0.040853247 -0.0085913278 0.014246947
0.084011331 -0.0046247323 0.01424726
0.1208535 0.0056815664 0.012984072
0.14842162 0.0050385445 0.016340252
0.155655 0.0056544305 0.014400736
-0.30746701 -0.082751974 0.021030385
-0.27486643 -0.082112335 0.026004683
0.03654046 -0.081255868 0.020078344
0.058832482 -0.080137193 0.029845435
0.11040436 -0.082514167 0.024236932
0.15487981 -0.082976475 0.021521796
-0.33982527 -0.079545081 0.024703067
-0.29277241 -0.079892449 0.029901482
-0.28568661 -0.072585136 0.028500468
-0.2154142 -0.071768329 0.028953735
-0.20785011 -0.070387468 0.022936989
-0.10307492 -0.079966381 0.022463737
-0.062537894 -0.078564316 0.029375723
0.014320128 -0.079404891 0.026940104
0.046992868 -0.074584514 0.029667843
0.11209831 -0.079251029 0.022109065
0.17350797 -0.073645502 0.02735123
0.21847306 -0.074145518 0.028999934
0.26581207 -0.070171423 0.020781962
-0.26511276 -0.064592473 0.029218141
-0.246135 -0.066785179 0.021363985
-0.22336316 -0.066256933 0.026089147
-0.2145936 -0.068141706 0.025032314
-0.19110003 -0.064841166 0.028111752
-0.18335956 -0.065541305 0.021551225
-0.17094907 -0.064548403 0.025122799
-0.0080697397 -0.067501597 0.029592901
0.28486991 -0.0635757 0.021091416
-0.23850223 -0.056946889 0.027235579
0.29618818 -0.055147432 0.022212224
-0.15947074 -0.046430022 0.023524895
0.28794986 -0.042864818 0.02290222
-0.1965521 -0.032164834 0.025776466
-0.18536362 -0.032179475 0.021145573
0.20013338 -0.030000586 0.029742489
0.24406555 -0.037194323 0.029972106
-0.37435955 -0.024495585 0.025176078
-0.21302988 -0.024007929 0.020752892
-0.19292335 -0.027405739 0.027074717
-0.082918651 -0.021535454 0.023172826
0.042473599 -0.02221702 0.027581641
0.056636035 -0.020052338 0.025738832
0.066314213 -0.020010078 0.026473241
0.12850049 -0.028346233 0.029283576
0.15340465 -0.0244991 0.025349732
-0.33556277 -0.015932281 0.025054859
-0.30507657 -0.015772887 0.027769744
-0.24965245 -0.015345421 0.023807066
-0.23453081 -0.018328879 0.025511868
-0.18985647 -0.018189179 0.020951027
0.12688991 -0.011900445 0.029345563
0.18454345 -0.01541425 0.022776648
0.15375999 -0.0075502284 0.026632261
0.12970966 0.0010757212 0.021681063
0.1203697 -0.080567822 0.03549996
0.13351195 -0.080625579 0.036793463
-0.32614347 -0.072309926 0.035840694
-0.30746701 -0.07412374 0.030385474
-0.25898454 -0.077773944 0.038482934
-0.24159257 -0.076253571 0.039857235
-0.22253561 -0.07038863 0.031600799
-0.21417113 -0.078229241 0.034743357
-0.19505563 -0.078608215 0.032182384
-0.17709517 -0.078892939 0.030175472
-0.15616576 -0.07776054 0.03603005
-0.11328604 -0.077759564 0.035047911
-0.053481992 -0.078214474 0.031124821
-0.015533695 -0.078102782 0.030875798
-0.0069505735 -0.077077433 0.036662057
0.024086641 -0.078785807 0.031940915
0.033916429 -0.074327648 0.03268946
0.089859277 -0.075426564 0.03857407
0.099201329 -0.075610071 0.035848409
0.10791416 -0.075781226 0.03147649
0.11564364 -0.079915211 0.0382993
0.13463324 -0.076306075 0.039102152
0.18300849 -0.0751101 0.034349065
-0.36854339 -0.065967523 0.031685024
-0.26844293 -0.063719176 0.030586455
-0.24166383 -0.061011255 0.031600799
-0.18492687 -0.068219818 0.031120287
0.033605751 -0.069156036 0.037394688
0.08144255 -0.068078548 0.031518202
0.099183314 -0.069977418 0.030592101
0.10835805 -0.066553012 0.032873813
0.1498639 -0.069501318 0.032106753
0.18483868 -0.063512221 0.033026148
-0.22927177 -0.055109039 0.032710839
-0.18339953 -0.050857767 0.033445969
-0.149295 -0.052641302 0.031292506
0.066296853 -0.058229037 0.034689888
0.18135482 -0.055763677 0.035285026
0.21717367 -0.055379473 0.033957932
-0.3788774 -0.049306594 0.035403054
-0.26609105 -0.046167549 0.034521237
-0.25989556 -0.048890024 0.039762825
-0.24453488 -0.047917694 0.031600799
-0.16345301 -0.042791273 0.033030223
-0.0080697397 -0.045279384 0.035027653
0.012282944 -0.040669888 0.038348515
0.053959887 -0.042767398 0.034299996
0.096938379 -0.043398246 0.03557694
0.10420591 -0.043409433 0.036221493
0.1376477 -0.040602811 0.039780911
0.18509585 -0.041277505 0.037012711
0.22254005 -0.041990083 0.033187836
-0.30746698 -0.032828741 0.032320321
0.024119895 -0.035606854 0.030696031
0.065164924 -0.035660628 0.031711426
0.13759661 -0.037243009 0.035429582
0.14312652 -0.033032283 0.032755084
0.20848879 -0.034015089 0.035972241
0.22636607 -0.039383441 0.031950321
-0.30458125 -0.023495007 0.034948502
-0.2987203 -0.027746178 0.036471508
-0.28869444 -0.020421155 0.036734335
-0.20131586 -0.028012089 0.031600799
-0.19655152 -0.029463902 0.031688321
-0.11047029 -0.022498077 0.035574123
-0.093765453 -0.022185028 0.030065
-0.050038897 -0.024696244 0.039893016
-0.024429368 -0.024256362 0.03176593
0.0030522658 -0.024780046 0.03451442
0.072781399 -0.024140835 0.033953369
0.093092978 -0.026019283 0.039622322
0.11629972 -0.02425833 0.037029926
0.1238028 -0.02577799 0.035537403
0.15800422 -0.028249143 0.031685889
-0.25945204 -0.018950274 0.038128451
-0.23871806 -0.019245017 0.036663473
-0.19881617 -0.074630186 0.04858131
-0.1350935 -0.076651558 0.041750364
-0.044928286 -0.076208659 0.042151943
-0.0011815974 -0.073638201 0.048667833
0.0017022816 -0.073694855 0.042547587
0.011971128 -0.073896572 0.043538496
0.04825639 -0.074609339 0.042607445
0.11249217 -0.070813991 0.040956959
0.12795171 -0.077873856 0.041234277
0.14652503 -0.078018419 0.048824701
0.16903451 -0.078125805 0.040584926
-0.32371959 -0.060739275 0.042857967
-0.31834376 -0.060307555 0.043081883
-0.26528117 -0.06925264 0.048505194
-0.2202902 -0.068226501 0.044871137
-0.21451706 -0.064362347 0.041374739
-0.17704718 -0.062341474 0.046991408
-0.0080697397 -0.060996752 0.040507071
-0.22083601 -0.055087026 0.048620306
-0.33987954 -0.048695803 0.04314667
-0.28469387 -0.049304016 0.044755742
-0.26739156 -0.049015168 0.048742183
-0.25031739 -0.048730124 0.044154659
-0.21785635 -0.04039181 0.047971819
-0.31211621 -0.03558616 0.042775542
-0.30168933 -0.03270106 0.040079124
-0.29136088 -0.032818235 0.045823589
-0.22603494 -0.031741265 0.048901424
-0.18959525 -0.034010537 0.047368653
0.044667084 -0.037830982 0.048355889
0.14046143 -0.036700025 0.048492238
-0.23559862 -0.02332733 0.047034323
-0.22199228 -0.020643 0.042935468
-0.20377257 -0.029895406 0.043994091
-0.19137622 -0.027549691 0.049629308
-0.16310406 -0.022014638 0.04220314
-0.14796065 -0.022181097 0.040494591
-0.12186678 -0.023140417 0.042433273
-0.080439061 -0.024325043 0.043053992
0.035052549 -0.026282296 0.047679532
0.073075727 -0.026292942 0.041781574
0.13257316 -0.02752219 0.043750323
-0.097120658 -0.071977481 0.054374188
-0.043058056 -0.074607365 0.051069401
0.017479479 -0.073233522 0.057537802
0.038447104 -0.074416652 0.053376175
0.044471104 -0.074534982 0.055661663
0.10078275 -0.07564114 0.050352711
0.1172748 -0.074639179 0.054207686
0.1349943 -0.076490328 0.054993082
0.14985661 -0.075831562 0.054419644
-0.19693637 -0.063042626 0.059643451
-0.16541682 -0.069205418 0.054016925
-0.27069819 -0.053481415 0.05510268
-0.26304486 -0.055913303 0.056381267
-0.17069432 -0.055951554 0.050184138
-0.27374721 -0.049449496 0.054762281
-0.26964992 -0.047340795 0.051491331
-0.25374249 -0.048787303 0.051970992
-0.24656504 -0.049021684 0.059577748
-0.22277331 -0.049963158 0.05782146
-0.2129235 -0.049996454 0.057449415
-0.18027668 -0.04958142 0.052426584
-0.20616806 -0.031849924 0.057024278
0.030077439 -0.037059292 0.051038448
-0.1408665 -0.029899389 0.054704003
-0.13269329 -0.027299214 0.055889651
-0.050259128 -0.027093291 0.057339467
-0.038908668 -0.027446356 0.057716455
0.12370045 -0.074478462 0.060270064
-0.10942413 -0.063521668 0.060418461
-0.095334411 -0.062605307 0.061634779
-0.070425391 -0.060596704 0.064083435
-0.028028309 -0.067578964 0.060265705
0.017045569 -0.065640971 0.063269064
0.046423458 -0.068624303 0.062081546
0.096620575 -0.069617882 0.063061595
0.12089343 -0.063838854 0.064934395
-0.1788357 -0.050105847 0.068725541
-0.15348357 -0.052475926 0.066473491
-0.13407531 -0.050259236 0.062583722
-0.052296098 -0.055617996 0.068565689
-0.032771528 -0.055479988 0.069382206
-0.0080697397 -0.058540493 0.066281319
0.026208306 -0.058695868 0.06900233
0.089750551 -0.056134589 0.068990722
-0.30578366 -0.049678613 0.06936159
-0.2645216 -0.049817376 0.069377169
-0.25815246 -0.04983962 0.067603171
-0.2368294 -0.04991385 0.062190346
-0.21848644 -0.046254888 0.063649721
-0.20962498 -0.042145163 0.062766634
-0.147883 -0.042628322 0.065315515
-0.13542408 -0.049682915 0.067372739
-0.10152005 -0.046522502 0.06869217
-0.23298681 -0.039691396 0.060861595
-0.20098101 -0.036786154 0.060875829
-0.08616633 -0.03056515 0.062639102
-0.03879746 -0.039597377 0.069510676
-0.0080697397 -0.036296211 0.065460235
0.052470516 -0.031250507 0.067961767
0.064952604 -0.032278985 0.066254884
0.10520677 -0.034291752 0.067626998
0.12020296 -0.033864103 0.069471359
0.1506716 -0.035625607 0.064690143
-0.094996177 -0.026459236 0.061356932
-0.0042409441 -0.029314766 0.066063754
-0.084613487 -0.050417982 0.078905702
-0.019834353 -0.052702647 0.071985371
0.038438007 -0.050805911 0.072623268
0.067682996 -0.050661162 0.074593291
0.10599501 -0.050662652 0.073283009
-0.31097096 -0.049658533 0.075020537
-0.25441426 -0.04984948 0.073431611
0.019498996 -0.03345076 0.073202439
0.1037885 -0.033597413 0.070803605
-0.17259373 -0.050121177 0.080885798
-0.058960367 -0.050501537 0.084736988
0.039627671 -0.050620016 0.082159735
-0.32508412 -0.049604919 0.088228315
-0.2837649 -0.049747404 0.08065857
-0.24012896 -0.049893677 0.081683308
-0.12062999 -0.050286762 0.10059027
-0.29560828 -0.049696654 0.10410829
-0.2611728 -0.049811967 0.10517555
-0.21563503 -0.049967092 0.10093044
-0.15906607 -0.050152503 0.11572334
-0.14801931 -0.050190926 0.11347507
-0.11067565 -0.050320819 0.11829129
-0.07912951 -0.050411455 0.11926452
-0.064285696 -0.050441407 0.11405565
-0.033969045 -0.050412059 0.11839655
-0.2118081 -0.049973082 0.1157099
-0.20497957 -0.04999613 0.11553092
-0.15501991 -0.050166577 0.12440227
-0.2922737 -0.049697239 0.12693617
-0.075061679 -0.05029957 0.13773724
-0.31751156 -0.049608126 0.13603696
-0.26015162 -0.04980205 0.13385077
-0.19760007 -0.050018474 0.14405099
-0.17132455 -0.050109867 0.1426629
-0.13150503 -0.050243463 0.14796935
-0.28585324 -0.049711511 0.14823222
-0.20257194 -0.050001182 0.15394664
-0.11696982 -0.050225854 0.15064704
-0.16601121 -0.050128348 0.16269872
-0.3082608 -0.04963357 0.16286537
-0.24291256 -0.049860869 0.1633718
-0.13042673 -0.050090797 0.17381874
-0.34012258 -0.04952275 0.17314385
-0.28481412 -0.04971512 0.17064765
-0.26620087 -0.049779866 0.17328687
-0.18068641 -0.050044674 0.18188493
-0.15205577 -0.050007127 0.18821156
-0.35228452 -0.049480446 0.18960977
-0.28543681 -0.04971296 0.18256621
-0.26737806 -0.049775768 0.18747112
-0.32351261 -0.049580522 0.19173943
-0.27600083 -0.049745779 0.19867864
-0.15901163 -0.049983777 0.19222727
-0.25243104 -0.049827758 0.20859145
-0.20286731 -0.049917553 0.20355074
-0.32891712 -0.049561724 0.21772212
-0.29559875 -0.04967761 0.21894932
-0.27359706 -0.049754143 0.2145499
-0.23303872 -0.04987371 0.21102452
-0.21812594 -0.049829118 0.21862608
-0.18904483 -0.049846478 0.21571803
-0.21119967 -0.049816817 0.22075722
-0.2094585 -0.049775843 0.22775349
-0.21404845 -0.049744591 0.23308465
-0.31843573 -0.04959818 0.24450856
-0.2552259 -0.049684949 0.24320203
-0.29749078 -0.049639024 0.25103074
-0.28820339 -0.049624775 0.2534602
-0.35292146 -0.049478233 0.26430345
-0.34469137 -0.049506854 0.26364824
-0.298033 -0.049562417 0.26408961
-0.28269783 -0.049567945 0.26314721
-0.27411902 -0.049584918 0.26025432
