# .PCD v0.7 - Point Cloud Data file format
VERSION 0.7
FIELDS x y z
SIZE 4 4 4
TYPE F F F
COUNT 1 1 1
WIDTH 799
HEIGHT 1
VIEWPOINT 0 0 0 1 0 0 0
POINTS 799
DATA ascii
-0.12049398 -0.020549333 -0.33840883
-0.11801797 -0.022122791 -0.33494779
-0.10075565 -0.022296201 -0.33463389
-0.097910143 -0.024859238 -0.32079661
-0.09325473 -0.025295602 -0.31636888
-0.088443488 -0.025831193 -0.31167603
-0.10668983 -0.024933096 -0.30528069
-0.09272588 -0.027788317 -0.29106712
-0.087988421 -0.024670286 -0.29324239
-0.075808801 -0.027369047 -0.29567179
-0.093042865 -0.028061887 -0.28639436
-0.076898187 -0.029300462 -0.28722656
-0.092654511 -0.028583273 -0.2788223
-0.086502902 -0.028999001 -0.27418974
-0.062854439 -0.02946848 -0.27672529
-0.073124766 -0.027093481 -0.26675105
-0.085748941 -0.031980313 -0.25294527
-0.05024023 -0.031026812 -0.25974882
-0.0617215 -0.026914075 -0.25922033
-0.053490423 -0.02800687 -0.25550684
-0.085323699 -0.03241884 -0.24884821
-0.074997701 -0.031860273 -0.24123721
-0.065426379 -0.032196727 -0.24488357
-0.045648247 -0.034554988 -0.24438384
-0.063733913 -0.028894706 -0.2490041
-0.050472084 -0.028507585 -0.24267158
-0.067272708 -0.035347238 -0.22694512
-0.04747067 -0.030949585 -0.22345987
-0.031378783 -0.032754093 -0.22657953
-0.062910184 -0.037271015 -0.21323857
-0.054260727 -0.034123261 -0.21711622
-0.025039105 -0.032261677 -0.21533613
-0.017367903 -0.034995925 -0.21170957
-0.063882992 -0.038201895 -0.20380577
-0.0556392 -0.038615424 -0.20376745
-0.039994016 -0.039277613 -0.20555748
-0.014519624 -0.037369594 -0.20648387
-0.066262044 -0.039025676 -0.19460268
-0.033385232 -0.033475682 -0.1964784
-0.051176097 -0.040836819 -0.18462011
-0.031392604 -0.041778781 -0.18478891
-0.0024699941 -0.040728912 -0.18540286
-0.039810199 -0.037066944 -0.18233842
-0.016139848 -0.033653256 -0.1812034
-0.003395699 -0.036340773 -0.18854168
0.00051875785 -0.042615853 -0.1773603
-0.0076212762 -0.034875225 -0.17437196
0.0027640481 -0.036542214 -0.17262332
-0.037851784 -0.04328629 -0.16739956
-0.012024907 -0.046322327 -0.15036897
0.017396484 -0.039189611 -0.15408038
-0.022935608 -0.046422675 -0.14435622
0.0085656997 -0.047780294 -0.14652431
0.021266636 -0.046069197 -0.14696008
-0.012151584 -0.039167371 -0.14603376
-0.037151363 -0.045509361 -0.13468596
-0.027219925 -0.047389027 -0.13314256
0.024227187 -0.048037425 -0.13788137
0.035342094 -0.042856723 -0.13188407
-0.0057503213 -0.039688546 -0.13744524
0.085087284 -0.079264738 -0.12043513
0.086040527 -0.067151897 -0.12207451
0.090360016 -0.067453034 -0.122771
0.030223165 -0.050618015 -0.12232164
-0.029466288 -0.047746919 -0.12840483
0.00032860134 -0.040082172 -0.12982735
0.034417421 -0.047642577 -0.12966476
0.072204895 -0.082137048 -0.11139588
0.086067334 -0.087221377 -0.11324891
0.094068348 -0.086218409 -0.11660147
0.068185061 -0.079113096 -0.11482279
0.072632685 -0.079957776 -0.11660504
0.0842674 -0.071390443 -0.11821459
0.094395973 -0.077847295 -0.11608545
0.081871286 -0.064336613 -0.11717058
0.11712062 -0.067178369 -0.11731678
-0.011716218 -0.050063513 -0.11478268
0.016031995 -0.051729016 -0.11163212
0.092389524 -0.059853509 -0.11338113
0.10039774 -0.055826046 -0.11606173
-0.030428544 -0.047432438 -0.11862302
-0.013000213 -0.044513971 -0.11837631
0.042725671 -0.048206914 -0.11979915
0.1023389 -0.090488367 -0.10938644
0.073845848 -0.083435096 -0.10893189
0.056302302 -0.078082472 -0.10277669
0.10879099 -0.078720093 -0.10740647
0.11433308 -0.072331592 -0.10112098
-0.017862473 -0.050699234 -0.1067154
-0.0070982049 -0.050862674 -0.10912083
0.016276501 -0.052330915 -0.10580926
0.027002977 -0.056385864 -0.10283145
0.03455672 -0.055982552 -0.10099896
0.045995895 -0.05218878 -0.10443757
0.054181159 -0.054847896 -0.10505496
0.060459398 -0.054145057 -0.10344525
0.11134839 -0.052090321 -0.1054794
-0.013175301 -0.046609461 -0.10595994
0.049533278 -0.043749861 -0.10238893
0.083769351 -0.048733938 -0.107779
0.094263636 -0.084906965 -0.095811658
0.10263121 -0.085190535 -0.09387359
0.11378781 -0.081605986 -0.093153633
0.08584071 -0.060076565 -0.092889652
-0.024755275 -0.051826216 -0.092195898
0.0056929579 -0.053164251 -0.094535872
0.03790139 -0.054635245 -0.093689427
0.053411655 -0.051618136 -0.09926331
0.085335419 -0.054406963 -0.094744116
0.091659695 -0.053090461 -0.09555392
0.11828092 -0.054298438 -0.096815221
-0.0026219361 -0.04719945 -0.090149134
0.024210786 -0.041857667 -0.097520627
0.048415631 -0.043164413 -0.091516852
0.060169414 -0.048032112 -0.096635193
-0.32744241 -0.021954933 -0.090259284
0.103644 -0.067371584 -0.084138326
0.11792918 -0.066804931 -0.08786656
-0.021552708 -0.050166175 -0.08876922
-0.00061980635 -0.054436445 -0.080337591
0.017888397 -0.054567531 -0.086471796
0.022250414 -0.055192851 -0.082304329
0.10567302 -0.058947653 -0.088117078
0.0020290874 -0.047002558 -0.087209947
-0.30698541 -0.021239378 -0.089834109
-0.28915545 -0.022525677 -0.085084409
-0.019502824 -0.052091517 -0.071709923
-0.0078232437 -0.055093784 -0.07280048
0.014231041 -0.056115955 -0.070560113
0.022712465 -0.055506028 -0.079531074
0.045725204 -0.057042558 -0.07418783
0.016467879 -0.046904571 -0.075101204
0.025651716 -0.045056686 -0.077754825
0.042798389 -0.042466428 -0.078569554
0.064161465 -0.045458663 -0.073823631
-0.02763319 -0.092047594 -0.060030542
0.014236957 -0.095388882 -0.061417785
-0.033926137 -0.055046126 -0.064566366
-0.024801802 -0.054674551 -0.066100329
-0.015362823 -0.055459701 -0.067601562
-0.0083392654 -0.051255099 -0.066660576
0.0058945259 -0.056018338 -0.068999246
0.017199408 -0.057343453 -0.061170556
0.033929277 -0.057899933 -0.061393142
0.042142853 -0.058257982 -0.061283648
0.0059007686 -0.04975415 -0.064215347
0.046343148 -0.043943997 -0.066048972
0.05808435 -0.044667218 -0.065610528
0.064047314 -0.045479812 -0.067907631
0.076199889 -0.047942612 -0.06358961
-0.31711325 -0.02511636 -0.061873849
-0.30774146 -0.024515318 -0.066875756
-0.29979551 -0.026051654 -0.060014173
-0.28841659 -0.022936374 -0.06998454
-0.0042989408 -0.092319973 -0.056589123
0.0014793453 -0.093807325 -0.05950731
-0.00442226 -0.086476706 -0.054456849
0.0001980119 -0.086959258 -0.050019015
0.013990466 -0.086700633 -0.057924833
-0.0023940837 -0.060399167 -0.054453537
-0.033866536 -0.056687087 -0.051294256
-0.015600136 -0.056586534 -0.058138147
-0.0046697268 -0.055007357 -0.051046778
0.017584629 -0.057522759 -0.059785217
0.023605132 -0.058740124 -0.05134964
0.087906919 -0.054488719 -0.054603454
0.079311326 -0.048099432 -0.055733725
-0.31047857 -0.026003826 -0.055505492
-0.27635455 -0.027034996 -0.056714371
-0.26691812 -0.024500931 -0.050704457
-0.02517651 -0.096379712 -0.047325231
0.0020682837 -0.090941876 -0.046912156
-0.0031008448 -0.07447657 -0.044273101
-0.0056220898 -0.068115726 -0.048185594
0.045334402 -0.060730387 -0.040944546
0.057961032 -0.060470175 -0.046711233
0.064262196 -0.060537089 -0.04857241
-0.032210778 -0.056925274 -0.047714882
-0.024688976 -0.057526283 -0.043712139
-0.0106706 -0.054399472 -0.04578061
-0.0048306976 -0.058555454 -0.044788789
0.018852022 -0.05909384 -0.047046218
0.079400361 -0.059820294 -0.048658796
0.057974517 -0.046254404 -0.041648522
0.072736174 -0.046813518 -0.047315195
-0.29697978 -0.026940845 -0.044727884
-0.27559793 -0.026610328 -0.046678945
-0.012983482 -0.063012898 -0.03178557
-0.0020967126 -0.063829005 -0.033252899
0.025407467 -0.063170828 -0.033252899
0.047320209 -0.064986356 -0.033252899
0.063040085 -0.064501308 -0.033278879
0.081770644 -0.069552079 -0.030439261
0.095904447 -0.060248222 -0.033631001
0.10677856 -0.064856902 -0.032240514
-0.14147238 -0.050805822 -0.031118041
-0.025878441 -0.057646878 -0.035550222
-0.01630988 -0.058281366 -0.035175089
-0.0056411149 -0.054506112 -0.033662453
0.021202529 -0.053270936 -0.033252899
0.038592357 -0.057619978 -0.033252899
0.23248677 -0.052303135 -0.030369375
-0.13865703 -0.046292529 -0.032657765
-0.068083853 -0.043673173 -0.033335201
-0.034624841 -0.04269715 -0.033433288
0.037996974 -0.049496882 -0.037307549
0.055951994 -0.047377981 -0.036142234
0.099886224 -0.044371232 -0.03326584
0.10661329 -0.047461465 -0.03273781
0.13871974 -0.041814081 -0.033521459
0.19648187 -0.047247969 -0.032340001
0.23814043 -0.047020271 -0.032286625
0.26085955 -0.044938084 -0.030532116
-0.16296363 -0.032422461 -0.031846158
-0.15390138 -0.03551466 -0.032896966
-0.12610009 -0.038383827 -0.033787362
-0.0060414877 -0.03501299 -0.033649281
0.039211463 -0.037855893 -0.033915717
0.096137211 -0.032643978 -0.033411946
0.13263179 -0.036882453 -0.03383632
0.1748493 -0.034955747 -0.03364395
0.23790199 -0.0326869 -0.033144608
0.25281388 -0.03442299 -0.031921003
0.26054442 -0.035309017 -0.030867845
-0.30131355 -0.028563689 -0.032110568
-0.25100756 -0.027641183 -0.034341939
-0.096526429 -0.028969444 -0.032560766
-0.053566564 -0.022638578 -0.030066067
0.0030998357 -0.026742909 -0.031789325
0.072063245 -0.02428183 -0.030885318
0.18394446 -0.023049645 -0.030271664
-0.0052154013 -0.071058206 -0.024468577
0.047817953 -0.071027942 -0.026428429
0.097317964 -0.070454895 -0.028206546
-0.14956459 -0.061764155 -0.022597451
-0.084691815 -0.060692925 -0.024943961
-0.051110059 -0.064086735 -0.028974172
-0.023076566 -0.0607149 -0.020950072
-0.0099751269 -0.0607149 -0.023531985
0.017350981 -0.0629379 -0.026607506
0.13106413 -0.060731277 -0.024913037
0.16502529 -0.064280502 -0.020895535
0.17034236 -0.062631011 -0.022955958
-0.16871387 -0.05861491 -0.020987768
-0.14684139 -0.052696571 -0.029711895
-0.088920839 -0.058718599 -0.026525147
-0.070267841 -0.056651387 -0.028180726
-0.0039728223 -0.056695651 -0.028904015
0.12976362 -0.055707913 -0.028666995
0.13559899 -0.056024827 -0.028508537
0.18994904 -0.054819398 -0.029111216
0.22460039 -0.056523506 -0.02817438
0.23577139 -0.058067147 -0.027046168
-0.19461784 -0.040508892 -0.028426576
-0.1756341 -0.048455 -0.027804237
-0.28761861 -0.030004535 -0.022844322
-0.26259372 -0.0307253 -0.022710741
-0.22296776 -0.036723733 -0.023649668
-0.20194146 -0.033670545 -0.028527971
0.26556244 -0.032761987 -0.029560227
0.29651386 -0.034653429 -0.022235701
-0.28599095 -0.028264679 -0.023646777
-0.23462972 -0.025432598 -0.020308439
-0.22840555 -0.028176256 -0.02244883
-0.21055241 -0.025365541 -0.026082657
-0.20955336 -0.029272322 -0.026790727
-0.19101267 -0.025966905 -0.02852831
-0.092248842 -0.02232405 -0.029909529
0.11191099 -0.022288436 -0.029891629
0.2072961 -0.021286197 -0.029393155
0.27400652 -0.023774065 -0.024453413
-0.19877192 -0.016185703 -0.023484755
-0.18119279 -0.016967906 -0.024877992
-0.17858356 -0.014974511 -0.02345882
-0.16143531 -0.011684925 -0.020861031
-0.1434276 -0.015028001 -0.024696404
-0.091827467 -0.016625045 -0.026365113
-0.084666699 -0.019418605 -0.028461978
-0.055846579 -0.014987243 -0.025047926
-0.018400585 -0.015760843 -0.02566959
0.011317943 -0.01720359 -0.026830511
0.11842488 -0.017156282 -0.026791953
0.12203843 -0.012837533 -0.022848206
0.14452083 -0.011992995 -0.021793576
0.18842371 -0.019734444 -0.0286198
0.21255001 -0.014925908 -0.024998371
0.24058735 -0.012461444 -0.021709263
-0.014705176 -0.071412802 -0.017006787
-0.0052472996 -0.071146205 -0.014767432
0.0064218692 -0.070879601 -0.017011546
0.013942827 -0.071412802 -0.017751979
0.033311062 -0.071412802 -0.016545113
0.055792935 -0.071412802 -0.012535901
0.063415214 -0.071412802 -0.018787589
0.099083081 -0.071412802 -0.01755652
0.11651357 -0.070993692 -0.012871055
-0.13030636 -0.068976581 -0.012307356
-0.0954528 -0.068733148 -0.01303786
-0.08100041 -0.066464588 -0.017593382
-0.071066983 -0.066518083 -0.017486088
-0.050686412 -0.069974169 -0.015662853
-0.0056019919 -0.0607149 -0.016508903
0.008287875 -0.0607149 -0.015494714
0.13943277 -0.068522863 -0.013465045
0.17266288 -0.067536548 -0.015153483
0.22786616 -0.068779401 -0.012899079
0.25309473 -0.068401225 -0.011824783
0.27499974 -0.06983152 -0.012276083
-0.21097 -0.050723899 -0.019515479
-0.1761165 -0.059527371 -0.018384406
0.2882489 -0.059287224 -0.018289577
-0.22904378 -0.046215273 -0.017912816
-0.2525444 -0.034077529 -0.017354351
-0.24051924 -0.028270496 -0.019752463
-0.23840612 -0.025296405 -0.019342083
-0.24495415 -0.014326917 -0.013519214
-0.23264676 -0.010873009 -0.011787374
-0.21736968 -0.011583551 -0.016186809
-0.16960576 -0.010638257 -0.019278836
0.087902553 -0.01039487 -0.01979821
0.25465772 -0.01034302 -0.015774289
0.26789173 -0.010308481 -0.01025299
-0.23003882 -0.0097463196 -0.010468656
-0.20828161 -0.0073652598 -0.011776913
-0.13731395 -0.0093469024 -0.018109955
-0.08929266 -0.0087071471 -0.016826116
-0.03221681 -0.0090339649 -0.017481964
-0.0038146281 -0.0096074548 -0.018632738
0.0086717438 -0.0062497128 -0.011336477
0.020706408 -0.0077112094 -0.014826367
0.045706678 -0.0092253312 -0.017864957
0.069932714 -0.0088365059 -0.017085567
0.093621209 -0.006474148 -0.012003477
0.14323467 -0.0064192601 -0.011841428
0.18436095 -0.0090207588 -0.017454667
0.19295256 -0.0088061104 -0.017023791
0.22371908 -0.0076429639 -0.014644054
0.23500597 -0.0077122943 -0.014091869
-0.13520657 -0.071302913 -0.00138134
-0.097037815 -0.071047828 -0.0039381841
-0.048980832 -0.070891634 -0.0055036475
-0.033201046 -0.071412802 -0.0023972758
0.045986451 -0.071412802 -0.0076765399
0.094922371 -0.071412802 -2.5711983e-05
0.12729074 -0.070905246 -0.0053672083
0.14603624 -0.070612296 -0.0073988819
0.2454876 -0.070618197 -0.0045559052
0.25789297 -0.070236906 -0.0030051272
-0.19878705 -0.060920537 -0.0050159693
-0.18097672 -0.0646597 -0.00073768781
-0.1757111 -0.065373704 -0.0031727375
-0.1693325 -0.066063091 -0.007287683
-0.026629668 -0.06511455 -0.0088999504
-0.0041720085 -0.062629439 -0.0088999504
0.0027987571 -0.067873061 -0.0088999504
0.18732418 -0.069984056 -0.0092841089
0.25632703 -0.069580413 -0.0076169157
0.29180366 -0.065342538 -0.0050112954
0.3366186 -0.046154466 -0.0040388047
-0.31715721 -0.022131439 -0.0027462323
-0.3097066 -0.022312026 -0.0041945903
-0.28728923 -0.024564786 -0.0085824952
-0.29669493 -0.017599029 -0.0039039948
-0.28395388 -0.013990038 -0.0029414797
-0.2741496 -0.015637839 -0.0086088208
-0.25994378 -0.011202282 -0.0041793562
-0.24215633 -0.005308365 -0.00251893
-0.23693649 -0.0084289443 -0.0035025645
-0.22913365 -0.0053037377 -0.0043264483
-0.20728372 -0.0028828159 -0.00075210177
-0.16910449 -0.0058420822 -0.0096041132
-0.14401677 -0.0054882877 -0.0090757962
-0.13145371 -0.0043451986 -0.0025171181
-0.070447914 -0.0044680927 -0.0037489461
-0.067023411 -0.0046716859 -0.0057896608
-0.027490601 -0.0042455075 -0.0015178676
-0.0051805899 -0.0044261981 -0.0033290139
0.036163535 -0.0044260924 -0.0033279611
0.051156491 -0.0045440053 -0.0045098579
0.077870935 -0.0045279912 -0.0041390071
0.14723787 -0.0041551525 -0.00061218825
0.1612878 -0.0054837675 -0.0090608066
0.17537212 -0.0046072965 -0.0045114658
0.20303652 -0.0044234442 -0.0031191369
-0.29743642 0.0092045451 -0.00019894482
-0.24899954 0.0037045006 -0.0033003294
-0.29670668 0.012089912 -7.646712e-05
-0.27891672 0.013562582 -0.0016211476
-0.26655838 0.015492911 -0.0024842795
-0.25367489 0.012532429 -0.0032172236
-0.23564181 0.013893669 -0.0028579941
-0.28442723 0.02134205 -0.0014674964
-0.2407867 0.028568573 -0.0012589821
-0.29817632 0.034090154 -0.00086658326
-0.27598932 0.032214683 -0.0022908931
-0.30197942 0.04045631 -0.00076743745
-0.27718705 0.045601752 -0.0025319341
-0.31337285 0.052018587 -0.00030834114
-0.30502489 0.057152275 -0.00095418701
-0.2969391 0.053495556 -0.001483944
-0.31771937 0.066114105 -0.00021752593
-0.28613308 0.067431837 -0.0026316391
-0.28377387 0.075310975 -0.00082125567
-0.30878308 0.084685996 -0.0014839164
-0.29791081 0.09160772 -0.00052003912
-0.14524864 -0.071143597 0.00032876639
-0.10821392 -0.071085215 0.003004171
-0.032703832 -0.071412802 0.0045070699
-0.018422218 -0.071412802 0.0061557484
-0.00069545093 -0.071412802 0.0050311857
0.0022642165 -0.071412802 0.0070988783
0.013863077 -0.070848167 0.0083415499
0.036325123 -0.071412802 0.0077594435
0.064161748 -0.071412802 0.00016442373
0.085554764 -0.071412802 0.008246162
0.10265467 -0.071412802 0.0017287137
0.14625531 -0.071158655 0.0022678974
0.15176819 -0.070872255 0.0051391274
0.16742563 -0.070932694 0.0045332368
0.25219679 -0.070534542 0.0020799297
-0.18661401 -0.063310891 0.0030234023
-0.15493876 -0.068628691 0.0068888478
-0.06036837 -0.069768302 0.0093723862
0.0051342277 -0.069440089 0.0083415499
0.26479849 -0.069459818 0.0023395976
0.27455837 -0.067946024 0.0044293632
-0.24009761 -0.05033166 0.0085695405
-0.21335831 -0.058254734 0.0010255114
0.32165319 -0.056474909 0.0005596843
0.33061665 -0.051875889 0.0022264533
-0.2827335 -0.04288651 0.00030341861
-0.31322017 -0.03263339 0.0034126595
-0.30064067 -0.037285283 0.0040704762
-0.32546112 -0.020017011 0.00057202467
-0.30043474 -0.027768619 0.0054370766
-0.28481448 -0.027068712 0.0085890461
-0.32711762 -0.018683041 7.5484568e-06
-0.31596798 -0.019579787 0.0024174638
-0.29452506 -0.016919859 0.0051045818
-0.26657572 -0.0081319455 0.0013628691
-0.253382 -0.0071804277 0.0022128962
-0.23119298 -0.0036393222 0.0036776564
-0.18201771 -0.0043361336 0.0015487983
-0.068691559 -0.004379103 0.002296898
-0.014037935 -0.0042328248 0.00083072716
0.048034001 -0.004184573 0.00034725544
0.056088164 -0.0044439873 0.0029481035
0.062125251 -0.0048241732 0.0059978203
0.078830183 -0.0046978169 0.005492962
0.12443894 -0.0044223857 0.0027315302
0.15717803 -0.0054723332 0.0084693246
0.20828132 -0.0046827132 0.0053415317
0.23898686 -0.0051287399 0.0065998752
-0.29114559 0.0023808749 5.9633356e-05
-0.22955598 0.0033619483 0.003027024
-0.24179426 0.016495839 0.0029318747
-0.26080796 0.02757162 0.0025685406
-0.2534366 0.029274153 0.0028279135
-0.28723434 0.03416289 0.0010381429
-0.29031914 0.041391194 0.001055916
-0.25907961 0.045597102 0.0010012838
-0.31041867 0.055902708 1.6605431e-05
-0.29459167 0.053576842 0.0010769137
-0.28947198 0.057403468 0.0014856654
-0.28821033 0.061389957 0.001659777
-0.277955 0.061797515 0.0015884789
-0.31450814 0.088600934 0.00066112727
-0.29562324 0.0866234 0.00043659669
-0.31981605 0.095574908 0.00047765853
-0.031350609 -0.071412802 0.019899534
-0.015887901 -0.070879601 0.016810117
-0.0056728795 -0.070879601 0.012193723
0.0056796866 -0.070879601 0.017810283
0.093275607 -0.071412802 0.018220864
0.28190097 -0.070716262 0.011677527
-0.1525715 -0.065748967 0.015128048
-0.0939373 -0.068793096 0.012298018
-0.081474341 -0.0695301 0.010086991
-0.066292703 -0.068823174 0.012207775
-0.0268068 -0.06554471 0.015002333
-0.012354907 -0.0607149 0.016364064
0.0092121596 -0.060714904 0.012436787
0.14017239 -0.068227462 0.013497813
0.20118189 -0.069003738 0.011666081
0.22624671 -0.065142974 0.019259786
0.27390304 -0.064426444 0.015592334
0.28089407 -0.059582055 0.019461412
0.2954413 -0.056348592 0.017579919
0.30731964 -0.054778468 0.01444754
-0.24440722 -0.043370266 0.015238048
-0.22524175 -0.04760405 0.017356221
0.30018839 -0.048034236 0.019756401
0.32074621 -0.049317546 0.011601486
-0.28425309 -0.030433225 0.018850591
-0.25532174 -0.031373151 0.017597616
-0.2458093 -0.036890682 0.017970514
-0.27496415 -0.025383465 0.014101417
0.29824147 -0.02703443 0.01893162
0.30050701 -0.026135774 0.017922968
-0.27370217 -0.019570732 0.010633788
-0.26940802 -0.018488528 0.011376251
-0.23999351 -0.014880626 0.014460216
-0.22679898 -0.014468038 0.016117647
-0.20655122 -0.011555579 0.018047905
-0.023212766 -0.010648904 0.019556988
0.072758116 -0.010837834 0.019793412
0.21151114 -0.010292976 0.019112421
-0.20627467 -0.0069945976 0.010975152
-0.11073447 -0.0092145894 0.0172855
-0.10452466 -0.007779575 0.014404926
-0.067514554 -0.0071941768 0.013229484
-0.041505463 -0.0095253233 0.017909298
0.054613214 -0.0085809249 0.016014565
0.070492342 -0.0081934007 0.015235246
0.085934013 -0.0077999774 0.01444547
0.12676005 -0.0092426334 0.017341008
0.15811962 -0.0062756445 0.010855007
0.17747656 -0.0060773334 0.010266096
-0.011259875 -0.070879601 0.021372695
-0.0037690164 -0.070879601 0.020777121
0.0089188442 -0.070371412 0.026424214
0.015814323 -0.070969731 0.023370681
0.026884004 -0.071412802 0.023120109
0.034381412 -0.071210809 0.024567738
0.078854613 -0.071327791 0.023734549
-0.13125949 -0.060132291 0.024834562
-0.098364875 -0.062761173 0.022234969
-0.059260234 -0.066011019 0.022705834
-0.0066076545 -0.0607149 0.024715897
0.021385871 -0.069697037 0.029522374
0.14749651 -0.063316472 0.021541325
0.15624636 -0.063218087 0.021664228
0.16058575 -0.063021779 0.021909432
-0.11737546 -0.053428058 0.029248521
-0.10463318 -0.055464439 0.028230334
-0.096616156 -0.055510137 0.028207481
-0.076177344 -0.059247404 0.025543246
0.13862532 -0.055108931 0.028382264
0.16463107 -0.059704591 0.025177097
0.18963869 -0.059512597 0.02533086
0.19744933 -0.057761062 0.026733618
-0.21287607 -0.048357524 0.02023169
-0.17547551 -0.043038715 0.02912941
0.28388271 -0.047358748 0.024493415
-0.23112389 -0.039232951 0.020646138
-0.19959889 -0.03728364 0.027784009
-0.1859076 -0.035606332 0.029371474
-0.17915834 -0.031234363 0.029704191
-0.30121002 -0.028374521 0.026334545
-0.29759952 -0.028570805 0.023653669
-0.24528304 -0.026973896 0.02512124
-0.20504327 -0.023647804 0.026139028
-0.19077048 -0.025960252 0.027982755
-0.17624639 -0.022698032 0.027592802
-0.064541928 -0.021501981 0.028941374
-0.018707568 -0.023120394 0.029748399
-0.0067428933 -0.021176197 0.028779421
0.031862017 -0.022138434 0.029259622
0.10017895 -0.021118825 0.028751481
0.23655888 -0.020880841 0.028626384
0.26701409 -0.02075047 0.023821015
-0.22028099 -0.019933797 0.021018859
-0.20675357 -0.018811885 0.023720447
-0.16813049 -0.013330726 0.022111475
-0.14089808 -0.015502657 0.024904054
-0.13397047 -0.013481128 0.023093442
-0.11632994 -0.013522555 0.023145147
-0.082643375 -0.01798729 0.026902629
0.014490967 -0.017315682 0.026361756
0.021639809 -0.016892772 0.026022078
0.059090666 -0.017750606 0.026711984
0.060777061 -0.011195881 0.02024016
0.080897652 -0.016851414 0.025989115
0.10211982 -0.016165283 0.025436625
0.12602898 -0.017227698 0.0262914
0.15318508 -0.01464761 0.024216274
0.18252015 -0.01581756 0.025157353
0.22541168 -0.01263535 0.02197051
0.24115202 -0.013105682 0.021862784
-0.010578563 -0.064830609 0.0326945
-0.0045235888 -0.064724803 0.035675809
0.053356711 -0.06056536 0.0326945
-0.045643914 -0.056088492 0.031588562
-0.030339049 -0.057932697 0.0326945
-0.025284968 -0.059073165 0.03565526
0.0089530433 -0.059607003 0.0326945
0.094920412 -0.054979093 0.0326945
0.13127479 -0.050034311 0.030856375
0.15021943 -0.050413638 0.030730594
-0.13027477 -0.041263647 0.033016738
-0.076914772 -0.048908986 0.031230392
0.00014521834 -0.043864835 0.032757789
0.035298266 -0.049854159 0.0326945
0.048907071 -0.047865316 0.038825825
0.064663708 -0.043863237 0.036344364
0.14774233 -0.045096189 0.032496694
0.15560836 -0.043415509 0.032758843
0.16660081 -0.046779744 0.031937238
-0.16716921 -0.033932984 0.031094857
-0.13489373 -0.03990297 0.033152677
-0.10560539 -0.03530914 0.033119664
-0.080093622 -0.036143791 0.033203397
-0.074164271 -0.031833339 0.032772385
-0.011184377 -0.039306022 0.033212341
-0.0099958377 -0.036316752 0.033221029
0.14909306 -0.031750225 0.03273721
0.15168479 -0.036404699 0.033229571
0.16559274 -0.035002727 0.033088923
0.20116004 -0.036372595 0.033226352
0.21912274 -0.037996259 0.033343248
-0.29445416 -0.027536089 0.038178477
-0.28659296 -0.028849121 0.034486186
-0.11883307 -0.025367638 0.030805688
-0.093128651 -0.027087554 0.031376746
-0.020723913 -0.026005957 0.031017626
0.01258555 -0.029897071 0.032309875
0.038795847 -0.024451304 0.030411549
0.044010609 -0.024179945 0.030275563
0.064491272 -0.024303438 0.030337973
0.16393027 -0.026634166 0.031226337
-0.0072814063 -0.085727416 0.049806047
0.051800024 -0.060657971 0.043389969
-0.0327815 -0.057641968 0.042516883
-0.017515935 -0.056575127 0.046040475
0.017925777 -0.054883316 0.045209449
0.02715379 -0.05946682 0.046300851
0.027684178 -0.049456812 0.04621172
0.073172212 -0.046867318 0.048381567
-0.29393634 -0.025526669 0.04881594
-0.28784668 -0.027665939 0.046308458
-0.26396668 -0.028931053 0.040234223
-0.0055841994 -0.094475403 0.053694144
0.003315951 -0.093879826 0.050433282
-0.012808723 -0.08617869 0.053997621
-0.0067522712 -0.087201372 0.054006487
-0.0028318532 -0.077620603 0.05307322
0.00070015196 -0.07972724 0.054983675
-0.0047497195 -0.061516624 0.055102218
0.0026713097 -0.066373065 0.054790564
-0.02225741 -0.057379402 0.050321281
-0.0061322465 -0.056899399 0.058225919
0.023657238 -0.058528304 0.053130154
0.041098647 -0.058646739 0.057196025
0.075870886 -0.059569832 0.052096419
0.084060863 -0.058212288 0.050995685
0.032726046 -0.047031928 0.058838252
0.064420745 -0.045610629 0.055263933
0.074522927 -0.04701319 0.055012651
-0.31396669 -0.024876386 0.059735384
-0.30668229 -0.025060229 0.056383468
-0.2868638 -0.024557088 0.055098139
-0.024282159 -0.092110172 0.06202938
-0.030250607 -0.054854132 0.062422946
-0.0050845109 -0.056465507 0.06214213
0.021977875 -0.05759909 0.060399514
0.049492143 -0.058170594 0.065035284
0.077465981 -0.054435402 0.067686886
0.058573954 -0.044733074 0.065937117
-0.31113598 -0.024696372 0.060509473
-0.0024107664 -0.054994401 0.075169921
0.055239461 -0.056923024 0.077363119
-0.0015215701 -0.049695652 0.07164079
0.0023364229 -0.048141651 0.079373464
0.055218223 -0.044236954 0.070855781
-0.3063325 -0.024171187 0.076781042
-0.2893061 -0.022848828 0.07043162
0.074261822 -0.073822573 0.089229241
0.096846394 -0.074214816 0.083963305
0.10910432 -0.074469931 0.089450851
0.11458409 -0.073318928 0.084403314
0.068627171 -0.068450198 0.088225231
0.093999378 -0.061183989 0.086448118
-0.02116969 -0.053021122 0.086279333
-0.0068518808 -0.053796139 0.083900318
0.019497814 -0.054775853 0.085144252
0.049802002 -0.056322508 0.082609765
-0.013641842 -0.049419723 0.085458487
0.0081775133 -0.046212684 0.0863875
0.049179319 -0.043300711 0.0866547
0.065335229 -0.046404589 0.081102595
-0.32720536 -0.022669956 0.083119832
-0.29186201 -0.021630157 0.082270175
0.09532135 -0.080596484 0.092729017
0.10460055 -0.085086375 0.093232371
0.11891854 -0.087151505 0.093941599
0.1200105 -0.084098056 0.09285894
0.053016335 -0.068445921 0.095502928
0.066283375 -0.061376099 0.095119312
0.073942587 -0.063154072 0.090061411
-0.010951461 -0.052522756 0.094032884
-0.0057078912 -0.052487753 0.096153446
0.040975731 -0.050670151 0.099263296
0.062163807 -0.054085698 0.099263303
0.07455305 -0.0577555 0.092958786
0.10636652 -0.055535559 0.097411439
0.11928119 -0.058719628 0.096406683
0.058199663 -0.047757156 0.097094342
-0.32299697 -0.021542016 0.097440079
0.11098985 -0.091077477 0.10208637
0.06611637 -0.080330536 0.10110971
0.088356502 -0.084891722 0.10103242
0.10879101 -0.08117085 0.10866667
0.045739613 -0.071333855 0.10600972
0.058383487 -0.07785102 0.10727032
0.053058088 -0.061461091 0.10431442
0.108791 -0.069926061 0.10253974
-0.0043701017 -0.05200512 0.10061552
0.038871191 -0.053043988 0.10572442
0.045404226 -0.05155611 0.10304499
0.064437494 -0.057293035 0.10492715
0.075853027 -0.050245922 0.107779
0.086241603 -0.055024389 0.105203
-0.034610946 -0.049712975 0.10863703
-0.012536835 -0.046806116 0.10375828
0.017322879 -0.042210352 0.10199678
0.022450522 -0.040906698 0.1045782
0.031564925 -0.040765908 0.10137458
0.065864578 -0.048422001 0.10437002
-0.33019727 -0.020609448 0.10081089
-0.33554083 -0.019981395 0.1083919
-0.30887198 -0.019873189 0.10750347
0.087331548 -0.087484904 0.11342583
0.10222105 -0.086308159 0.1166571
0.054212071 -0.072124645 0.11127124
0.058008313 -0.066908672 0.11250103
0.071106814 -0.068854652 0.11846866
0.0040996457 -0.050292101 0.11992533
0.010389479 -0.05158402 0.11036086
0.069280401 -0.056714289 0.11268388
0.074004419 -0.057015039 0.11419143
0.096310794 -0.057050802 0.11749285
-0.033786237 -0.048758861 0.11700934
-0.023897586 -0.046097971 0.11982077
0.0043780603 -0.04180529 0.11697906
0.035876893 -0.041305814 0.11066719
-0.31750026 -0.020351691 0.11278719
-0.33222926 -0.019948939 0.1103054
-0.31593412 -0.018993855 0.11203168
0.10031452 -0.070543475 0.12327967
0.11812023 -0.065683156 0.12093609
0.032951131 -0.041410305 0.12919681
0.012379033 -0.039248198 0.12330019
-0.038296793 -0.046684589 0.13120341
-0.028947104 -0.045725942 0.13435395
0.0055812895 -0.04828278 0.13980107
0.011184639 -0.03771089 0.13795464
-0.034628317 -0.04606415 0.14236233
-0.012683829 -0.046812188 0.14538422
-0.04488302 -0.042558312 0.15714532
-0.032078739 -0.045295265 0.1508864
-0.0089764185 -0.037289452 0.15312174
0.010606719 -0.037537318 0.15290047
-0.039469823 -0.043533321 0.16428936
-0.0099381041 -0.04522806 0.16178741
-0.058650292 -0.041084576 0.17853326
-0.035301629 -0.043127701 0.17009406
-0.0033681281 -0.043807097 0.17500573
0.0025023669 -0.043502331 0.17254116
-0.044526733 -0.039816312 0.17144668
-0.014783184 -0.034912311 0.17189834
-0.00788402 -0.034816794 0.17788979
-0.045100398 -0.040931303 0.18653077
-0.031586289 -0.035592526 0.18269295
-0.050046623 -0.037126705 0.19104409
-0.025159949 -0.032820005 0.19363859
-0.019045994 -0.033157114 0.19576225
-0.061442003 -0.038210206 0.20494753
-0.058955528 -0.036006916 0.20473662
-0.0661043 -0.036568061 0.2184705
-0.04676782 -0.037867542 0.21614534
-0.019998457 -0.036582697 0.21437651
-0.074361786 -0.035367638 0.2259385
-0.068529546 -0.035987005 0.22185901
-0.050172426 -0.031833347 0.22067127
-0.074208207 -0.033933982 0.23817426
-0.060643867 -0.030809933 0.23552458
-0.058104657 -0.030726684 0.23393039
-0.049879082 -0.036021858 0.23360416
-0.035710827 -0.032934356 0.2326823
-0.055675715 -0.029313382 0.23996697
-0.050455943 -0.034570508 0.24738275
-0.083348356 -0.030275626 0.25675869
-0.048910752 -0.030401185 0.2592102
-0.068710387 -0.027878912 0.25875697
-0.04808189 -0.028939068 0.25096869
-0.08464779 -0.029065441 0.26473597
-0.05155088 -0.029130079 0.26222074
-0.075569555 -0.030343654 0.275796
-0.09774524 -0.028704291 0.276775
-0.096440062 -0.027700439 0.28966662
-0.080321476 -0.029456645 0.28193015
-0.10194142 -0.026530311 0.29431072
-0.081286535 -0.023953222 0.29612994
-0.076747045 -0.024544433 0.29349303
-0.10883322 -0.025317945 0.3053593
-0.096643209 -0.02519243 0.30502212
-0.1121335 -0.020308446 0.33942258
-0.10031033 -0.021270059 0.33001891
-0.11525393 -0.022306431 0.34046197
