# .PCD v0.7 - Point Cloud Data file format
VERSION 0.7
FIELDS x y z
SIZE 4 4 4
TYPE F F F
COUNT 1 1 1
WIDTH 825
HEIGHT 1
VIEWPOINT 0 0 0 1 0 0 0
POINTS 825
DATA ascii
-0.12768263 -0.0055533648 -0.35043228
-0.11936322 -0.00077403174 -0.35192829
-0.11529992 -0.023013972 -0.34383079
-0.10495828 -0.0281833 -0.34268528
-0.11698452 -0.012460858 -0.34744805
-0.11434808 -0.0060637165 -0.34999979
-0.10515725 -0.03604966 -0.33402443
-0.082029954 -0.037979141 -0.32101852
-0.086363837 -0.037451439 -0.31462854
-0.073686004 -0.038422484 -0.31673604
-0.08255361 -0.039361857 -0.30396044
-0.075530328 -0.039192535 -0.30738908
-0.065347001 -0.037097141 -0.30345598
-0.081630394 -0.040287346 -0.29253483
-0.064220272 -0.040746994 -0.29034504
-0.059581473 -0.040020481 -0.29917532
-0.068659246 -0.039974689 -0.29896396
-0.050546303 -0.041655689 -0.2808924
-0.07683108 -0.038672984 -0.28838593
-0.059308346 -0.038147558 -0.28915906
-0.087154254 -0.041384321 -0.27641439
-0.05938815 -0.042124629 -0.27451551
-0.064750448 -0.042763062 -0.26568943
-0.059359819 -0.043000426 -0.26389167
-0.038770609 -0.042176463 -0.26391056
-0.082921982 -0.043014169 -0.25647166
-0.063182384 -0.043882336 -0.2520197
-0.051836293 -0.043631449 -0.25751603
-0.060854174 -0.044423662 -0.24578992
-0.043515351 -0.041981317 -0.24120799
-0.027935395 -0.045503441 -0.23792931
-0.06303145 -0.053007558 -0.22130942
-0.061334155 -0.043900535 -0.22960463
-0.019873336 -0.046779066 -0.22371037
-0.071029112 -0.046247233 -0.21585761
-0.0658051 -0.046629444 -0.21367282
-0.05349306 -0.044637062 -0.21814735
-0.064993821 -0.047788698 -0.20028789
-0.043617118 -0.047869086 -0.20683707
-0.03629363 -0.044985279 -0.20636615
-0.026560141 -0.04464471 -0.20683436
-0.036591824 -0.046323847 -0.192292
-0.012378247 -0.047338076 -0.19506755
-0.027623696 -0.050096139 -0.18288609
-0.013623545 -0.050354306 -0.18230759
-0.062081713 -0.048870731 -0.18499641
0.0080114715 -0.048613936 -0.18360765
-0.039825413 -0.050529048 -0.17398645
-0.014223687 -0.050644267 -0.17874643
-0.00068442477 -0.051335093 -0.17223124
-0.030575704 -0.047906533 -0.17290086
-0.027183669 -0.047648471 -0.17387411
-0.0048151771 -0.047025718 -0.17325516
0.0066055995 -0.047287323 -0.17491257
0.013203193 -0.048344884 -0.1708197
-0.036751218 -0.051255014 -0.16563432
-0.011688079 -0.052154008 -0.1608167
0.00014016754 -0.051658966 -0.16849722
-0.030525602 -0.055032216 -0.15485618
-0.018526495 -0.050809272 -0.15523708
-0.0040759789 -0.048149772 -0.15956439
6.4909924e-05 -0.048735477 -0.15155908
0.02227582 -0.049746618 -0.15572113
-0.046461131 -0.052480161 -0.14305036
-0.037010476 -0.052422408 -0.14399913
-0.029020086 -0.053421084 -0.14024933
-0.033928789 -0.053651966 -0.13548547
-0.017498417 -0.052801393 -0.13194953
-0.0065687736 -0.05031373 -0.13621199
0.0066360314 -0.054504935 -0.1354011
0.031545375 -0.0507432 -0.13345514
0.07756874 -0.080761373 -0.120564
0.085376568 -0.086003572 -0.1200974
0.090104297 -0.086008564 -0.12012108
0.10015234 -0.084823564 -0.12011235
-0.030822357 -0.054194484 -0.12953991
-0.0039239288 -0.051668901 -0.1205043
0.003805774 -0.050953854 -0.12503746
0.025475388 -0.053955335 -0.12449054
0.035888024 -0.051358692 -0.12656727
-0.31076774 -0.023222815 -0.12816875
-0.29123777 -0.023261553 -0.12663896
-0.28619763 -0.023985926 -0.12303914
0.071889065 -0.094896719 -0.11521168
0.085655257 -0.093052134 -0.11703088
0.10597771 -0.091246858 -0.11715275
0.065114982 -0.08542639 -0.11689213
0.06462203 -0.077774927 -0.11789568
0.07387954 -0.07175564 -0.11777177
0.10578964 -0.072940886 -0.11730131
-0.032230202 -0.054111332 -0.11400185
-0.023089753 -0.055630382 -0.11362546
-0.013225701 -0.055889029 -0.11358998
0.021654075 -0.051232941 -0.11657326
0.06067995 -0.09843491 -0.10149995
0.10050736 -0.097190432 -0.10034239
0.039682131 -0.085614055 -0.10120337
0.076115042 -0.080402866 -0.10663772
0.042778715 -0.075648837 -0.10847601
0.072214618 -0.076499857 -0.1087919
0.011699817 -0.066126041 -0.10454352
0.029383661 -0.065860018 -0.10093879
0.051366165 -0.065721355 -0.10687371
0.07756947 -0.064536415 -0.10673909
0.085797772 -0.064855665 -0.10762139
0.11358774 -0.066884615 -0.10800803
-0.037901357 -0.055891652 -0.10416109
-0.026772588 -0.056051467 -0.1067449
-0.0045447713 -0.056807823 -0.10440584
0.0074748574 -0.057070155 -0.10413718
0.022411037 -0.052178912 -0.10504822
0.035827626 -0.056878198 -0.10536889
-0.29548597 -0.026275307 -0.10570261
0.040422611 -0.092493251 -0.097563088
0.064987302 -0.097506791 -0.096839562
0.078788161 -0.095289551 -0.091840446
0.082773402 -0.099536307 -0.095239371
0.10016835 -0.099037372 -0.091489568
0.04408453 -0.0811515 -0.0903484
0.06506785 -0.084306709 -0.092666894
0.070681393 -0.079019614 -0.092728317
0.077541269 -0.064602599 -0.095656693
0.088319562 -0.064026751 -0.096489675
0.092032723 -0.061210491 -0.095344901
0.10351437 -0.06658306 -0.096123338
0.11562543 -0.069890201 -0.090208597
-0.025607888 -0.056415122 -0.092884123
0.0071124039 -0.057782166 -0.095179662
0.049141873 -0.059931107 -0.097894982
0.056815013 -0.055484891 -0.0974622
-0.29950261 -0.027593836 -0.093823075
-0.28830695 -0.026842279 -0.091272473
-0.27942839 -0.026847301 -0.092620932
-0.26461145 -0.028027896 -0.092721358
0.083049864 -0.09174937 -0.085027136
0.07445541 -0.089644797 -0.086156949
0.073286489 -0.075690016 -0.085584499
0.085595995 -0.073790252 -0.084527344
0.011256033 -0.061576929 -0.085211359
0.097940475 -0.068395846 -0.087334633
-0.027274199 -0.057348136 -0.081255443
-0.0056875348 -0.058601156 -0.083040498
0.005530647 -0.058303755 -0.087581359
0.017950341 -0.056031473 -0.088977382
0.028571818 -0.0534762 -0.08707156
-0.26990032 -0.031733587 -0.081516065
-0.29793087 -0.028384663 -0.086898156
0.03083615 -0.060051698 -0.071945071
0.051532984 -0.06026759 -0.072221726
-0.018566286 -0.056802709 -0.073838703
-0.0034942168 -0.05599134 -0.070731014
0.0032055343 -0.05531906 -0.074750617
0.014116708 -0.05789632 -0.076395445
0.047936704 -0.05390868 -0.073577903
-0.28115392 -0.031433985 -0.075564936
-0.27897573 -0.032153498 -0.070305333
-0.29461879 -0.029130684 -0.074088223
-0.27872917 -0.028977115 -0.072516315
-0.25644255 -0.029719256 -0.076564036
-0.0013143036 -0.10876723 -0.068475895
0.016507998 -0.10704628 -0.066099063
0.0060621127 -0.073131286 -0.062143374
0.022850633 -0.060530588 -0.064256147
0.032892019 -0.060252178 -0.069808803
0.045780063 -0.060817711 -0.064855427
-0.02932195 -0.058019988 -0.069162324
-0.017513461 -0.05701445 -0.069903091
0.059026971 -0.054102831 -0.0679795
0.062710248 -0.054310322 -0.063677505
-0.28836209 -0.031283543 -0.067488164
-0.25650832 -0.031826396 -0.064485215
-0.24993116 -0.031258494 -0.062002942
0.000914453 -0.10518291 -0.054643489
0.012757919 -0.10022023 -0.052609388
0.0015558093 -0.09488932 -0.058763701
-0.030499911 -0.060116749 -0.051637322
0.012792609 -0.060814276 -0.058079768
0.051509615 -0.061871499 -0.052730922
0.072938658 -0.061640345 -0.057706032
-0.027061045 -0.058829755 -0.055714335
-0.019332664 -0.059903059 -0.059195399
-0.0041702962 -0.057167385 -0.054960996
0.020671036 -0.056015756 -0.051694658
-0.27573845 -0.030689897 -0.05675216
-0.26720905 -0.031387925 -0.051536568
-0.23846945 -0.036288098 -0.051030882
0.013906289 -0.10590795 -0.048973951
0.02366185 -0.10120409 -0.049343847
0.0095074251 -0.098461702 -0.049105734
-0.0076642232 -0.061440527 -0.043237649
0.04192248 -0.062124208 -0.04802116
0.054455243 -0.062586807 -0.044364374
0.077436052 -0.063074499 -0.041123334
0.093769506 -0.063123956 -0.04149599
-0.016864303 -0.058837466 -0.044553932
0.024550589 -0.056081489 -0.048054483
-0.28526405 -0.033029024 -0.045521762
-0.2723369 -0.035005245 -0.047870658
-0.24000096 -0.032945149 -0.049840942
-0.023976143 -0.076558888 -0.033030603
0.053145267 -0.076928176 -0.033320036
0.06514594 -0.073220052 -0.034833807
0.077536002 -0.076093078 -0.03371501
0.08236561 -0.073219799 -0.034833834
0.094702952 -0.071619645 -0.034968141
0.10072983 -0.075102866 -0.033901788
0.12326762 -0.074636549 -0.031995818
-0.061746173 -0.063083403 -0.031173877
-0.033228748 -0.064266048 -0.033736251
0.0029949713 -0.069213532 -0.035092998
0.020049095 -0.064107932 -0.035078328
0.048861768 -0.062992483 -0.038412027
0.070160165 -0.063321441 -0.037388552
0.081444509 -0.06454578 -0.035083607
0.09596812 -0.062312745 -0.035006583
0.10136117 -0.067248665 -0.0347967
0.19912817 -0.060428172 -0.032327503
-0.12085224 -0.052109919 -0.03421599
-0.1165098 -0.055849984 -0.03328485
-0.081003241 -0.058208942 -0.032921739
-0.062517688 -0.051871359 -0.034269314
-0.033966444 -0.058179487 -0.033530265
-0.015308895 -0.059368059 -0.035065744
-0.0091875438 -0.05868873 -0.038787235
0.013796289 -0.059534166 -0.03500342
0.036081754 -0.056448057 -0.033682983
0.053020351 -0.050606038 -0.034618702
0.062925741 -0.059101503 -0.034991696
0.10646933 -0.059787475 -0.034097526
0.11872806 -0.056305807 -0.033843406
0.13086399 -0.051806718 -0.034274466
0.14964212 -0.052475575 -0.034186948
0.21956427 -0.050573807 -0.034372736
0.23703927 -0.056371227 -0.033188596
-0.18684451 -0.044187531 -0.031208366
-0.17171536 -0.049860954 -0.030649362
-0.11673783 -0.046088886 -0.034827139
-0.077669367 -0.044348929 -0.035019632
0.042835575 -0.043215148 -0.035145067
0.055230703 -0.044549689 -0.034997437
0.10544907 -0.041894108 -0.03509127
0.13261162 -0.049695469 -0.034442741
0.17099154 -0.044019613 -0.035056069
0.22676919 -0.044024616 -0.035021957
-0.28152028 -0.035157867 -0.03226814
-0.24956842 -0.037674449 -0.039641343
-0.22100767 -0.037303284 -0.036665469
-0.15655619 -0.030956989 -0.031854399
-0.1231857 -0.03204459 -0.033431157
-0.11957925 -0.039175052 -0.03498226
-0.086086512 -0.035383765 -0.034391984
-0.057412069 -0.036109224 -0.034593523
0.016671803 -0.032940269 -0.033694595
0.022006981 -0.034349479 -0.034109082
0.040859632 -0.032167144 -0.033467069
0.11055215 -0.030930232 -0.033103395
0.13573948 -0.030860841 -0.033082984
0.14544213 -0.03049513 -0.032975417
0.17420049 -0.036310256 -0.034645624
0.18377504 -0.031733803 -0.033339668
0.23350699 -0.033826042 -0.033955127
-0.17245822 -0.026588172 -0.030066352
-0.15363556 -0.027881257 -0.031214196
-0.13242881 -0.028015418 -0.032114863
-0.098555245 -0.026141422 -0.03148444
-0.086374998 -0.028565813 -0.032407958
-0.01464582 -0.024381138 -0.030539555
0.069024585 -0.025669126 -0.031230746
0.10339525 -0.029863765 -0.032789648
0.12438126 -0.026864838 -0.031872746
0.15478949 -0.029127125 -0.032573052
0.20827475 -0.028652366 -0.032433458
0.23643674 -0.025506336 -0.031031027
0.24327895 -0.02831894 -0.031859864
-0.021676144 -0.08223512 -0.021231508
-0.00057527889 -0.080264069 -0.028408073
-0.12645584 -0.070480853 -0.025735013
-0.074938931 -0.076548405 -0.020965815
-0.066139676 -0.076658845 -0.022747893
0.015135799 -0.079700135 -0.029514845
0.12634486 -0.078367859 -0.020485302
0.20969453 -0.071441449 -0.025977973
-0.17909482 -0.060019679 -0.024845995
-0.14622165 -0.069578014 -0.022922046
-0.13852875 -0.06919305 -0.024870528
0.0079354011 -0.062901035 -0.027581813
0.051714465 -0.063905835 -0.026318977
0.14538999 -0.0689722 -0.027811512
0.20655502 -0.068125531 -0.028345576
0.25686157 -0.063255474 -0.029291974
0.29204291 -0.060930714 -0.021798782
0.0059987986 -0.058220442 -0.028866697
-0.23146513 -0.043648735 -0.025449436
-0.2231275 -0.04056026 -0.022767268
0.2764602 -0.042056613 -0.029480137
0.29227352 -0.040914364 -0.024050571
-0.2854948 -0.034861606 -0.025894886
-0.26067847 -0.037793703 -0.029821688
-0.24015304 -0.034250624 -0.029168397
-0.2261638 -0.03570012 -0.025819814
-0.20902714 -0.02911678 -0.028646579
-0.17156708 -0.022280782 -0.027540833
-0.14108212 -0.021085272 -0.028039692
0.049222834 -0.020698775 -0.028151343
0.16665271 -0.0221841 -0.029298652
0.26971129 -0.022109807 -0.023770576
-0.12037496 -0.014017849 -0.020438835
-0.1128801 -0.017362267 -0.025090806
-0.094221592 -0.01974667 -0.027394593
-0.087926842 -0.017683912 -0.025515685
-0.070199698 -0.017215598 -0.024897065
-0.063303441 -0.018583216 -0.026469853
0.019397218 -0.014609322 -0.021454304
0.02334955 -0.015021886 -0.021924995
0.033559538 -0.016542463 -0.024008183
0.089522779 -0.019981708 -0.027581474
0.1023507 -0.015888896 -0.023144752
0.1464418 -0.015988724 -0.023276398
0.17157695 -0.019776551 -0.027418341
0.24180792 -0.016177032 -0.023124419
0.25933298 -0.018284084 -0.023632146
-0.12302314 -0.08077734 -0.010379726
-0.10419194 -0.080422401 -0.0143009
-0.062966697 -0.080981992 -0.013710509
-0.0092250416 -0.083263256 -0.014751588
0.08714927 -0.083307423 -0.012299177
0.10735261 -0.08221294 -0.011740404
0.16406929 -0.081158131 -0.013295008
0.17392278 -0.081006847 -0.013651867
-0.17361227 -0.07121481 -0.012926071
0.26577094 -0.078937478 -0.01023194
-0.21380158 -0.061348848 -0.013123446
-0.20583236 -0.060161285 -0.019481605
-0.23047921 -0.057032898 -0.014309449
0.3062771 -0.057277799 -0.017848754
-0.24964291 -0.040147491 -0.01583086
-0.22076614 -0.041497018 -0.01739116
0.32114166 -0.044471178 -0.010212129
-0.28297713 -0.038645647 -0.014594508
-0.27773249 -0.036776677 -0.019200549
-0.25424302 -0.037427686 -0.017942216
-0.27359498 -0.025464868 -0.013024206
-0.26212868 -0.027179338 -0.018242605
0.28482467 -0.021331409 -0.015412173
-0.11149814 -0.010136327 -0.012387639
-0.072078258 -0.013727956 -0.019932913
0.0043658353 -0.011001641 -0.01458418
0.016087729 -0.010867939 -0.014244787
0.032736074 -0.013591262 -0.019694353
0.11345874 -0.011393914 -0.01557994
0.24674906 -0.010147517 -0.011563814
-0.054198593 -0.0096276654 -0.01102286
0.27371645 -0.10433576 -0.0064153564
-0.048887752 -0.083827466 -0.0032288923
0.011627848 -0.084074929 -0.00016610028
0.046754036 -0.083610266 -0.0056681461
0.063188896 -0.083467662 -0.0080534341
0.16081446 -0.083933324 -0.0019187648
0.19496524 -0.083971307 -0.0014486684
0.22370179 -0.083766975 -0.0039776489
0.24561313 -0.082461402 -0.0091855079
0.26946715 -0.082887195 -0.0081859995
-0.17891848 -0.071695767 -0.0019832761
0.28343743 -0.077317692 -0.0011073332
0.29202807 -0.073941477 -0.005125301
0.30296624 -0.070831932 -0.0015448495
-0.22208405 -0.062464461 -0.0027782994
0.30548561 -0.069539398 -0.0034802842
-0.30475986 -0.034814905 -0.0046105436
-0.29888147 -0.038790271 -0.0092858421
0.31673124 -0.036001433 -0.0013975446
-0.29649508 -0.028528742 -0.0084883813
-0.26470476 -0.020934999 -0.0048626368
-0.2640292 -0.015423302 -0.001299305
-0.23582926 -0.015604094 -0.0033773857
-0.187124 -0.01094299 -0.0028563037
-0.21630591 -0.00053014525 -0.0048644207
-0.14835134 -0.009888893 -0.0075698765
-0.13733396 -0.0096384743 -0.0091809509
-0.10012529 -0.008462349 -0.0059733074
-0.089223191 -0.0090576205 -0.0085527385
-0.064837582 -0.0091146771 -0.0087999776
-0.04022669 -0.0082752174 -0.0041307313
-0.014284482 -0.0086968178 -0.0069893086
-0.00045768172 -0.0088990452 -0.0078655984
0.0051126163 -0.0086732404 -0.0063291639
0.026574109 -0.0086711105 -0.0068779141
0.040677082 -0.0080986954 -0.0017803089
0.095218241 -0.008168729 -0.0027128144
0.11490522 -0.0090508973 -0.0085236076
0.12505189 -0.0082751922 -0.0041303961
0.155656 -0.0082835052 -0.0042405035
0.20314527 -0.0084924744 -0.0061038453
0.2551066 -0.009824194 -0.0028912325
-0.24240501 0.0059856982 -0.0035298013
-0.23058137 0.0010113728 -0.0041926922
-0.20693488 0.008787252 -0.0045289863
-0.21137306 0.017661309 -0.0039998903
-0.29292578 0.028201904 -0.00047038056
-0.27763334 0.020069268 -0.0013845355
-0.24446791 0.029166803 -0.0039893151
-0.20449358 0.024434187 -0.00028224118
-0.23614137 0.032370791 -0.0042873109
-0.22997341 0.032063939 -0.0039533894
-0.23874645 0.049299996 -0.0027113981
-0.28995451 0.058630314 -0.0018314174
-0.27483195 0.054538563 -0.0027465608
-0.26543587 0.053998519 -0.0033597234
-0.31248337 0.065168962 -0.00014593605
-0.25291753 0.067884997 -0.0011497373
-0.31604302 0.077593416 -0.00026799453
-0.27062857 0.073265173 -0.0029293438
-0.29229537 0.09484037 -0.0024233884
-0.28009978 0.091487594 -0.001608833
-0.32254565 0.10153833 -0.0007005707
0.26938856 -0.10957558 0.0041651959
0.27528676 -0.10604288 0.0080454694
-0.095352799 -0.083250642 0.006555412
-0.089599334 -0.082758375 0.0088989586
-0.053533819 -0.083082348 0.0075962925
0.0019430725 -0.083533958 0.0081898142
0.099021316 -0.083747521 0.0042232024
0.11712603 -0.083769046 0.0039581349
0.12560448 -0.082780011 0.0088119544
0.13321021 -0.083614811 0.0051305708
0.15713586 -0.082994021 0.007951417
0.20306887 -0.083828241 0.0032291235
0.22069444 -0.083745174 0.0042521078
0.23489618 -0.083780505 0.0037704816
-0.16692084 -0.073679626 0.0051818178
-0.15681241 -0.07556764 0.006320517
-0.14927362 -0.077208318 0.0053546201
0.29119918 -0.074897081 0.0016398992
-0.21497892 -0.063930698 0.0036230145
0.31216335 -0.066026099 0.0061531756
-0.24814433 -0.056522951 0.0034343244
-0.29596052 -0.046769373 0.00071503053
-0.31413054 -0.0368618 0.002384665
0.31366378 -0.034830526 0.002503085
-0.2609722 -0.021992866 0.001349878
0.30750906 -0.029004699 0.0020429967
-0.26628461 -0.012269737 0.0012408204
-0.21782783 -0.013890634 0.0057119485
-0.20355263 -0.011980671 0.0052063167
0.27809119 -0.01461466 0.0010721668
0.28439328 -0.0163968 0.00072012359
-0.20129248 -0.0048611937 0.0053626578
-0.16166374 -0.0093308073 0.0041530253
-0.13306019 -0.0082475375 0.0017399301
-0.11470206 -0.0088382866 0.0076019098
-0.054005392 -0.0081013814 0.0018334582
-0.037166923 -0.0086980322 0.0069941515
0.0082699917 -0.0081410371 0.0023590354
0.096001178 -0.0086620357 0.0065032654
0.11378273 -0.0090248743 0.0084104324
0.15281697 -0.0085334359 0.0062809237
0.18434595 -0.0090488875 0.0085144863
0.24710783 -0.0088963928 0.0056106886
-0.26768941 0.0096591404 0.0018247867
-0.24242857 0.0047452054 0.0035103706
-0.23400116 0.00349233 0.0040466194
-0.26233032 0.015239388 0.0024814664
-0.2400611 0.015614533 0.0040146653
-0.2267631 0.017818576 0.0045978734
-0.19774467 0.015496017 0.0019193717
-0.25472164 0.028962193 0.0034337668
-0.23142096 0.022423398 0.0044505876
-0.27180117 0.035553809 0.0024746868
-0.25597975 0.034172073 0.0035120111
-0.23201439 0.041615091 0.002922927
-0.22945189 0.045619935 0.0013175746
-0.30626512 0.067778967 0.00072488631
-0.27114987 0.069045842 0.0032534953
-0.29585263 0.075895071 0.0021029587
-0.30997422 0.086321235 0.0012394092
-0.30738747 0.093690217 0.001838159
-0.28731835 0.097221337 0.0016943527
-0.11358812 -0.080929823 0.011313263
-0.030160423 -0.083388649 0.010439822
-0.027322182 -0.083167523 0.012905752
0.00015978189 -0.083247989 0.014953667
0.044388354 -0.08288566 0.018011685
0.081250668 -0.083197951 0.015680125
0.11129828 -0.08084888 0.018585611
0.17713381 -0.080172002 0.01552134
0.19622712 -0.080967203 0.01374498
-0.17973799 -0.070350066 0.010315034
-0.15802339 -0.07444869 0.01244683
-0.11761968 -0.078437097 0.016965754
-0.10150571 -0.079789996 0.015599528
0.13674727 -0.077481501 0.019886138
0.17712814 -0.078864127 0.017643606
0.22823954 -0.079829998 0.016076298
0.27527076 -0.076645426 0.011363599
-0.23069453 -0.057278983 0.013673645
0.30126584 -0.058919143 0.019426512
-0.22937718 -0.041109588 0.018953336
-0.2942161 -0.038511373 0.010973128
-0.26381668 -0.03627412 0.017749678
-0.25844812 -0.039317686 0.017006684
-0.22488466 -0.036245726 0.017076658
0.29427773 -0.031514123 0.018810896
-0.26982778 -0.02438068 0.012733599
-0.25061327 -0.023633728 0.018218502
0.2854121 -0.020625731 0.014033351
-0.22687265 -0.019021362 0.016983241
-0.18194263 -0.0119351 0.010835005
-0.11248252 -0.011189215 0.015059924
-0.092499778 -0.010564797 0.01347488
-0.080414429 -0.011269758 0.015264377
-0.050537661 -0.010093888 0.012279514
-0.04220058 -0.013153258 0.018929549
-0.013344932 -0.010745028 0.013932385
0.0060813613 -0.013107195 0.018849161
0.011788157 -0.012135932 0.017154112
0.12235081 -0.011587194 0.016070167
0.13065712 -0.011528319 0.015920714
0.14007501 -0.011054581 0.014718167
0.25284329 -0.010702564 0.010980002
-0.12084277 -0.0096040713 0.010920223
-0.068709172 -0.0094681215 0.010331119
0.098859884 -0.0094913011 0.010431559
-0.037537407 -0.081498846 0.02352473
-0.021861887 -0.081690669 0.024577601
-0.017867308 -0.08176218 0.024640694
-0.0030956359 -0.082270324 0.022381689
0.090467639 -0.081988081 0.0241968
-0.13621339 -0.070764475 0.023726055
-0.025643285 -0.079479776 0.028929157
0.11904708 -0.079517052 0.020786978
0.16769555 -0.072935462 0.024725404
0.17605016 -0.071279228 0.026106512
-0.17829297 -0.061122376 0.024379438
-0.1476766 -0.067236781 0.02499488
-0.10963916 -0.06771972 0.028293122
0.068337858 -0.064215936 0.025347034
0.11605947 -0.060540579 0.027054502
0.14861825 -0.069276758 0.027619002
0.19295517 -0.068355754 0.028199922
0.26167578 -0.066187695 0.02682443
-0.20421796 -0.056579772 0.023364594
-0.16529655 -0.055857576 0.029677937
0.078388117 -0.055538081 0.027778942
-0.24168977 -0.044207029 0.023358932
0.29715586 -0.047612496 0.023309918
-0.2853806 -0.03545687 0.02020539
-0.27376682 -0.037112039 0.021356281
-0.26914448 -0.034419738 0.024397628
-0.25734979 -0.033879355 0.029294621
-0.24869794 -0.036839716 0.025637176
-0.23710623 -0.034657624 0.027110908
-0.22400676 -0.039555214 0.02947613
-0.21202864 -0.032914065 0.028859176
0.27690423 -0.039934643 0.028946452
-0.23606142 -0.026785327 0.023680547
-0.22297862 -0.027317587 0.026021868
-0.20096441 -0.028041206 0.029417925
-0.16355148 -0.024748651 0.029496834
0.078501239 -0.021267559 0.028603029
0.15167308 -0.021205233 0.028553462
0.25094673 -0.024783317 0.029595735
0.27516899 -0.02980206 0.026184304
0.28132901 -0.028689332 0.023150705
-0.19460101 -0.018104808 0.023317102
-0.18008845 -0.016645418 0.021818293
-0.16019297 -0.01967063 0.02603987
-0.093430623 -0.01451292 0.02130243
0.0089979228 -0.015587764 0.02274614
0.18582737 -0.018736485 0.026591187
0.20437619 -0.01445103 0.021194423
-0.035686344 -0.078056887 0.030446669
-0.016223041 -0.070224233 0.034737643
0.032032937 -0.075982794 0.033763029
0.064357437 -0.070735171 0.035041984
0.070844755 -0.077916428 0.031964216
-0.12152651 -0.060433902 0.031981468
-0.097544283 -0.063789412 0.03078359
-0.040731244 -0.066591226 0.033320997
-0.024949256 -0.061621606 0.032976858
-0.015063333 -0.061492309 0.039775837
-0.008766707 -0.069966316 0.0350926
0.019562278 -0.064718947 0.035085313
0.026962513 -0.061945807 0.034793083
0.039181713 -0.065872133 0.0350926
0.092662834 -0.06433624 0.035080802
0.10693338 -0.064125597 0.030329978
0.179657 -0.062232327 0.031528346
0.18117027 -0.062606432 0.031350642
0.20808464 -0.06506829 0.030272931
0.22174233 -0.065107003 0.03024908
0.26070994 -0.060092784 0.030041868
-0.14676493 -0.054213013 0.031869791
-0.11905654 -0.059260257 0.032417741
-0.028809888 -0.054795947 0.03397255
0.002552364 -0.054860208 0.034952056
0.018552247 -0.057161011 0.035199665
0.036570217 -0.052778784 0.034835607
0.049884807 -0.055319086 0.03494785
0.093814731 -0.051305838 0.034688301
0.12174059 -0.05049083 0.034378953
0.17984179 -0.051971667 0.034260921
0.19849864 -0.054156676 0.033815548
0.2017218 -0.051392943 0.034307051
0.22097215 -0.05365508 0.033926241
0.23479894 -0.056838684 0.033198893
0.24825777 -0.05294909 0.033242188
-0.18782298 -0.04579588 0.030705603
-0.13002102 -0.043803185 0.035052508
-0.11440507 -0.045970112 0.034839876
-0.097926214 -0.044485264 0.035004154
-0.039293401 -0.040737499 0.035045549
0.020220548 -0.045442779 0.034898218
0.08701013 -0.046431188 0.034843512
0.10106176 -0.043365475 0.035128038
0.12611686 -0.045941092 0.034843087
0.14830837 -0.045869999 0.034850955
0.15025452 -0.043998469 0.03505801
0.16242848 -0.045866627 0.034797713
0.21879138 -0.040826447 0.035049174
0.22082835 -0.044074181 0.035049632
0.26047891 -0.041643083 0.032519214
-0.28260833 -0.033627447 0.034430008
-0.27365944 -0.033009052 0.037091233
-0.26407319 -0.034434214 0.034163088
-0.24675225 -0.038055267 0.038128328
-0.23693508 -0.038126145 0.038593449
-0.14040297 -0.031103268 0.032650672
-0.079361558 -0.036730871 0.034681082
-0.049618185 -0.031799469 0.033358611
-0.024981819 -0.03350335 0.03385973
0.029465973 -0.035753455 0.034500893
0.089584425 -0.039824486 0.035008334
0.1198344 -0.036841068 0.03478279
0.12157921 -0.038417563 0.034950975
0.20501117 -0.030926848 0.033102036
-0.10324526 -0.027637307 0.032134458
0.013527753 -0.025911292 0.031360455
0.088056102 -0.027385438 0.032060362
0.096101679 -0.025410719 0.031091843
0.10769542 -0.029991085 0.03282664
0.14265722 -0.023520172 0.030077031
0.1843542 -0.02378976 0.03022185
0.0081116678 -0.080455907 0.046713196
0.0045397645 -0.076808348 0.046031691
0.035592183 -0.062369723 0.043646406
0.044826031 -0.062275734 0.046639577
0.09293735 -0.062645726 0.046249069
-0.011338241 -0.05830846 0.04611475
0.020015921 -0.056690007 0.041974422
0.044670738 -0.055624381 0.043781471
0.053166181 -0.05552426 0.041607652
0.071560964 -0.055237435 0.04135545
-0.23724851 -0.035737537 0.040681057
0.023355819 -0.10534133 0.053191748
-0.0078403652 -0.095971681 0.055130735
0.0086438395 -0.09388601 0.05674408
0.059071232 -0.0619523 0.052739762
0.070081554 -0.061591592 0.058064569
0.017910101 -0.055858321 0.055953681
0.036274478 -0.055295639 0.053456619
0.053709585 -0.054738611 0.055820365
-0.28426179 -0.031407543 0.053036161
-0.27961835 -0.033187546 0.058597889
-0.26219147 -0.033622384 0.056290805
-0.25759089 -0.033136621 0.056563109
0.0024662544 -0.10375486 0.064938933
0.011262447 -0.10842749 0.066048265
0.012899814 -0.092895813 0.064496867
0.01128345 -0.082231365 0.06054873
0.015375515 -0.060359094 0.064625323
0.057109311 -0.06059508 0.06884256
0.0032126454 -0.059821479 0.068207584
0.051209927 -0.054552563 0.060149331
-0.28374067 -0.031755127 0.069162928
-0.27910626 -0.032294888 0.063370317
-0.24688414 -0.033023808 0.069603391
-0.034106832 -0.058054127 0.074385591
-0.013665417 -0.059184104 0.070912443
-0.0062425775 -0.059169613 0.073731214
0.023241449 -0.054715842 0.070093535
0.044792298 -0.056948282 0.073620148
0.059930027 -0.054260857 0.076956093
0.061181478 -0.054418903 0.076991901
-0.26640895 -0.033047773 0.071441524
-0.28428835 -0.028789066 0.074001074
0.066435702 -0.093233049 0.089899585
0.07978902 -0.082789473 0.08392024
0.092753917 -0.084249318 0.081733808
0.065205365 -0.074388728 0.086010218
0.086204261 -0.074375257 0.083766945
0.11477022 -0.072065696 0.089145549
-0.023791874 -0.06101016 0.087590925
-0.0078098979 -0.06284757 0.084715113
-0.034431875 -0.057479054 0.084868014
-0.014338003 -0.058602259 0.086562276
0.0010404985 -0.05871978 0.083477311
0.020293534 -0.054138437 0.080871172
0.040316157 -0.053407375 0.084569603
0.064288244 -0.057929814 0.084482715
-0.29872674 -0.028302774 0.086624742
-0.28584135 -0.027539279 0.085364163
0.042781614 -0.090254799 0.093989074
0.076907516 -0.097730964 0.091242619
0.080017321 -0.09840633 0.092479981
0.10313767 -0.094693646 0.092602238
0.04512582 -0.086577721 0.090980269
0.053194568 -0.073310256 0.091648012
0.063953899 -0.076310784 0.092847988
0.065308347 -0.066746786 0.096587874
0.084164962 -0.065531738 0.092962891
0.10190439 -0.069668144 0.094854549
0.11454144 -0.068021446 0.099951155
-0.012383018 -0.055077489 0.090771526
-0.0035092947 -0.057633407 0.094195381
0.0033764455 -0.057358988 0.099555418
0.023884345 -0.055588979 0.094451539
0.079246536 -0.058093056 0.09948463
-0.26812443 -0.02964893 0.096012399
0.082331702 -0.10044658 0.10023998
0.040358912 -0.093540534 0.10463695
0.051758781 -0.095986627 0.10240415
0.080668554 -0.098655127 0.10921523
0.037347198 -0.083012484 0.10507733
0.069884256 -0.071597233 0.10409653
0.075942367 -0.079418696 0.10638721
0.015848774 -0.06841071 0.10439137
0.025615335 -0.066742808 0.10528877
0.038025249 -0.069007523 0.10034172
0.048418477 -0.066332504 0.106408
0.055471908 -0.064893402 0.10440473
0.067208275 -0.065290928 0.10427731
-0.023301367 -0.055218946 0.1059625
-0.014633274 -0.055421002 0.10368031
0.013830587 -0.052286699 0.10646149
0.025899755 -0.05531599 0.10167774
0.043502267 -0.056049101 0.10566224
0.053979732 -0.090750366 0.11374543
0.076737583 -0.093593322 0.11347833
0.080824874 -0.096422821 0.11365193
0.060426593 -0.087585129 0.11576888
0.11042746 -0.085056596 0.11887658
0.052464224 -0.071147092 0.11160889
0.095870033 -0.070857823 0.11705748
0.078780822 -0.069670409 0.11255796
0.099250272 -0.066380344 0.11131413
-0.035160508 -0.055196524 0.11464432
-0.02287744 -0.053591534 0.11218594
0.0061625876 -0.054053802 0.11392756
0.026355257 -0.051259082 0.11537126
0.030428708 -0.051366448 0.11352175
-0.30109295 -0.025621057 0.11505407
-0.29702511 -0.025549399 0.11002877
-0.28200883 -0.027335502 0.11162628
0.075412571 -0.08291243 0.12046777
0.072843343 -0.076725416 0.12002712
-0.028880715 -0.053203285 0.12004288
-0.01385273 -0.054603763 0.12975521
-0.0058282409 -0.053660132 0.12155679
0.027606189 -0.050394446 0.12771216
0.036548894 -0.055448577 0.12711599
-0.30540505 -0.022572324 0.12904297
-0.29369548 -0.02524182 0.12584147
-0.040716358 -0.053309653 0.13730575
-0.0053699594 -0.054719158 0.13047031
0.016871439 -0.049812697 0.13496909
-0.29615659 -0.023993233 0.13027677
-0.040019531 -0.051697955 0.14208852
-0.031449199 -0.053105511 0.14348364
0.0026855404 -0.053256985 0.14980552
0.0084427828 -0.049374741 0.1419117
-0.033647593 -0.051847219 0.15382296
-0.0239792 -0.053741738 0.15497805
-0.019568628 -0.05180227 0.16350822
0.0019699775 -0.047300562 0.16882263
-0.044684783 -0.05051117 0.17251244
-0.028999496 -0.050312623 0.17984189
0.012338551 -0.048144095 0.17069286
-0.050165072 -0.049546201 0.18312727
-0.040202707 -0.049805883 0.18317835
-0.034366738 -0.047216441 0.18197232
-0.024939368 -0.046501983 0.1852594
-0.0083603878 -0.045807637 0.18911463
-0.062349789 -0.047929961 0.19957533
-0.057854813 -0.047443971 0.19469473
-0.021966342 -0.045461915 0.1959929
-0.018546015 -0.045509826 0.19451798
-0.061903473 -0.047298074 0.20810768
-0.044899464 -0.046521209 0.20598847
-0.035043761 -0.044859312 0.20720048
-0.011113935 -0.048200123 0.20786048
-0.0076848236 -0.045632314 0.20938712
-0.052867852 -0.047092937 0.21402977
-0.02752029 -0.04565613 0.21554726
-0.065179124 -0.05144009 0.22199298
-0.052421726 -0.050000876 0.22401667
-0.042793222 -0.050524905 0.2213428
-0.056344159 -0.045417182 0.22252324
-0.021651652 -0.046254445 0.22962363
-0.080201432 -0.044059318 0.24116781
-0.064310931 -0.044232722 0.24723165
-0.053750306 -0.044474173 0.24686086
-0.042997308 -0.041979678 0.24108806
-0.031478588 -0.041912921 0.24387613
-0.05189842 -0.040523071 0.25978833
-0.040700492 -0.0435775 0.259354
-0.084786192 -0.041678727 0.26581734
-0.066141695 -0.040507201 0.26501641
-0.05604307 -0.040258445 0.26385683
-0.055784665 -0.042351134 0.27230895
-0.06540437 -0.041298337 0.28355476
-0.090316743 -0.039203435 0.29658911
-0.066287622 -0.037916362 0.29294327
-0.091996297 -0.037295785 0.30962938
-0.086484686 -0.039425761 0.30212018
-0.070330672 -0.036679879 0.30831391
-0.068488374 -0.039310075 0.30681905
-0.094116062 -0.036570936 0.32416922
-0.07519 -0.035561454 0.32535928
-0.10877842 -0.03190412 0.34054577
-0.11653669 -0.0283469 0.34238732
-0.10710093 -0.021344004 0.34408662
-0.095267572 -0.026378809 0.34251055
-0.1212348 -0.01110576 0.34808287
-0.12965462 -0.0059906133 0.3502712
-0.13484983 0.010250056 0.35586038
